NORM_ASCII
3280 6556
3 896 728 897 
3 897 728 898 
3 898 728 892 
3 729 732 899 
3 730 729 900 
3 899 900 729 
3 730 900 901 
3 902 888 730 
3 730 901 902 
3 895 739 731 
3 736 903 732 
3 899 732 903 
3 733 734 904 
3 905 733 904 
3 735 733 905 
3 734 737 906 
3 904 734 906 
3 907 736 735 
3 735 905 908 
3 907 735 909 
3 735 908 909 
3 903 736 907 
3 737 743 910 
3 911 906 737 
3 737 910 911 
3 739 912 738 
3 740 738 913 
3 913 738 912 
3 912 739 914 
3 895 914 739 
3 913 742 740 
3 741 742 756 
3 756 742 913 
3 743 881 910 
3 915 745 744 
3 744 749 915 
3 747 745 916 
3 916 745 915 
3 779 746 917 
3 917 746 748 
3 918 748 747 
3 919 747 920 
3 747 919 918 
3 747 916 921 
3 921 920 747 
3 917 748 918 
3 922 749 923 
3 922 915 749 
3 923 749 750 
3 924 925 750 
3 924 750 766 
3 925 923 750 
3 753 751 755 
3 758 752 754 
3 753 755 926 
3 758 754 753 
3 758 753 926 
3 927 928 755 
3 755 928 929 
3 755 757 930 
3 931 926 755 
3 929 932 755 
3 755 930 927 
3 755 933 931 
3 932 934 755 
3 934 935 755 
3 933 755 935 
3 913 936 756 
3 930 757 756 
3 927 930 756 
3 936 927 756 
3 926 761 758 
3 759 937 776 
3 759 760 937 
3 938 937 760 
3 938 760 761 
3 761 931 938 
3 926 931 761 
3 763 762 939 
3 762 767 940 
3 762 940 939 
3 939 941 763 
3 942 764 763 
3 763 941 942 
3 764 942 943 
3 944 765 764 
3 945 946 764 
3 764 946 944 
3 943 945 764 
3 766 765 947 
3 765 944 947 
3 766 948 924 
3 948 766 949 
3 947 949 766 
3 940 767 950 
3 768 950 767 
3 951 950 768 
3 768 770 951 
3 952 770 769 
3 769 771 953 
3 953 952 769 
3 770 952 951 
3 954 771 955 
3 771 772 955 
3 954 953 771 
3 773 955 772 
3 956 773 774 
3 955 773 957 
3 956 957 773 
3 958 774 775 
3 956 774 958 
3 959 958 775 
3 777 959 775 
3 777 776 960 
3 776 937 960 
3 777 961 959 
3 777 962 961 
3 962 777 960 
3 963 820 778 
3 963 778 779 
3 779 917 963 
3 821 782 780 
3 789 781 964 
3 781 782 964 
3 821 965 782 
3 965 964 782 
3 785 783 966 
3 967 966 783 
3 783 784 967 
3 967 784 968 
3 786 968 784 
3 785 969 793 
3 785 970 971 
3 971 969 785 
3 785 966 970 
3 787 968 786 
3 788 810 787 
3 972 787 810 
3 973 968 787 
3 971 787 972 
3 973 787 971 
3 788 974 810 
3 964 974 788 
3 789 964 788 
3 791 799 790 
3 791 801 799 
3 791 975 801 
3 791 976 975 
3 977 791 792 
3 977 976 791 
3 793 969 792 
3 792 969 977 
3 795 794 978 
3 796 978 794 
3 979 797 795 
3 795 980 979 
3 978 980 795 
3 800 978 796 
3 981 797 979 
3 797 981 798 
3 982 806 798 
3 981 982 798 
3 800 983 980 
3 980 978 800 
3 800 801 984 
3 983 800 984 
3 985 984 801 
3 975 985 801 
3 802 986 987 
3 986 802 803 
3 988 802 987 
3 802 988 804 
3 989 990 803 
3 806 989 803 
3 990 991 803 
3 986 803 991 
3 804 992 805 
3 993 992 804 
3 988 993 804 
3 992 871 805 
3 994 806 982 
3 994 995 806 
3 989 806 995 
3 807 841 815 
3 996 810 813 
3 810 997 998 
3 999 972 810 
3 998 1000 810 
3 810 974 814 
3 810 996 997 
3 810 1000 999 
3 1001 1002 811 
3 811 817 1001 
3 1003 812 811 
3 1003 811 1002 
3 812 1004 996 
3 1004 812 1003 
3 813 812 996 
3 974 818 814 
3 1002 1001 815 
3 815 1001 816 
3 1002 815 841 
3 817 816 1001 
3 1005 818 974 
3 819 818 1005 
3 1006 965 819 
3 819 965 821 
3 1005 1006 819 
3 884 820 963 
3 842 822 824 
3 1007 824 823 
3 823 829 1007 
3 842 824 1008 
3 824 1007 1008 
3 825 1009 826 
3 825 857 1009 
3 826 1009 1010 
3 1010 827 826 
3 1011 828 827 
3 1012 1013 827 
3 1011 827 1013 
3 827 1010 1012 
3 829 828 1011 
3 829 1011 1007 
3 830 843 831 
3 831 1014 832 
3 831 843 1014 
3 1014 833 832 
3 833 1015 1016 
3 1016 1017 833 
3 1015 833 1014 
3 833 1017 834 
3 1018 834 1017 
3 834 1018 836 
3 836 1018 1003 
3 837 836 1003 
3 838 837 1019 
3 1002 1019 837 
3 1002 837 1003 
3 838 840 839 
3 1019 841 838 
3 841 840 838 
3 841 1019 1002 
3 842 1014 843 
3 1020 842 1008 
3 842 1020 1014 
3 844 847 1021 
3 844 1021 1022 
3 844 1022 1023 
3 844 1023 846 
3 1023 855 846 
3 847 1024 1021 
3 849 1024 847 
3 848 862 849 
3 1024 849 1025 
3 849 862 1025 
3 850 853 1026 
3 850 1026 856 
3 852 851 1027 
3 851 1028 1029 
3 1029 1027 851 
3 1028 851 855 
3 854 852 1027 
3 854 1026 853 
3 1030 854 1027 
3 1026 854 1030 
3 855 1031 1028 
3 1031 855 1023 
3 856 1026 857 
3 857 1026 1032 
3 857 1032 1009 
3 858 859 1033 
3 858 1033 1034 
3 858 1034 863 
3 1033 859 860 
3 1035 1036 860 
3 1035 860 1037 
3 860 866 1037 
3 860 1036 1033 
3 861 866 860 
3 1038 1039 862 
3 862 1040 1025 
3 1039 1040 862 
3 862 1041 1038 
3 1041 862 863 
3 1034 1041 863 
3 865 1042 864 
3 864 1042 866 
3 1043 1042 865 
3 865 1044 1043 
3 1045 1044 865 
3 865 870 1045 
3 1042 1037 866 
3 867 1046 868 
3 867 1047 1048 
3 867 871 1049 
3 1049 1047 867 
3 1046 867 1050 
3 1048 1050 867 
3 868 1046 869 
3 1045 869 1051 
3 869 1052 1051 
3 869 1045 870 
3 1050 1052 869 
3 869 1046 1050 
3 992 1049 871 
3 880 872 878 
3 873 874 882 
3 876 875 887 
3 1053 1054 876 
3 876 887 1053 
3 877 876 1054 
3 878 877 1055 
3 1055 877 1054 
3 1055 1056 878 
3 1056 880 878 
3 1057 881 879 
3 879 880 1057 
3 1056 1057 880 
3 910 881 1057 
3 883 885 919 
3 883 919 1058 
3 883 1058 886 
3 884 963 917 
3 885 884 917 
3 918 919 885 
3 917 918 885 
3 886 1058 1059 
3 1059 1060 886 
3 1060 1061 886 
3 886 1061 1062 
3 1063 1053 886 
3 1053 887 886 
3 1063 886 1062 
3 889 888 902 
3 900 1064 889 
3 902 900 889 
3 1065 889 1064 
3 1066 889 1065 
3 1066 891 889 
3 894 890 891 
3 891 1066 894 
3 1067 1068 892 
3 892 1068 898 
3 893 1067 892 
3 1069 1067 893 
3 893 1070 1069 
3 1070 893 894 
3 1071 1072 894 
3 1070 894 1073 
3 894 1066 1074 
3 1074 1071 894 
3 1073 894 1072 
3 895 896 1075 
3 914 895 1075 
3 897 1076 896 
3 1075 896 1076 
3 1076 897 898 
3 898 1068 1076 
3 899 903 1077 
3 1077 1078 899 
3 900 899 1078 
3 1079 1064 900 
3 901 900 902 
3 1080 900 1078 
3 900 1080 1079 
3 1081 903 907 
3 903 1081 1077 
3 905 904 1082 
3 906 911 904 
3 904 911 1082 
3 1083 908 905 
3 905 1082 1083 
3 1084 1085 907 
3 907 909 1084 
3 907 1085 1081 
3 1086 908 1083 
3 1087 908 1086 
3 1088 908 1087 
3 908 1088 909 
3 1084 909 1088 
3 910 1082 911 
3 1056 1055 910 
3 910 1057 1056 
3 1082 910 1055 
3 912 1089 913 
3 1089 912 914 
3 936 913 1090 
3 1090 913 1089 
3 1075 1089 914 
3 915 921 916 
3 921 915 922 
3 920 1058 919 
3 1059 1058 920 
3 1059 920 1091 
3 920 921 1091 
3 921 922 1091 
3 922 923 925 
3 925 1092 922 
3 1092 1091 922 
3 1093 925 924 
3 948 1094 924 
3 924 1094 1093 
3 1095 1096 925 
3 925 1093 1095 
3 1092 925 1096 
3 936 928 927 
3 929 928 1090 
3 1090 928 936 
3 1097 929 1090 
3 929 1098 1099 
3 929 1097 1098 
3 932 929 1099 
3 1100 931 933 
3 1100 938 931 
3 1099 1101 932 
3 934 932 1101 
3 933 1102 1100 
3 1102 933 1103 
3 1104 1103 933 
3 935 1104 933 
3 935 934 1105 
3 1106 1105 934 
3 934 1101 1107 
3 1107 1106 934 
3 935 1105 1104 
3 938 960 937 
3 1108 938 1100 
3 1108 960 938 
3 940 941 939 
3 941 940 1109 
3 1109 940 950 
3 942 941 1110 
3 941 1109 1111 
3 1110 941 1111 
3 1110 1112 942 
3 943 942 1113 
3 1113 942 1114 
3 1115 1114 942 
3 942 1112 1115 
3 1113 1116 943 
3 1116 945 943 
3 947 944 946 
3 1117 946 945 
3 945 1118 1117 
3 1116 1118 945 
3 946 1119 1120 
3 1120 947 946 
3 1119 946 1117 
3 1121 1122 947 
3 1122 949 947 
3 1123 947 1120 
3 1123 1121 947 
3 949 1094 948 
3 1094 949 1122 
3 950 951 1109 
3 1109 951 1124 
3 953 951 952 
3 951 953 1125 
3 1124 951 1126 
3 1126 951 1125 
3 953 1127 1125 
3 1127 953 954 
3 1128 954 955 
3 954 1128 1127 
3 955 1129 1128 
3 955 1130 1129 
3 955 957 1130 
3 1131 957 956 
3 956 958 1131 
3 1132 1133 957 
3 957 1131 1132 
3 1133 1130 957 
3 1134 958 1135 
3 1136 1131 958 
3 958 959 1135 
3 958 1134 1136 
3 1135 959 961 
3 1137 962 960 
3 960 1108 1137 
3 962 1138 961 
3 961 1139 1135 
3 1138 1139 961 
3 1138 962 1137 
3 1005 974 964 
3 964 1006 1005 
3 964 965 1006 
3 966 967 973 
3 970 966 973 
3 973 967 968 
3 969 971 977 
3 970 973 971 
3 977 971 1140 
3 1000 1140 971 
3 999 1000 971 
3 972 999 971 
3 975 976 1141 
3 975 1141 1142 
3 975 1142 985 
3 1141 976 1143 
3 1143 976 977 
3 1140 1144 977 
3 1143 977 1144 
3 982 981 979 
3 983 1145 979 
3 1146 1147 979 
3 979 980 983 
3 979 1145 1146 
3 1147 982 979 
3 994 982 1148 
3 1147 1148 982 
3 984 1145 983 
3 1149 1145 984 
3 984 1150 1151 
3 984 1151 1149 
3 984 985 1152 
3 1152 1150 984 
3 1152 985 1142 
3 986 1153 987 
3 1153 986 1154 
3 1155 1154 986 
3 986 991 1155 
3 1156 987 1157 
3 1157 987 1153 
3 987 1156 1158 
3 1158 1159 987 
3 987 1159 988 
3 988 1159 993 
3 1160 990 989 
3 995 1160 989 
3 990 1160 1161 
3 990 1161 991 
3 1161 1155 991 
3 1049 992 993 
3 993 1159 1162 
3 993 1162 1163 
3 1163 1049 993 
3 1148 1164 994 
3 995 994 1164 
3 1165 995 1166 
3 1165 1167 995 
3 1168 1166 995 
3 995 1167 1160 
3 1164 1168 995 
3 1169 996 1004 
3 997 996 1170 
3 996 1169 1170 
3 997 1171 998 
3 997 1170 1140 
3 997 1140 1171 
3 1000 998 1171 
3 1171 1140 1000 
3 1172 1003 1018 
3 1003 1172 1173 
3 1003 1173 1004 
3 1004 1173 1169 
3 1174 1007 1011 
3 1008 1007 1174 
3 1008 1174 1175 
3 1008 1175 1176 
3 1020 1008 1176 
3 1032 1010 1009 
3 1177 1012 1010 
3 1030 1010 1032 
3 1178 1177 1010 
3 1010 1030 1178 
3 1011 1179 1174 
3 1013 1179 1011 
3 1180 1013 1012 
3 1180 1012 1177 
3 1181 1179 1013 
3 1013 1182 1181 
3 1180 1182 1013 
3 1014 1020 1015 
3 1016 1015 1183 
3 1176 1015 1020 
3 1183 1015 1176 
3 1016 1184 1185 
3 1185 1186 1016 
3 1016 1183 1184 
3 1187 1016 1188 
3 1016 1186 1188 
3 1016 1187 1017 
3 1017 1187 1018 
3 1018 1189 1190 
3 1018 1191 1172 
3 1192 1189 1018 
3 1018 1187 1192 
3 1190 1191 1018 
3 1024 1193 1021 
3 1022 1021 1193 
3 1022 1194 1195 
3 1193 1196 1022 
3 1196 1197 1022 
3 1022 1197 1198 
3 1195 1023 1022 
3 1022 1198 1199 
3 1199 1194 1022 
3 1023 1195 1031 
3 1200 1024 1025 
3 1200 1193 1024 
3 1025 1040 1200 
3 1030 1032 1026 
3 1201 1027 1029 
3 1027 1201 1178 
3 1027 1178 1030 
3 1202 1029 1028 
3 1028 1031 1202 
3 1029 1202 1203 
3 1029 1203 1201 
3 1204 1202 1031 
3 1031 1205 1204 
3 1031 1195 1205 
3 1034 1033 1036 
3 1206 1041 1034 
3 1206 1034 1207 
3 1036 1207 1034 
3 1208 1036 1035 
3 1209 1210 1035 
3 1035 1210 1208 
3 1209 1035 1037 
3 1208 1207 1036 
3 1037 1042 1209 
3 1211 1039 1038 
3 1038 1212 1211 
3 1041 1212 1038 
3 1211 1040 1039 
3 1213 1040 1211 
3 1040 1214 1200 
3 1040 1213 1214 
3 1206 1212 1041 
3 1042 1043 1215 
3 1209 1042 1216 
3 1215 1216 1042 
3 1217 1215 1043 
3 1043 1044 1217 
3 1044 1218 1219 
3 1044 1045 1220 
3 1219 1217 1044 
3 1220 1218 1044 
3 1051 1221 1045 
3 1221 1222 1045 
3 1045 1222 1220 
3 1047 1163 1048 
3 1047 1049 1163 
3 1050 1048 1223 
3 1048 1162 1223 
3 1163 1162 1048 
3 1224 1052 1050 
3 1050 1223 1224 
3 1225 1051 1052 
3 1051 1225 1221 
3 1226 1225 1052 
3 1052 1224 1226 
3 1053 1063 1054 
3 1054 1227 1055 
3 1054 1063 1227 
3 1055 1228 1229 
3 1083 1082 1055 
3 1083 1055 1229 
3 1055 1227 1228 
3 1060 1059 1091 
3 1091 1230 1060 
3 1060 1231 1061 
3 1232 1060 1230 
3 1060 1232 1231 
3 1062 1061 1231 
3 1233 1062 1231 
3 1063 1062 1233 
3 1234 1227 1063 
3 1234 1063 1233 
3 1064 1079 1065 
3 1065 1079 1235 
3 1065 1074 1066 
3 1236 1074 1065 
3 1237 1065 1238 
3 1065 1235 1239 
3 1237 1236 1065 
3 1065 1239 1238 
3 1068 1067 1240 
3 1067 1069 1241 
3 1067 1241 1240 
3 1242 1076 1068 
3 1068 1243 1242 
3 1244 1245 1068 
3 1068 1246 1243 
3 1245 1246 1068 
3 1068 1240 1244 
3 1069 1247 1241 
3 1069 1070 1248 
3 1248 1247 1069 
3 1070 1073 1248 
3 1236 1072 1071 
3 1071 1074 1236 
3 1249 1073 1072 
3 1236 1250 1072 
3 1249 1072 1250 
3 1248 1073 1249 
3 1251 1089 1075 
3 1075 1076 1242 
3 1251 1075 1242 
3 1252 1077 1081 
3 1077 1252 1078 
3 1078 1253 1080 
3 1078 1254 1253 
3 1254 1078 1252 
3 1079 1255 1235 
3 1079 1080 1255 
3 1080 1253 1255 
3 1085 1256 1081 
3 1081 1256 1252 
3 1229 1257 1083 
3 1083 1257 1086 
3 1085 1084 1258 
3 1084 1088 1258 
3 1258 1259 1085 
3 1260 1256 1085 
3 1261 1260 1085 
3 1085 1259 1261 
3 1257 1262 1086 
3 1086 1262 1087 
3 1262 1263 1087 
3 1088 1087 1263 
3 1259 1258 1088 
3 1259 1088 1263 
3 1090 1089 1251 
3 1264 1090 1243 
3 1097 1090 1265 
3 1090 1251 1243 
3 1090 1264 1265 
3 1230 1091 1096 
3 1091 1092 1096 
3 1093 1094 1122 
3 1266 1267 1093 
3 1267 1095 1093 
3 1266 1093 1121 
3 1093 1122 1121 
3 1096 1095 1230 
3 1095 1267 1268 
3 1095 1268 1230 
3 1269 1098 1097 
3 1097 1265 1269 
3 1099 1098 1270 
3 1271 1270 1098 
3 1269 1272 1098 
3 1273 1271 1098 
3 1273 1098 1272 
3 1101 1099 1274 
3 1274 1099 1270 
3 1100 1102 1275 
3 1276 1108 1100 
3 1100 1275 1277 
3 1277 1276 1100 
3 1274 1107 1101 
3 1102 1278 1279 
3 1102 1103 1278 
3 1279 1275 1102 
3 1280 1103 1104 
3 1281 1278 1103 
3 1281 1103 1280 
3 1282 1104 1105 
3 1283 1280 1104 
3 1283 1104 1282 
3 1284 1282 1105 
3 1105 1106 1284 
3 1106 1285 1284 
3 1106 1107 1286 
3 1286 1285 1106 
3 1287 1288 1107 
3 1107 1289 1287 
3 1107 1274 1289 
3 1288 1286 1107 
3 1108 1290 1291 
3 1108 1291 1137 
3 1108 1292 1290 
3 1293 1292 1108 
3 1276 1293 1108 
3 1124 1294 1109 
3 1111 1109 1294 
3 1110 1295 1112 
3 1111 1295 1110 
3 1111 1294 1295 
3 1112 1295 1115 
3 1116 1113 1114 
3 1115 1296 1114 
3 1114 1297 1116 
3 1114 1296 1297 
3 1115 1295 1298 
3 1299 1296 1115 
3 1115 1298 1300 
3 1300 1301 1115 
3 1115 1301 1299 
3 1302 1118 1116 
3 1303 1302 1116 
3 1304 1305 1116 
3 1305 1303 1116 
3 1297 1304 1116 
3 1117 1118 1302 
3 1117 1302 1119 
3 1306 1120 1119 
3 1306 1119 1302 
3 1307 1123 1120 
3 1120 1306 1307 
3 1266 1121 1123 
3 1123 1308 1309 
3 1309 1266 1123 
3 1123 1307 1308 
3 1126 1294 1124 
3 1125 1127 1310 
3 1125 1310 1126 
3 1311 1294 1126 
3 1312 1126 1310 
3 1312 1311 1126 
3 1310 1127 1312 
3 1312 1127 1313 
3 1314 1313 1127 
3 1128 1314 1127 
3 1129 1313 1128 
3 1314 1128 1313 
3 1315 1313 1129 
3 1315 1129 1316 
3 1317 1316 1129 
3 1129 1130 1317 
3 1130 1133 1317 
3 1132 1131 1136 
3 1318 1133 1132 
3 1318 1132 1319 
3 1132 1136 1134 
3 1320 1132 1134 
3 1319 1132 1320 
3 1318 1317 1133 
3 1135 1321 1134 
3 1322 1134 1321 
3 1320 1134 1323 
3 1134 1322 1323 
3 1135 1139 1321 
3 1137 1291 1139 
3 1138 1137 1139 
3 1321 1139 1291 
3 1144 1140 1170 
3 1142 1141 1324 
3 1324 1141 1325 
3 1325 1141 1143 
3 1152 1142 1326 
3 1324 1326 1142 
3 1143 1327 1328 
3 1325 1143 1328 
3 1170 1327 1143 
3 1144 1170 1143 
3 1329 1330 1145 
3 1145 1149 1329 
3 1145 1330 1331 
3 1145 1331 1146 
3 1147 1146 1331 
3 1147 1332 1333 
3 1334 1148 1147 
3 1334 1147 1333 
3 1332 1147 1331 
3 1335 1164 1148 
3 1334 1335 1148 
3 1336 1329 1149 
3 1336 1149 1151 
3 1150 1336 1151 
3 1337 1150 1152 
3 1336 1150 1338 
3 1339 1338 1150 
3 1150 1340 1339 
3 1337 1340 1150 
3 1152 1341 1337 
3 1152 1326 1341 
3 1154 1157 1153 
3 1342 1157 1154 
3 1154 1155 1343 
3 1343 1342 1154 
3 1344 1343 1155 
3 1155 1161 1345 
3 1345 1344 1155 
3 1157 1342 1156 
3 1346 1347 1156 
3 1348 1349 1156 
3 1350 1348 1156 
3 1351 1346 1156 
3 1156 1349 1351 
3 1156 1347 1226 
3 1158 1156 1226 
3 1156 1342 1350 
3 1226 1159 1158 
3 1224 1223 1159 
3 1159 1226 1224 
3 1162 1159 1223 
3 1160 1167 1161 
3 1167 1345 1161 
3 1168 1164 1335 
3 1166 1352 1165 
3 1353 1165 1352 
3 1165 1353 1167 
3 1354 1352 1166 
3 1354 1166 1168 
3 1167 1353 1355 
3 1356 1167 1355 
3 1167 1356 1357 
3 1358 1167 1357 
3 1358 1345 1167 
3 1168 1359 1360 
3 1168 1360 1354 
3 1359 1168 1361 
3 1361 1168 1335 
3 1173 1362 1169 
3 1169 1363 1170 
3 1363 1169 1362 
3 1170 1364 1327 
3 1365 1364 1170 
3 1363 1365 1170 
3 1191 1366 1172 
3 1172 1366 1362 
3 1172 1362 1173 
3 1174 1179 1367 
3 1174 1367 1175 
3 1175 1368 1369 
3 1176 1175 1369 
3 1367 1370 1175 
3 1175 1370 1368 
3 1369 1183 1176 
3 1177 1371 1372 
3 1177 1372 1180 
3 1178 1371 1177 
3 1371 1178 1201 
3 1179 1373 1374 
3 1179 1181 1373 
3 1374 1367 1179 
3 1372 1375 1180 
3 1180 1375 1182 
3 1182 1373 1181 
3 1376 1377 1182 
3 1376 1182 1378 
3 1375 1378 1182 
3 1377 1373 1182 
3 1379 1183 1380 
3 1379 1184 1183 
3 1369 1380 1183 
3 1185 1184 1381 
3 1381 1184 1379 
3 1382 1186 1185 
3 1382 1185 1381 
3 1188 1186 1383 
3 1189 1383 1186 
3 1189 1186 1382 
3 1188 1192 1187 
3 1188 1383 1192 
3 1189 1384 1190 
3 1192 1383 1189 
3 1385 1384 1189 
3 1386 1189 1382 
3 1189 1386 1385 
3 1190 1384 1387 
3 1191 1190 1388 
3 1387 1389 1190 
3 1365 1388 1190 
3 1190 1389 1390 
3 1365 1190 1390 
3 1388 1366 1191 
3 1193 1200 1391 
3 1193 1391 1196 
3 1194 1205 1195 
3 1194 1199 1392 
3 1392 1393 1194 
3 1205 1194 1393 
3 1196 1391 1394 
3 1196 1395 1197 
3 1196 1394 1395 
3 1197 1395 1396 
3 1198 1197 1396 
3 1198 1396 1397 
3 1398 1198 1397 
3 1399 1198 1398 
3 1198 1399 1199 
3 1392 1199 1400 
3 1199 1399 1400 
3 1391 1200 1401 
3 1401 1200 1214 
3 1201 1203 1371 
3 1202 1204 1402 
3 1403 1404 1202 
3 1202 1402 1403 
3 1404 1203 1202 
3 1405 1371 1203 
3 1405 1203 1406 
3 1203 1404 1406 
3 1204 1205 1402 
3 1393 1402 1205 
3 1407 1212 1206 
3 1206 1207 1407 
3 1207 1208 1407 
3 1208 1210 1407 
3 1209 1408 1210 
3 1409 1408 1209 
3 1216 1409 1209 
3 1408 1410 1210 
3 1407 1210 1410 
3 1212 1411 1211 
3 1211 1412 1213 
3 1211 1411 1413 
3 1413 1412 1211 
3 1212 1414 1415 
3 1415 1411 1212 
3 1407 1414 1212 
3 1416 1213 1412 
3 1213 1416 1214 
3 1214 1417 1401 
3 1417 1214 1416 
3 1215 1217 1418 
3 1215 1418 1419 
3 1216 1215 1409 
3 1215 1419 1420 
3 1215 1420 1409 
3 1217 1421 1422 
3 1219 1421 1217 
3 1217 1422 1418 
3 1423 1219 1218 
3 1423 1218 1424 
3 1425 1424 1218 
3 1220 1222 1218 
3 1222 1425 1218 
3 1219 1423 1421 
3 1222 1221 1426 
3 1225 1426 1221 
3 1427 1428 1222 
3 1222 1429 1430 
3 1428 1425 1222 
3 1222 1431 1427 
3 1222 1430 1431 
3 1432 1429 1222 
3 1222 1426 1432 
3 1426 1225 1226 
3 1226 1347 1426 
3 1234 1433 1227 
3 1228 1227 1434 
3 1227 1433 1434 
3 1229 1228 1435 
3 1436 1437 1228 
3 1434 1436 1228 
3 1228 1438 1435 
3 1228 1437 1438 
3 1257 1229 1435 
3 1230 1439 1232 
3 1439 1230 1268 
3 1231 1232 1439 
3 1231 1439 1233 
3 1439 1268 1233 
3 1268 1440 1233 
3 1308 1233 1440 
3 1233 1308 1234 
3 1441 1234 1308 
3 1433 1234 1441 
3 1235 1255 1442 
3 1239 1235 1442 
3 1250 1236 1443 
3 1237 1443 1236 
3 1238 1444 1237 
3 1445 1237 1446 
3 1445 1447 1237 
3 1237 1447 1448 
3 1446 1237 1444 
3 1448 1449 1237 
3 1449 1443 1237 
3 1444 1238 1450 
3 1238 1239 1450 
3 1239 1442 1451 
3 1450 1239 1451 
3 1240 1241 1247 
3 1247 1248 1240 
3 1248 1452 1240 
3 1244 1240 1452 
3 1242 1243 1251 
3 1264 1243 1246 
3 1245 1244 1453 
3 1454 1453 1244 
3 1244 1452 1454 
3 1455 1246 1245 
3 1269 1455 1245 
3 1245 1453 1456 
3 1245 1456 1269 
3 1455 1264 1246 
3 1248 1457 1452 
3 1458 1248 1250 
3 1248 1458 1457 
3 1248 1249 1250 
3 1443 1459 1250 
3 1250 1460 1458 
3 1250 1459 1461 
3 1250 1462 1460 
3 1250 1461 1462 
3 1252 1256 1463 
3 1252 1463 1464 
3 1252 1464 1254 
3 1253 1254 1465 
3 1465 1255 1253 
3 1254 1464 1465 
3 1466 1255 1465 
3 1442 1255 1466 
3 1463 1256 1260 
3 1257 1435 1467 
3 1257 1468 1469 
3 1257 1467 1468 
3 1262 1257 1469 
3 1263 1470 1259 
3 1471 1259 1470 
3 1259 1472 1261 
3 1473 1259 1471 
3 1472 1259 1473 
3 1260 1474 1475 
3 1260 1475 1464 
3 1474 1260 1261 
3 1464 1463 1260 
3 1474 1261 1476 
3 1477 1476 1261 
3 1477 1261 1472 
3 1263 1262 1469 
3 1469 1470 1263 
3 1265 1264 1455 
3 1265 1455 1269 
3 1266 1478 1267 
3 1478 1266 1309 
3 1478 1268 1267 
3 1479 1268 1478 
3 1268 1479 1440 
3 1272 1269 1456 
3 1271 1480 1270 
3 1270 1480 1481 
3 1274 1270 1481 
3 1273 1482 1271 
3 1480 1271 1482 
3 1483 1272 1456 
3 1273 1272 1483 
3 1484 1273 1483 
3 1484 1482 1273 
3 1485 1289 1274 
3 1481 1485 1274 
3 1486 1277 1275 
3 1279 1486 1275 
3 1293 1276 1277 
3 1277 1487 1293 
3 1277 1488 1487 
3 1486 1488 1277 
3 1489 1279 1278 
3 1490 1278 1491 
3 1278 1490 1489 
3 1278 1281 1492 
3 1491 1278 1492 
3 1489 1486 1279 
3 1493 1281 1280 
3 1493 1280 1283 
3 1492 1281 1493 
3 1282 1284 1494 
3 1494 1495 1282 
3 1495 1283 1282 
3 1283 1495 1496 
3 1496 1493 1283 
3 1284 1285 1494 
3 1497 1494 1285 
3 1285 1498 1497 
3 1285 1286 1499 
3 1500 1498 1285 
3 1285 1499 1500 
3 1288 1501 1286 
3 1501 1499 1286 
3 1287 1502 1288 
3 1289 1502 1287 
3 1503 1501 1288 
3 1288 1502 1503 
3 1504 1502 1289 
3 1505 1504 1289 
3 1485 1505 1289 
3 1506 1291 1290 
3 1290 1507 1506 
3 1292 1507 1290 
3 1291 1506 1321 
3 1292 1487 1507 
3 1293 1487 1292 
3 1294 1508 1509 
3 1508 1294 1311 
3 1295 1294 1509 
3 1298 1295 1509 
3 1299 1297 1296 
3 1510 1297 1511 
3 1511 1297 1299 
3 1510 1304 1297 
3 1298 1509 1508 
3 1508 1300 1298 
3 1511 1299 1301 
3 1512 1301 1300 
3 1300 1508 1512 
3 1512 1513 1301 
3 1511 1301 1513 
3 1306 1302 1514 
3 1515 1514 1302 
3 1515 1302 1303 
3 1516 1303 1305 
3 1515 1303 1516 
3 1305 1304 1517 
3 1304 1510 1518 
3 1518 1517 1304 
3 1516 1305 1519 
3 1517 1520 1305 
3 1305 1520 1519 
3 1308 1306 1441 
3 1308 1307 1306 
3 1514 1521 1306 
3 1306 1522 1523 
3 1441 1306 1523 
3 1306 1521 1522 
3 1440 1309 1308 
3 1478 1309 1479 
3 1440 1479 1309 
3 1508 1311 1312 
3 1312 1315 1508 
3 1315 1312 1313 
3 1508 1315 1512 
3 1512 1315 1316 
3 1524 1316 1317 
3 1525 1316 1524 
3 1512 1316 1513 
3 1526 1316 1525 
3 1513 1316 1526 
3 1317 1318 1527 
3 1527 1524 1317 
3 1319 1528 1318 
3 1529 1318 1530 
3 1527 1318 1529 
3 1530 1318 1528 
3 1319 1320 1531 
3 1319 1531 1532 
3 1528 1319 1532 
3 1323 1531 1320 
3 1321 1506 1322 
3 1322 1506 1533 
3 1533 1323 1322 
3 1323 1534 1531 
3 1323 1535 1534 
3 1533 1535 1323 
3 1326 1324 1536 
3 1536 1324 1325 
3 1328 1536 1325 
3 1341 1326 1536 
3 1327 1364 1328 
3 1536 1328 1337 
3 1337 1328 1537 
3 1538 1328 1364 
3 1538 1537 1328 
3 1332 1330 1329 
3 1329 1539 1332 
3 1540 1541 1329 
3 1338 1540 1329 
3 1329 1541 1539 
3 1338 1329 1336 
3 1331 1330 1332 
3 1332 1539 1333 
3 1542 1333 1541 
3 1542 1543 1333 
3 1539 1541 1333 
3 1333 1543 1334 
3 1543 1335 1334 
3 1335 1543 1361 
3 1337 1341 1536 
3 1544 1340 1337 
3 1537 1544 1337 
3 1545 1540 1338 
3 1338 1339 1546 
3 1545 1338 1546 
3 1340 1546 1339 
3 1547 1548 1340 
3 1340 1548 1546 
3 1544 1547 1340 
3 1343 1549 1342 
3 1350 1342 1549 
3 1343 1344 1345 
3 1345 1358 1343 
3 1358 1549 1343 
3 1347 1346 1432 
3 1351 1432 1346 
3 1347 1432 1426 
3 1348 1550 1349 
3 1358 1550 1348 
3 1549 1358 1348 
3 1549 1348 1350 
3 1551 1351 1349 
3 1550 1551 1349 
3 1429 1351 1551 
3 1429 1432 1351 
3 1352 1552 1353 
3 1354 1553 1352 
3 1553 1552 1352 
3 1353 1552 1355 
3 1554 1555 1354 
3 1360 1556 1354 
3 1354 1556 1554 
3 1354 1555 1553 
3 1552 1557 1355 
3 1558 1355 1557 
3 1355 1559 1356 
3 1560 1561 1355 
3 1355 1558 1560 
3 1355 1561 1559 
3 1356 1559 1357 
3 1559 1561 1357 
3 1357 1562 1358 
3 1357 1561 1562 
3 1563 1550 1358 
3 1562 1563 1358 
3 1564 1360 1359 
3 1359 1565 1564 
3 1359 1361 1565 
3 1564 1556 1360 
3 1543 1565 1361 
3 1362 1366 1388 
3 1362 1388 1363 
3 1363 1388 1365 
3 1364 1390 1538 
3 1390 1364 1365 
3 1370 1367 1374 
3 1369 1368 1566 
3 1368 1567 1568 
3 1373 1368 1374 
3 1568 1566 1368 
3 1567 1368 1373 
3 1370 1374 1368 
3 1566 1380 1369 
3 1371 1405 1372 
3 1378 1375 1372 
3 1372 1405 1378 
3 1373 1569 1567 
3 1569 1373 1377 
3 1377 1376 1569 
3 1570 1376 1571 
3 1376 1570 1572 
3 1376 1573 1569 
3 1376 1572 1573 
3 1378 1571 1376 
3 1378 1405 1574 
3 1574 1571 1378 
3 1575 1379 1380 
3 1576 1379 1575 
3 1379 1576 1381 
3 1380 1566 1575 
3 1576 1577 1381 
3 1578 1381 1577 
3 1381 1578 1382 
3 1382 1578 1579 
3 1580 1382 1579 
3 1580 1386 1382 
3 1387 1384 1385 
3 1581 1387 1385 
3 1386 1582 1385 
3 1385 1582 1583 
3 1583 1581 1385 
3 1580 1582 1386 
3 1387 1581 1389 
3 1584 1389 1581 
3 1389 1584 1390 
3 1538 1390 1585 
3 1585 1390 1584 
3 1586 1394 1391 
3 1391 1401 1417 
3 1417 1586 1391 
3 1400 1587 1392 
3 1588 1392 1587 
3 1392 1588 1393 
3 1588 1589 1393 
3 1393 1589 1590 
3 1591 1393 1590 
3 1393 1591 1402 
3 1586 1592 1394 
3 1394 1592 1395 
3 1396 1395 1592 
3 1592 1593 1396 
3 1397 1396 1593 
3 1593 1594 1397 
3 1398 1397 1595 
3 1595 1397 1594 
3 1596 1398 1595 
3 1398 1596 1597 
3 1398 1597 1399 
3 1588 1587 1399 
3 1399 1597 1588 
3 1399 1587 1400 
3 1591 1403 1402 
3 1591 1404 1403 
3 1598 1404 1591 
3 1404 1598 1599 
3 1406 1404 1599 
3 1406 1600 1405 
3 1405 1600 1574 
3 1600 1406 1599 
3 1407 1410 1601 
3 1407 1601 1414 
3 1602 1408 1409 
3 1410 1408 1602 
3 1409 1420 1602 
3 1602 1603 1410 
3 1410 1603 1604 
3 1410 1604 1601 
3 1415 1605 1411 
3 1413 1411 1605 
3 1606 1607 1412 
3 1412 1608 1609 
3 1609 1606 1412 
3 1412 1607 1416 
3 1413 1608 1412 
3 1413 1605 1610 
3 1610 1608 1413 
3 1611 1415 1414 
3 1414 1601 1611 
3 1611 1605 1415 
3 1416 1607 1612 
3 1613 1416 1612 
3 1416 1613 1614 
3 1416 1614 1417 
3 1417 1615 1586 
3 1417 1614 1615 
3 1616 1418 1422 
3 1616 1419 1418 
3 1419 1616 1420 
3 1602 1420 1616 
3 1422 1421 1616 
3 1617 1618 1421 
3 1421 1618 1619 
3 1616 1421 1619 
3 1617 1421 1423 
3 1424 1617 1423 
3 1424 1425 1617 
3 1428 1617 1425 
3 1427 1620 1428 
3 1621 1620 1427 
3 1427 1622 1621 
3 1622 1427 1431 
3 1617 1428 1620 
3 1429 1623 1430 
3 1429 1624 1623 
3 1551 1624 1429 
3 1431 1430 1623 
3 1623 1622 1431 
3 1434 1433 1441 
3 1523 1625 1434 
3 1434 1441 1523 
3 1436 1434 1625 
3 1435 1438 1626 
3 1467 1435 1626 
3 1437 1436 1627 
3 1436 1625 1627 
3 1467 1626 1437 
3 1437 1626 1438 
3 1467 1437 1628 
3 1628 1437 1629 
3 1629 1437 1627 
3 1442 1466 1451 
3 1443 1449 1459 
3 1444 1630 1446 
3 1450 1631 1444 
3 1444 1631 1630 
3 1446 1632 1445 
3 1633 1447 1445 
3 1634 1445 1632 
3 1633 1445 1634 
3 1635 1446 1630 
3 1446 1635 1636 
3 1446 1636 1632 
3 1637 1448 1447 
3 1633 1637 1447 
3 1449 1448 1638 
3 1638 1448 1639 
3 1639 1448 1637 
3 1449 1640 1459 
3 1641 1640 1449 
3 1638 1641 1449 
3 1631 1450 1451 
3 1466 1642 1451 
3 1451 1642 1631 
3 1454 1452 1457 
3 1453 1454 1643 
3 1643 1456 1453 
3 1457 1644 1454 
3 1454 1644 1643 
3 1645 1646 1456 
3 1645 1456 1643 
3 1483 1456 1646 
3 1458 1644 1457 
3 1647 1644 1458 
3 1648 1647 1458 
3 1460 1648 1458 
3 1459 1649 1461 
3 1459 1650 1649 
3 1640 1650 1459 
3 1462 1648 1460 
3 1461 1651 1462 
3 1461 1649 1651 
3 1462 1652 1648 
3 1651 1652 1462 
3 1465 1464 1475 
3 1475 1466 1465 
3 1466 1475 1474 
3 1466 1474 1642 
3 1653 1467 1628 
3 1654 1467 1653 
3 1467 1654 1468 
3 1469 1468 1654 
3 1470 1469 1471 
3 1655 1469 1654 
3 1469 1655 1471 
3 1471 1655 1656 
3 1471 1656 1473 
3 1657 1658 1472 
3 1472 1473 1657 
3 1658 1659 1472 
3 1660 1477 1472 
3 1472 1659 1660 
3 1473 1656 1657 
3 1474 1476 1661 
3 1642 1474 1661 
3 1661 1476 1477 
3 1477 1660 1662 
3 1477 1663 1661 
3 1662 1664 1477 
3 1477 1664 1665 
3 1665 1663 1477 
3 1482 1481 1480 
3 1482 1666 1481 
3 1481 1505 1485 
3 1481 1667 1505 
3 1481 1668 1667 
3 1666 1668 1481 
3 1482 1484 1666 
3 1669 1670 1483 
3 1484 1483 1670 
3 1483 1646 1669 
3 1666 1484 1671 
3 1671 1484 1672 
3 1670 1672 1484 
3 1489 1488 1486 
3 1673 1487 1488 
3 1507 1487 1673 
3 1674 1673 1488 
3 1674 1488 1489 
3 1490 1675 1489 
3 1676 1674 1489 
3 1489 1675 1676 
3 1490 1491 1677 
3 1677 1675 1490 
3 1491 1678 1679 
3 1678 1491 1492 
3 1679 1677 1491 
3 1678 1492 1493 
3 1496 1680 1493 
3 1493 1680 1678 
3 1681 1682 1494 
3 1495 1494 1682 
3 1494 1497 1681 
3 1496 1495 1683 
3 1682 1683 1495 
3 1496 1683 1684 
3 1684 1680 1496 
3 1681 1497 1498 
3 1498 1685 1681 
3 1685 1498 1500 
3 1499 1501 1686 
3 1500 1499 1687 
3 1499 1688 1687 
3 1686 1688 1499 
3 1689 1500 1687 
3 1685 1500 1689 
3 1501 1690 1686 
3 1501 1691 1690 
3 1503 1691 1501 
3 1691 1502 1692 
3 1502 1691 1503 
3 1504 1692 1502 
3 1504 1505 1667 
3 1504 1667 1692 
3 1533 1506 1507 
3 1507 1693 1533 
3 1693 1507 1673 
3 1510 1511 1694 
3 1694 1518 1510 
3 1513 1695 1511 
3 1511 1695 1696 
3 1694 1511 1697 
3 1511 1696 1697 
3 1698 1513 1699 
3 1695 1513 1698 
3 1526 1699 1513 
3 1514 1700 1701 
3 1514 1701 1521 
3 1700 1514 1515 
3 1516 1700 1515 
3 1516 1702 1700 
3 1519 1702 1516 
3 1517 1518 1520 
3 1520 1518 1703 
3 1518 1694 1703 
3 1520 1704 1519 
3 1519 1705 1702 
3 1705 1519 1704 
3 1520 1703 1704 
3 1521 1701 1522 
3 1523 1522 1706 
3 1707 1522 1701 
3 1522 1707 1706 
3 1706 1625 1523 
3 1708 1525 1524 
3 1529 1708 1524 
3 1524 1527 1529 
3 1525 1708 1699 
3 1699 1526 1525 
3 1528 1532 1709 
3 1528 1709 1530 
3 1710 1529 1530 
3 1711 1708 1529 
3 1712 1529 1710 
3 1529 1712 1711 
3 1709 1713 1530 
3 1530 1714 1715 
3 1530 1713 1714 
3 1530 1716 1710 
3 1716 1530 1715 
3 1532 1531 1534 
3 1532 1534 1535 
3 1709 1532 1535 
3 1717 1535 1533 
3 1717 1533 1693 
3 1717 1709 1535 
3 1718 1544 1537 
3 1719 1718 1537 
3 1537 1538 1585 
3 1585 1719 1537 
3 1720 1541 1540 
3 1540 1545 1721 
3 1720 1540 1721 
3 1542 1541 1722 
3 1541 1720 1723 
3 1723 1722 1541 
3 1722 1724 1542 
3 1542 1724 1725 
3 1542 1725 1543 
3 1725 1565 1543 
3 1718 1726 1544 
3 1544 1726 1727 
3 1727 1547 1544 
3 1728 1721 1545 
3 1546 1728 1545 
3 1729 1728 1546 
3 1729 1546 1730 
3 1546 1548 1730 
3 1547 1731 1548 
3 1727 1731 1547 
3 1731 1730 1548 
3 1563 1732 1550 
3 1550 1732 1551 
3 1551 1732 1624 
3 1557 1552 1733 
3 1733 1552 1553 
3 1553 1734 1733 
3 1555 1734 1553 
3 1554 1735 1555 
3 1736 1735 1554 
3 1554 1737 1736 
3 1556 1737 1554 
3 1735 1738 1555 
3 1555 1738 1734 
3 1564 1737 1556 
3 1733 1558 1557 
3 1739 1740 1558 
3 1733 1739 1558 
3 1560 1558 1740 
3 1741 1561 1560 
3 1742 1741 1560 
3 1560 1740 1742 
3 1561 1743 1563 
3 1561 1741 1743 
3 1562 1561 1563 
3 1732 1563 1743 
3 1744 1564 1565 
3 1564 1744 1737 
3 1565 1725 1724 
3 1565 1745 1744 
3 1724 1745 1565 
3 1568 1575 1566 
3 1573 1568 1567 
3 1569 1573 1567 
3 1568 1746 1747 
3 1747 1575 1568 
3 1748 1746 1568 
3 1573 1748 1568 
3 1571 1749 1570 
3 1570 1749 1750 
3 1750 1572 1570 
3 1751 1749 1571 
3 1571 1574 1751 
3 1572 1752 1753 
3 1750 1752 1572 
3 1748 1573 1572 
3 1572 1753 1748 
3 1751 1574 1600 
3 1576 1575 1754 
3 1747 1754 1575 
3 1754 1755 1576 
3 1576 1755 1577 
3 1756 1757 1577 
3 1577 1757 1578 
3 1758 1756 1577 
3 1755 1758 1577 
3 1759 1760 1578 
3 1761 1759 1578 
3 1578 1757 1761 
3 1578 1760 1579 
3 1579 1760 1762 
3 1580 1579 1762 
3 1580 1762 1763 
3 1763 1584 1580 
3 1584 1582 1580 
3 1584 1581 1583 
3 1583 1582 1584 
3 1585 1584 1763 
3 1763 1719 1585 
3 1586 1764 1592 
3 1586 1615 1765 
3 1764 1586 1765 
3 1597 1766 1588 
3 1588 1766 1767 
3 1589 1588 1767 
3 1768 1590 1589 
3 1767 1768 1589 
3 1590 1769 1591 
3 1590 1768 1770 
3 1590 1770 1769 
3 1591 1771 1598 
3 1591 1769 1772 
3 1772 1771 1591 
3 1773 1593 1592 
3 1764 1773 1592 
3 1774 1594 1593 
3 1593 1775 1774 
3 1773 1775 1593 
3 1594 1774 1595 
3 1595 1774 1776 
3 1595 1776 1596 
3 1597 1596 1777 
3 1596 1776 1777 
3 1766 1597 1778 
3 1777 1778 1597 
3 1779 1598 1771 
3 1599 1598 1779 
3 1599 1751 1600 
3 1779 1751 1599 
3 1601 1604 1611 
3 1780 1603 1602 
3 1780 1602 1616 
3 1781 1603 1780 
3 1603 1781 1604 
3 1604 1782 1611 
3 1782 1604 1781 
3 1611 1783 1605 
3 1605 1783 1610 
3 1607 1606 1784 
3 1785 1786 1606 
3 1606 1609 1785 
3 1606 1786 1784 
3 1784 1612 1607 
3 1787 1609 1608 
3 1608 1788 1789 
3 1608 1789 1787 
3 1608 1610 1783 
3 1788 1608 1783 
3 1609 1787 1790 
3 1790 1791 1609 
3 1609 1791 1785 
3 1611 1782 1788 
3 1783 1611 1788 
3 1784 1792 1612 
3 1612 1792 1793 
3 1612 1793 1613 
3 1794 1613 1795 
3 1613 1794 1796 
3 1613 1765 1614 
3 1793 1795 1613 
3 1613 1796 1765 
3 1765 1615 1614 
3 1619 1797 1616 
3 1616 1797 1780 
3 1617 1798 1618 
3 1620 1798 1617 
3 1797 1618 1799 
3 1619 1618 1797 
3 1618 1798 1800 
3 1800 1801 1618 
3 1618 1801 1799 
3 1621 1802 1620 
3 1803 1798 1620 
3 1620 1802 1803 
3 1804 1621 1622 
3 1621 1804 1805 
3 1805 1802 1621 
3 1622 1806 1804 
3 1622 1623 1807 
3 1807 1808 1622 
3 1809 1806 1622 
3 1622 1808 1809 
3 1623 1624 1807 
3 1810 1807 1624 
3 1624 1732 1811 
3 1811 1810 1624 
3 1625 1706 1627 
3 1627 1812 1629 
3 1812 1627 1706 
3 1628 1813 1653 
3 1814 1813 1628 
3 1629 1815 1628 
3 1814 1628 1816 
3 1628 1815 1817 
3 1816 1628 1817 
3 1629 1812 1815 
3 1630 1818 1635 
3 1630 1631 1818 
3 1819 1631 1642 
3 1819 1820 1631 
3 1631 1820 1818 
3 1634 1632 1821 
3 1821 1632 1822 
3 1822 1632 1636 
3 1823 1824 1633 
3 1633 1824 1637 
3 1825 1823 1633 
3 1634 1826 1633 
3 1633 1826 1825 
3 1827 1826 1634 
3 1634 1821 1827 
3 1828 1635 1818 
3 1829 1636 1635 
3 1830 1829 1635 
3 1635 1828 1830 
3 1831 1832 1636 
3 1636 1829 1831 
3 1636 1832 1822 
3 1637 1824 1639 
3 1641 1638 1639 
3 1639 1824 1641 
3 1650 1640 1833 
3 1641 1833 1640 
3 1833 1641 1824 
3 1642 1661 1663 
3 1663 1819 1642 
3 1647 1643 1644 
3 1834 1835 1643 
3 1836 1643 1647 
3 1835 1645 1643 
3 1643 1836 1834 
3 1645 1837 1646 
3 1837 1645 1835 
3 1646 1837 1669 
3 1647 1648 1652 
3 1836 1647 1652 
3 1649 1838 1651 
3 1838 1649 1650 
3 1838 1650 1839 
3 1839 1650 1833 
3 1651 1838 1836 
3 1652 1651 1836 
3 1655 1654 1653 
3 1653 1813 1840 
3 1653 1840 1656 
3 1655 1653 1656 
3 1656 1840 1814 
3 1657 1656 1814 
3 1657 1816 1658 
3 1816 1657 1814 
3 1658 1816 1841 
3 1658 1841 1659 
3 1842 1660 1659 
3 1842 1659 1841 
3 1662 1660 1842 
3 1843 1664 1662 
3 1843 1662 1842 
3 1663 1665 1844 
3 1844 1819 1663 
3 1845 1665 1664 
3 1664 1843 1845 
3 1828 1665 1846 
3 1665 1828 1818 
3 1818 1844 1665 
3 1665 1845 1847 
3 1665 1847 1846 
3 1668 1666 1848 
3 1666 1671 1848 
3 1849 1692 1667 
3 1667 1668 1849 
3 1668 1848 1850 
3 1850 1849 1668 
3 1670 1669 1851 
3 1669 1852 1851 
3 1852 1669 1837 
3 1670 1853 1854 
3 1854 1672 1670 
3 1853 1670 1855 
3 1851 1855 1670 
3 1856 1848 1671 
3 1671 1672 1856 
3 1672 1854 1856 
3 1674 1693 1673 
3 1676 1693 1674 
3 1857 1676 1675 
3 1677 1857 1675 
3 1693 1676 1717 
3 1714 1676 1858 
3 1714 1713 1676 
3 1713 1717 1676 
3 1858 1676 1857 
3 1677 1859 1857 
3 1859 1677 1679 
3 1679 1678 1860 
3 1861 1862 1678 
3 1678 1862 1860 
3 1863 1861 1678 
3 1678 1680 1863 
3 1859 1679 1864 
3 1860 1865 1679 
3 1864 1679 1865 
3 1684 1863 1680 
3 1681 1683 1682 
3 1683 1681 1866 
3 1681 1867 1868 
3 1681 1869 1867 
3 1868 1866 1681 
3 1869 1681 1870 
3 1870 1681 1685 
3 1871 1684 1683 
3 1866 1871 1683 
3 1872 1684 1871 
3 1872 1863 1684 
3 1685 1689 1873 
3 1874 1685 1873 
3 1874 1870 1685 
3 1686 1690 1688 
3 1875 1687 1688 
3 1689 1687 1875 
3 1690 1876 1688 
3 1875 1688 1876 
3 1875 1877 1689 
3 1689 1877 1873 
3 1878 1690 1691 
3 1690 1878 1876 
3 1878 1691 1692 
3 1878 1692 1879 
3 1879 1692 1849 
3 1880 1703 1694 
3 1694 1697 1880 
3 1698 1696 1695 
3 1696 1881 1880 
3 1882 1696 1698 
3 1696 1882 1881 
3 1880 1697 1696 
3 1699 1882 1698 
3 1883 1699 1708 
3 1882 1699 1883 
3 1701 1700 1884 
3 1885 1884 1700 
3 1886 1885 1700 
3 1886 1700 1887 
3 1887 1700 1702 
3 1701 1884 1707 
3 1705 1887 1702 
3 1703 1888 1704 
3 1889 1703 1880 
3 1888 1703 1889 
3 1890 1705 1704 
3 1891 1704 1888 
3 1890 1704 1891 
3 1890 1887 1705 
3 1706 1707 1892 
3 1706 1893 1894 
3 1706 1892 1893 
3 1815 1812 1706 
3 1895 1706 1894 
3 1895 1815 1706 
3 1707 1884 1892 
3 1708 1896 1883 
3 1896 1708 1711 
3 1709 1717 1713 
3 1710 1897 1712 
3 1710 1716 1897 
3 1712 1898 1711 
3 1896 1711 1899 
3 1898 1899 1711 
3 1712 1897 1900 
3 1898 1712 1900 
3 1901 1715 1714 
3 1714 1859 1902 
3 1902 1901 1714 
3 1858 1859 1714 
3 1903 1716 1715 
3 1715 1901 1903 
3 1716 1904 1897 
3 1904 1716 1903 
3 1719 1726 1718 
3 1763 1726 1719 
3 1905 1906 1720 
3 1720 1907 1723 
3 1906 1907 1720 
3 1721 1905 1720 
3 1729 1908 1721 
3 1721 1728 1729 
3 1908 1905 1721 
3 1723 1724 1722 
3 1909 1723 1907 
3 1909 1724 1723 
3 1724 1909 1745 
3 1763 1910 1726 
3 1727 1726 1910 
3 1727 1910 1911 
3 1911 1731 1727 
3 1729 1912 1908 
3 1913 1912 1729 
3 1730 1913 1729 
3 1911 1913 1730 
3 1731 1911 1730 
3 1743 1811 1732 
3 1914 1915 1733 
3 1733 1915 1739 
3 1734 1914 1733 
3 1738 1914 1734 
3 1738 1735 1916 
3 1735 1736 1917 
3 1916 1735 1918 
3 1735 1917 1918 
3 1919 1917 1736 
3 1736 1737 1920 
3 1919 1736 1920 
3 1744 1920 1737 
3 1738 1921 1922 
3 1914 1738 1922 
3 1921 1738 1916 
3 1923 1740 1739 
3 1915 1923 1739 
3 1740 1923 1924 
3 1924 1742 1740 
3 1742 1925 1741 
3 1741 1926 1743 
3 1741 1925 1926 
3 1927 1742 1924 
3 1927 1928 1742 
3 1742 1929 1925 
3 1929 1742 1928 
3 1811 1743 1930 
3 1743 1926 1930 
3 1745 1920 1744 
3 1931 1920 1745 
3 1909 1907 1745 
3 1907 1906 1745 
3 1745 1906 1932 
3 1932 1931 1745 
3 1746 1933 1747 
3 1746 1748 1934 
3 1933 1746 1934 
3 1747 1933 1754 
3 1753 1934 1748 
3 1935 1936 1749 
3 1751 1779 1749 
3 1936 1750 1749 
3 1749 1779 1935 
3 1750 1936 1752 
3 1934 1753 1752 
3 1752 1937 1934 
3 1752 1938 1937 
3 1938 1752 1936 
3 1933 1939 1754 
3 1754 1939 1755 
3 1939 1758 1755 
3 1756 1940 1757 
3 1941 1756 1758 
3 1941 1940 1756 
3 1942 1761 1757 
3 1943 1757 1940 
3 1757 1943 1942 
3 1758 1939 1944 
3 1758 1945 1946 
3 1946 1941 1758 
3 1945 1758 1944 
3 1947 1760 1759 
3 1948 1947 1759 
3 1761 1948 1759 
3 1760 1947 1948 
3 1760 1948 1949 
3 1760 1949 1950 
3 1762 1760 1950 
3 1951 1952 1761 
3 1761 1942 1951 
3 1948 1761 1952 
3 1763 1762 1950 
3 1953 1954 1763 
3 1763 1955 1953 
3 1950 1955 1763 
3 1910 1763 1954 
3 1956 1764 1765 
3 1773 1764 1956 
3 1956 1765 1957 
3 1765 1796 1957 
3 1766 1778 1958 
3 1768 1766 1959 
3 1958 1959 1766 
3 1767 1766 1768 
3 1770 1768 1960 
3 1959 1960 1768 
3 1961 1772 1769 
3 1962 1769 1770 
3 1769 1962 1961 
3 1770 1960 1962 
3 1779 1771 1963 
3 1963 1771 1772 
3 1772 1964 1965 
3 1772 1961 1966 
3 1967 1964 1772 
3 1772 1965 1963 
3 1966 1968 1772 
3 1968 1967 1772 
3 1957 1773 1956 
3 1957 1775 1773 
3 1969 1970 1774 
3 1774 1775 1957 
3 1774 1970 1776 
3 1794 1969 1774 
3 1774 1957 1794 
3 1776 1971 1972 
3 1776 1970 1971 
3 1777 1776 1778 
3 1778 1776 1972 
3 1972 1973 1778 
3 1958 1778 1973 
3 1963 1935 1779 
3 1974 1781 1780 
3 1797 1974 1780 
3 1781 1974 1782 
3 1782 1975 1788 
3 1974 1976 1782 
3 1976 1977 1782 
3 1975 1782 1977 
3 1978 1792 1784 
3 1784 1786 1978 
3 1785 1791 1786 
3 1791 1979 1786 
3 1786 1979 1980 
3 1786 1980 1978 
3 1787 1789 1981 
3 1787 1982 1983 
3 1787 1983 1790 
3 1981 1982 1787 
3 1975 1789 1788 
3 1975 1981 1789 
3 1983 1984 1790 
3 1790 1984 1985 
3 1985 1791 1790 
3 1791 1985 1979 
3 1978 1986 1792 
3 1987 1792 1986 
3 1793 1792 1987 
3 1987 1988 1793 
3 1793 1988 1795 
3 1795 1989 1794 
3 1796 1794 1957 
3 1969 1794 1989 
3 1990 1795 1991 
3 1795 1988 1991 
3 1989 1795 1990 
3 1974 1797 1992 
3 1797 1799 1992 
3 1798 1803 1800 
3 1993 1994 1799 
3 1799 1801 1993 
3 1799 1994 1992 
3 1801 1800 1803 
3 1995 1801 1805 
3 1993 1801 1995 
3 1803 1802 1801 
3 1801 1802 1805 
3 1805 1804 1995 
3 1804 1806 1996 
3 1997 1995 1804 
3 1804 1996 1997 
3 1998 1806 1999 
3 1806 1998 1996 
3 1806 1809 2000 
3 2000 1999 1806 
3 1807 1810 1808 
3 2001 1809 1808 
3 2001 1808 2002 
3 1930 2002 1808 
3 1810 1930 1808 
3 2003 1809 2001 
3 2000 1809 2004 
3 2003 2004 1809 
3 1811 1930 1810 
3 1813 1814 1840 
3 1817 1815 1895 
3 1817 2005 1816 
3 1816 2005 1841 
3 2005 1817 2006 
3 1817 1895 2007 
3 2006 1817 2007 
3 1818 1820 1844 
3 1844 1820 1819 
3 1827 1821 2008 
3 2008 1821 1822 
3 1822 2009 2010 
3 1822 2010 2008 
3 1822 1832 2009 
3 1823 1833 1824 
3 1833 1823 2011 
3 1823 1825 2012 
3 2012 2011 1823 
3 2012 1825 2008 
3 1827 1825 1826 
3 2008 1825 1827 
3 1846 1830 1828 
3 1829 1830 2013 
3 1831 1829 2014 
3 2014 1829 2013 
3 1846 2015 1830 
3 2016 2013 1830 
3 1830 2015 2016 
3 2014 1832 1831 
3 2017 2018 1832 
3 1832 2019 2017 
3 1832 2014 2019 
3 2009 1832 2018 
3 1839 1833 2011 
3 1834 2020 1835 
3 1834 1839 2011 
3 2011 2021 1834 
3 1834 1836 1839 
3 2021 2020 1834 
3 2020 1837 1835 
3 1839 1836 1838 
3 2020 1852 1837 
3 2022 1841 2005 
3 2023 1841 2022 
3 2023 1842 1841 
3 1842 2023 2024 
3 1842 2024 1843 
3 2024 2025 1843 
3 1845 1843 2025 
3 1845 2026 2015 
3 1845 2025 2026 
3 1847 1845 2015 
3 1846 1847 2015 
3 1850 1848 1856 
3 1849 1850 2027 
3 1849 2028 1879 
3 1849 2027 2028 
3 1856 2029 1850 
3 2029 2030 1850 
3 1850 2030 2027 
3 1855 1851 2031 
3 1851 2032 2031 
3 1851 1852 2032 
3 2033 1852 2020 
3 2033 2032 1852 
3 1854 1853 2029 
3 2029 1853 2034 
3 1855 2034 1853 
3 1856 1854 2029 
3 2035 2036 1855 
3 2037 1855 2036 
3 2031 2035 1855 
3 2034 1855 2038 
3 2037 2038 1855 
3 1858 1857 1859 
3 1902 1859 2039 
3 2040 2039 1859 
3 1864 2040 1859 
3 1862 2041 1860 
3 1865 1860 2041 
3 2041 1862 1861 
3 2042 2041 1861 
3 1861 1863 1872 
3 1861 1872 2042 
3 2043 2040 1864 
3 1864 1865 2044 
3 2043 1864 2044 
3 1865 2041 2045 
3 2045 2044 1865 
3 2046 1866 2047 
3 2046 1871 1866 
3 2047 1866 1868 
3 1868 1867 2048 
3 1867 1869 2049 
3 1867 2049 2048 
3 2048 2047 1868 
3 1869 1870 1874 
3 2049 1869 1874 
3 1871 2050 1872 
3 2046 2050 1871 
3 2042 1872 2050 
3 2051 1873 1877 
3 1873 2051 1874 
3 1874 2051 2052 
3 2052 2053 1874 
3 1874 2053 2054 
3 1874 2054 2049 
3 1876 2055 1875 
3 1877 1875 2055 
3 1876 1878 2055 
3 2055 2056 1877 
3 1877 2056 2057 
3 2058 1877 2057 
3 2051 1877 2058 
3 1879 2055 1878 
3 2028 2059 1879 
3 2055 1879 2056 
3 2056 1879 2060 
3 2060 1879 2059 
3 2061 1880 1881 
3 1889 1880 2061 
3 1881 2062 2061 
3 2062 1881 1882 
3 2062 1882 1883 
3 2063 1883 2064 
3 1883 2063 2065 
3 2062 1883 2065 
3 1883 1896 2064 
3 1884 1885 1893 
3 1893 1892 1884 
3 1893 1885 1886 
3 1887 1893 1886 
3 1887 1894 1893 
3 1890 1894 1887 
3 1888 1889 2066 
3 2067 1891 1888 
3 2068 1888 2066 
3 2067 1888 2069 
3 2069 1888 2068 
3 2070 1889 2065 
3 2071 2066 1889 
3 1889 2061 2065 
3 2071 1889 2070 
3 1891 2067 1890 
3 2072 1890 2067 
3 1894 1890 2072 
3 1894 2073 1895 
3 2073 1894 2072 
3 2007 1895 2073 
3 1896 1899 2074 
3 2064 1896 2074 
3 1897 1904 2075 
3 1897 2075 1900 
3 2076 1899 1898 
3 1900 2077 1898 
3 2076 1898 2077 
3 1899 2076 2074 
3 1900 2075 2077 
3 1901 1902 2078 
3 2079 1903 1901 
3 1901 2080 2079 
3 1901 2081 2080 
3 1901 2078 2081 
3 2039 2078 1902 
3 2079 2082 1903 
3 1903 2083 1904 
3 2082 2083 1903 
3 2075 1904 2083 
3 1905 2084 1906 
3 2085 2084 1905 
3 2086 1905 1908 
3 2085 1905 2086 
3 2084 1932 1906 
3 2086 1908 1912 
3 1954 2087 1910 
3 2087 1911 1910 
3 2087 2088 1911 
3 2088 1913 1911 
3 2088 2086 1912 
3 1913 2088 1912 
3 2089 1915 1914 
3 1914 1922 2090 
3 2090 2089 1914 
3 1915 2089 1923 
3 1916 1918 2091 
3 2091 1921 1916 
3 1918 1917 1919 
3 1920 2092 1918 
3 2092 2091 1918 
3 1920 1918 1919 
3 2093 2092 1920 
3 1920 2094 2093 
3 2094 1920 1931 
3 1921 2095 1922 
3 1921 2091 2096 
3 2095 1921 2097 
3 2096 2097 1921 
3 2098 2090 1922 
3 1922 2095 2098 
3 1923 2099 1927 
3 2099 1923 2089 
3 1924 1923 1927 
3 1925 1929 2002 
3 1925 2002 1926 
3 2002 1930 1926 
3 1927 2100 1928 
3 2099 2100 1927 
3 2002 1929 1928 
3 2100 2003 1928 
3 1928 2003 2002 
3 1931 2101 2102 
3 1931 2102 2094 
3 2101 1931 2103 
3 2103 1931 2104 
3 2104 1931 1932 
3 1932 2084 2104 
3 1944 1933 2105 
3 1933 1944 1939 
3 1934 2105 1933 
3 1937 2106 1934 
3 1934 2106 2105 
3 1935 1938 1936 
3 2107 1938 1935 
3 1935 1964 2107 
3 1965 1964 1935 
3 1935 1963 1965 
3 2106 1937 2108 
3 2107 2108 1937 
3 1937 1938 2107 
3 1941 2109 1940 
3 1940 2109 1943 
3 1941 2110 2109 
3 1946 2111 1941 
3 2112 2110 1941 
3 2111 2112 1941 
3 1942 2113 2114 
3 2114 2115 1942 
3 1951 1942 2115 
3 1943 2113 1942 
3 2109 2113 1943 
3 2111 1944 2116 
3 1945 1944 2111 
3 2105 2116 1944 
3 2111 1946 1945 
3 1952 2117 1948 
3 1948 2117 1949 
3 2118 2119 1949 
3 1949 2117 2118 
3 1949 2119 1950 
3 1950 2119 1955 
3 1951 2120 1952 
3 2121 2120 1951 
3 2122 2121 1951 
3 1951 2115 2122 
3 2118 1952 2120 
3 2117 1952 2118 
3 1953 2123 1954 
3 2124 2123 1953 
3 2124 1953 1955 
3 2125 1954 2123 
3 2125 2087 1954 
3 2126 2124 1955 
3 2119 2127 1955 
3 2126 1955 2127 
3 1958 2128 1959 
3 2128 1958 1973 
3 2129 1960 1959 
3 1959 2128 2129 
3 2129 2130 1960 
3 1960 2130 2131 
3 1960 2131 2132 
3 1960 2132 2133 
3 2133 1962 1960 
3 1966 1961 2134 
3 2134 1961 1962 
3 1962 2135 2136 
3 2133 2135 1962 
3 1962 2136 2134 
3 1964 1967 2107 
3 2137 1968 1966 
3 2138 1966 2134 
3 1966 2138 2137 
3 1967 1968 2139 
3 2139 2107 1967 
3 1968 2137 2139 
3 1970 1969 1990 
3 1990 1969 1989 
3 1970 1990 2140 
3 1971 1970 2140 
3 1971 2141 1972 
3 2140 2141 1971 
3 1973 1972 2141 
3 2142 2128 1973 
3 1991 1973 2141 
3 1991 2142 1973 
3 1976 1974 1992 
3 2143 1981 1975 
3 1977 2143 1975 
3 1976 2144 1977 
3 1992 2144 1976 
3 2145 2146 1977 
3 2146 2143 1977 
3 1977 2144 2145 
3 1978 2147 2148 
3 1986 1978 2149 
3 1978 2148 2150 
3 1978 2150 2149 
3 2147 1978 1980 
3 1985 2151 1979 
3 1979 2151 1980 
3 1980 2152 2147 
3 2151 2152 1980 
3 1981 2143 1982 
3 1982 2153 1983 
3 2153 1982 2143 
3 2154 1984 1983 
3 2145 2155 1983 
3 2155 2154 1983 
3 1983 2153 2145 
3 2154 2156 1984 
3 1984 2152 2151 
3 1984 2156 2152 
3 1985 1984 2151 
3 2149 2157 1986 
3 1986 2158 1987 
3 1986 2157 2158 
3 2158 2129 1987 
3 2142 1988 1987 
3 2142 1987 2129 
3 2142 1991 1988 
3 2140 1990 1991 
3 1991 2141 2140 
3 1992 1994 2159 
3 2160 2144 1992 
3 1992 2159 2160 
3 1993 2161 1994 
3 1995 2161 1993 
3 2162 2159 1994 
3 2161 2162 1994 
3 2163 2161 1995 
3 1995 1997 2163 
3 1997 1996 2164 
3 2165 2166 1996 
3 1996 2166 2164 
3 1998 2165 1996 
3 1997 2164 2163 
3 1998 1999 2167 
3 2168 2165 1998 
3 1998 2167 2169 
3 2169 2170 1998 
3 1998 2170 2168 
3 1999 2171 2167 
3 2000 2171 1999 
3 2000 2004 2172 
3 2172 2171 2000 
3 2002 2003 2001 
3 2172 2004 2003 
3 2003 2173 2172 
3 2100 2173 2003 
3 2006 2022 2005 
3 2007 2174 2006 
3 2022 2006 2174 
3 2007 2073 2072 
3 2007 2175 2174 
3 2072 2176 2007 
3 2175 2007 2177 
3 2176 2177 2007 
3 2008 2178 2012 
3 2179 2178 2008 
3 2010 2179 2008 
3 2009 2180 2010 
3 2018 2181 2009 
3 2009 2181 2180 
3 2180 2182 2010 
3 2010 2182 2179 
3 2021 2011 2183 
3 2011 2184 2183 
3 2011 2012 2184 
3 2178 2184 2012 
3 2013 2185 2014 
3 2186 2185 2013 
3 2013 2016 2186 
3 2014 2187 2019 
3 2185 2187 2014 
3 2188 2015 2026 
3 2189 2015 2188 
3 2015 2189 2186 
3 2016 2015 2186 
3 2018 2017 2190 
3 2191 2017 2019 
3 2192 2190 2017 
3 2192 2017 2191 
3 2018 2190 2193 
3 2181 2018 2193 
3 2019 2187 2191 
3 2020 2021 2194 
3 2033 2020 2194 
3 2195 2021 2183 
3 2021 2196 2194 
3 2195 2196 2021 
3 2022 2197 2023 
3 2022 2174 2197 
3 2024 2023 2198 
3 2023 2197 2198 
3 2024 2198 2199 
3 2024 2199 2200 
3 2200 2201 2024 
3 2201 2025 2024 
3 2026 2025 2201 
3 2026 2201 2188 
3 2030 2202 2027 
3 2027 2202 2028 
3 2028 2203 2059 
3 2204 2028 2202 
3 2203 2028 2204 
3 2034 2030 2029 
3 2202 2030 2034 
3 2194 2031 2032 
3 2194 2205 2031 
3 2205 2035 2031 
3 2194 2032 2033 
3 2038 2202 2034 
3 2205 2036 2035 
3 2036 2205 2206 
3 2206 2037 2036 
3 2207 2208 2037 
3 2208 2038 2037 
3 2209 2207 2037 
3 2209 2037 2210 
3 2037 2206 2210 
3 2038 2204 2202 
3 2208 2204 2038 
3 2211 2212 2039 
3 2039 2213 2211 
3 2214 2039 2040 
3 2212 2078 2039 
3 2213 2039 2214 
3 2214 2040 2215 
3 2040 2043 2215 
3 2041 2042 2216 
3 2041 2216 2045 
3 2050 2216 2042 
3 2217 2043 2218 
3 2218 2043 2044 
3 2217 2215 2043 
3 2218 2044 2045 
3 2045 2219 2218 
3 2219 2045 2220 
3 2216 2220 2045 
3 2221 2046 2047 
3 2222 2050 2046 
3 2046 2221 2222 
3 2223 2221 2047 
3 2048 2223 2047 
3 2049 2054 2048 
3 2048 2224 2225 
3 2225 2226 2048 
3 2048 2227 2224 
3 2048 2226 2228 
3 2228 2223 2048 
3 2227 2048 2054 
3 2222 2216 2050 
3 2051 2058 2052 
3 2058 2229 2052 
3 2229 2230 2052 
3 2052 2230 2053 
3 2231 2053 2232 
3 2232 2053 2233 
3 2230 2233 2053 
3 2054 2053 2231 
3 2231 2234 2054 
3 2054 2234 2227 
3 2056 2235 2236 
3 2236 2237 2056 
3 2237 2057 2056 
3 2056 2060 2235 
3 2237 2058 2057 
3 2058 2238 2229 
3 2237 2238 2058 
3 2059 2239 2060 
3 2059 2203 2239 
3 2060 2239 2235 
3 2065 2061 2062 
3 2240 2063 2064 
3 2063 2241 2070 
3 2242 2243 2063 
3 2065 2063 2070 
3 2241 2063 2243 
3 2240 2242 2063 
3 2064 2244 2240 
3 2245 2064 2074 
3 2064 2245 2244 
3 2068 2066 2071 
3 2067 2069 2246 
3 2246 2072 2067 
3 2247 2068 2071 
3 2069 2068 2248 
3 2248 2068 2249 
3 2249 2068 2247 
3 2248 2246 2069 
3 2250 2070 2241 
3 2071 2070 2250 
3 2071 2251 2247 
3 2250 2251 2071 
3 2072 2252 2253 
3 2254 2252 2072 
3 2255 2254 2072 
3 2072 2246 2255 
3 2176 2072 2253 
3 2074 2076 2256 
3 2256 2245 2074 
3 2075 2083 2076 
3 2076 2077 2075 
3 2083 2256 2076 
3 2212 2081 2078 
3 2257 2082 2079 
3 2079 2080 2258 
3 2258 2257 2079 
3 2259 2258 2080 
3 2260 2259 2080 
3 2212 2080 2081 
3 2080 2212 2260 
3 2256 2082 2257 
3 2256 2083 2082 
3 2084 2085 2261 
3 2261 2104 2084 
3 2085 2262 2263 
3 2263 2261 2085 
3 2086 2262 2085 
3 2262 2086 2264 
3 2088 2264 2086 
3 2264 2088 2087 
