NORM_ASCII
1502 3001
  -0.0007323   -0.0030100   -0.0006918    0.8263941    0.4977768   -0.2632317
  -0.0006968   -0.0034961   -0.0008836    0.9549105    0.2696876    0.1241550
  -0.0002582   -0.0032708   -0.0005141    0.0017093    0.5147671   -0.8573284
  -0.0002468   -0.0032722   -0.0005157   -0.4634692    0.5339792   -0.7071510
  -0.0003315   -0.0036544   -0.0009545   -0.7152913   -0.0196291    0.6985507
  -0.0001487   -0.0032525   -0.0007045   -0.9363254    0.3356696    0.1030564
  -0.0002232   -0.0032690   -0.0005545   -0.8201282    0.4579549   -0.3430264
  -0.0004274   -0.0045865   -0.0011300   -0.7254327   -0.1157253    0.6784947
   0.0000231   -0.0068128   -0.0004605    0.7479268    0.2113116    0.6292479
   0.0001288   -0.0068398   -0.0004402    0.0407694    0.3098198    0.9499208
   0.0001733   -0.0063735   -0.0003485    0.8692544   -0.3281174   -0.3697780
   0.0001547   -0.0063613   -0.0003922    0.9162328   -0.3538870   -0.1878336
   0.0001944   -0.0063326   -0.0003607    0.7690857   -0.6101432   -0.1903482
   0.0004348   -0.0061283   -0.0001726    0.5585912   -0.7803786   -0.2810428
  -0.0022933   -0.0159693   -0.0016356   -0.8903781   -0.2839686    0.3557930
  -0.0022466   -0.0160140   -0.0014840   -0.9244573   -0.1804523    0.3358803
  -0.0021989   -0.0160501   -0.0013635   -0.9380810   -0.1169745    0.3260689
  -0.0021407   -0.0155839   -0.0012880   -0.9254846   -0.1370022    0.3531413
  -0.0030902   -0.0153787   -0.0025557   -0.1199703   -0.5486380   -0.8274077
  -0.0035425   -0.0149688   -0.0027128   -0.0904427   -0.6733970   -0.7337278
  -0.0032130   -0.0149983   -0.0027016    0.0265503   -0.4445581   -0.8953564
  -0.0035835   -0.0150104   -0.0024779    0.6012077   -0.4159898    0.6822769
  -0.0035433   -0.0145211   -0.0024933    0.2715466   -0.1023062    0.9569723
  -0.0033516   -0.0140920   -0.0023715    0.2079056   -0.4735274    0.8558896
  -0.0037192   -0.0150163   -0.0023225    0.9592155   -0.1100911    0.2603567
  -0.0037020   -0.0150585   -0.0021446    0.8704697   -0.0027873   -0.4922141
  -0.0036080   -0.0153079   -0.0019238    0.7067917    0.1923881   -0.6807587
  -0.0036979   -0.0157520   -0.0019556    0.0482798   -0.6296864   -0.7753477
  -0.0038051   -0.0155267   -0.0021677    0.2243502   -0.3874042   -0.8941952
  -0.0035488   -0.0160015   -0.0018002    0.2150054   -0.5282625   -0.8214082
  -0.0033762   -0.0161358   -0.0016366    0.3417806   -0.5660666   -0.7501697
  -0.0031904   -0.0162046   -0.0014681    0.4754187   -0.4671614   -0.7454778
  -0.0030149   -0.0163235   -0.0013033    0.4705240   -0.3029786   -0.8287407
  -0.0028139   -0.0164540   -0.0011723    0.3832294   -0.2966814   -0.8747087
  -0.0025740   -0.0165289   -0.0010698    0.3358696   -0.2665755   -0.9033986
  -0.0029424   -0.0156360   -0.0024008    0.0186549   -0.7595706   -0.6501572
  -0.0028674   -0.0156927   -0.0023300   -0.2139377   -0.9478249   -0.2363441
  -0.0028223   -0.0157394   -0.0021663   -0.2495113   -0.9659990   -0.0677503
  -0.0025864   -0.0158486   -0.0020695   -0.2766472   -0.9508910   -0.1388258
  -0.0022449   -0.0161321   -0.0017429   -0.2732530   -0.8835649   -0.3803233
  -0.0023589   -0.0160887   -0.0010291    0.0470117   -0.0677837   -0.9965918
  -0.0023459   -0.0166020   -0.0009648    0.1297680   -0.3364011   -0.9327350
  -0.0020840   -0.0156344   -0.0011097   -0.8709209   -0.1695087   -0.4612630
   0.0005366   -0.0069917   -0.0001510   -0.8980246    0.2818607    0.3377964
   0.0006926   -0.0065222   -0.0001899   -0.8183998    0.0371476    0.5734473
   0.0004103   -0.0069126   -0.0003858    0.6941272    0.1463586    0.7048167
   0.0004103   -0.0069126   -0.0003858    0.9454589    0.1129464    0.3055333
   0.0004386   -0.0064401    0.0001350    0.3043930   -0.4814507   -0.8219186
   0.0006705   -0.0065753    0.0000781   -0.8657781   -0.0754231   -0.4947116
   0.0004699   -0.0065529    0.0001739   -0.1699070   -0.2184787   -0.9609364
   0.0006954   -0.0065243   -0.0001780   -0.9890665    0.0866424    0.1193339
  -0.0004528   -0.0031101   -0.0010514   -0.1573360    0.1964343    0.9678114
  -0.0005394   -0.0030891   -0.0010614    0.2414731    0.2423133    0.9396675
  -0.0007163   -0.0030775   -0.0009435    0.7927048    0.3298061    0.5126860
  -0.0003353   -0.0030206   -0.0003458    0.0640871    0.8522710   -0.5191598
  -0.0006309   -0.0028371   -0.0003492    0.4818905    0.7784957   -0.4021517
  -0.0004404   -0.0028806   -0.0001789    0.3156614    0.8752955   -0.3663547
  -0.0007691   -0.0028657   -0.0010117    0.6207842    0.6744507    0.3996788
  -0.0008834   -0.0027720   -0.0008483    0.5961138    0.8004001    0.0633085
  -0.0008171   -0.0027722   -0.0005181    0.5235398    0.8132837   -0.2539206
  -0.0000009   -0.0030120   -0.0003287   -0.3827245    0.8650374   -0.3243951
  -0.0001036   -0.0031906   -0.0006714   -0.8515416    0.5237775    0.0231072
  -0.0002379   -0.0031865   -0.0009200   -0.7046679    0.1426046    0.6950591
   0.0000770   -0.0027777   -0.0008296   -0.7226101    0.4267482    0.5438020
  -0.0000998   -0.0028424   -0.0009764   -0.6383180    0.3294762    0.6956979
   0.0001866   -0.0063129   -0.0006422    0.2923994   -0.3000914    0.9079910
   0.0002828   -0.0065552   -0.0005338   -0.0237065    0.2780407    0.9602767
   0.0003450   -0.0062456   -0.0005114    0.0135557   -0.7865637    0.6173604
   0.0005650   -0.0061432   -0.0003304   -0.6095219   -0.6414368    0.4658774
   0.0006147   -0.0062260   -0.0000063   -0.4821696   -0.6670141   -0.5679830
  -0.0021943   -0.0162111   -0.0014187   -0.8010967   -0.5908815    0.0954104
  -0.0021294   -0.0161218   -0.0010990   -0.6841198   -0.1585315   -0.7119325
  -0.0021310   -0.0162267   -0.0010895   -0.8207052   -0.5049103   -0.2674109
  -0.0027167   -0.0146387   -0.0027666    0.2864441   -0.2503089   -0.9248217
  -0.0027446   -0.0153141   -0.0025343    0.2489317   -0.3575695   -0.9000984
  -0.0033469   -0.0146737   -0.0028517   -0.0053979   -0.3318408   -0.9433200
  -0.0038351   -0.0147850   -0.0027195   -0.3356777   -0.3183524   -0.8865508
  -0.0037000   -0.0151058   -0.0025695    0.2132870   -0.7819383   -0.5857313
  -0.0037896   -0.0149259   -0.0026654   -0.1901198   -0.5474577   -0.8149506
  -0.0038578   -0.0152274   -0.0024215    0.5006559   -0.7484561   -0.4349220
  -0.0039067   -0.0155052   -0.0021630   -0.1144179   -0.6341193   -0.7647230
  -0.0038617   -0.0155757   -0.0021163   -0.2536779   -0.7344317   -0.6294900
  -0.0038502   -0.0158487   -0.0018060   -0.6525489   -0.7041429   -0.2799333
  -0.0037024   -0.0161040   -0.0016507   -0.3144910   -0.7941310   -0.5200494
  -0.0034766   -0.0162286   -0.0015468    0.1490240   -0.6921780   -0.7061738
  -0.0032594   -0.0163043   -0.0014179    0.3183416   -0.5407671   -0.7786075
  -0.0029622   -0.0164050   -0.0012491    0.3148249   -0.4322824   -0.8449954
  -0.0028588   -0.0165383   -0.0011453    0.2366895   -0.6091074   -0.7569454
  -0.0026926   -0.0167011   -0.0009834    0.2088015   -0.6923828   -0.6906576
  -0.0025941   -0.0155580   -0.0023786    0.3176923   -0.4749675   -0.8206567
  -0.0027439   -0.0157369   -0.0022580    0.2443582   -0.7106244   -0.6597743
  -0.0025508   -0.0158124   -0.0021002    0.2413072   -0.7088193   -0.6628318
  -0.0023333   -0.0158883   -0.0019718    0.2561246   -0.6725312   -0.6943356
  -0.0021141   -0.0159631   -0.0018446    0.3825440   -0.6059645   -0.6974719
  -0.0020670   -0.0162394   -0.0015772    0.1771703   -0.8134056   -0.5540596
  -0.0023349   -0.0166032   -0.0009660    0.0498946   -0.5219278   -0.8515292
  -0.0023411   -0.0166080   -0.0009603    0.2450522   -0.7199013   -0.6493778
   0.0005562   -0.0064433   -0.0004129   -0.6673658   -0.1124138    0.7361970
   0.0006997   -0.0064659   -0.0001805   -0.9609563   -0.2232298    0.1634973
   0.0003485   -0.0063670   -0.0005529   -0.4869318   -0.0424579    0.8724074
  -0.0006228   -0.0027998   -0.0011637    0.0924610    0.5698318    0.8165431
  -0.0002808   -0.0027526   -0.0011436   -0.3730314    0.4517252    0.8104270
  -0.0001296   -0.0029895   -0.0001703   -0.0328377    0.9955423   -0.0884156
  -0.0002528   -0.0029399   -0.0000099    0.2541693    0.9513953   -0.1739108
  -0.0006410   -0.0027840   -0.0000913    0.3275680    0.9042598   -0.2738858
  -0.0004863   -0.0027776    0.0003152    0.4241634    0.8993384   -0.1061882
  -0.0009177   -0.0023675    0.0005418    0.4935053    0.8153043   -0.3028718
  -0.0007798   -0.0025886   -0.0013217    0.0732507    0.8426816    0.5334062
  -0.0009208   -0.0026276   -0.0011678    0.2845973    0.8973211    0.3373711
  -0.0010518   -0.0026188   -0.0010107    0.2399494    0.9584447    0.1542984
  -0.0009984   -0.0026822   -0.0006850    0.3710741    0.9080138   -0.1944609
  -0.0010915   -0.0022910    0.0003621    0.4983668    0.8151432   -0.2952493
   0.0001506   -0.0029190   -0.0004785   -0.6207789    0.7303248    0.2850601
   0.0002003   -0.0030019   -0.0001544   -0.1899591    0.9590980    0.2098729
   0.0000996   -0.0027920   -0.0007874   -0.6956857    0.5400795    0.4736407
  -0.0000426   -0.0027137   -0.0010039   -0.5907183    0.4272175    0.6844977
   0.0001108   -0.0024593   -0.0011058   -0.4573023    0.6765385    0.5772090
   0.0001152   -0.0027671   -0.0007979   -0.6249964    0.5355613    0.5679380
  -0.0020308   -0.0163897   -0.0012582   -0.2494155   -0.9354271   -0.2505356
  -0.0019818   -0.0164762   -0.0009344    0.2948447   -0.8803142   -0.3716362
  -0.0024573   -0.0152608   -0.0024480    0.4382844   -0.2775556   -0.8549092
  -0.0031786   -0.0139815   -0.0030493    0.0980869   -0.2097035   -0.9728327
  -0.0024792   -0.0146580   -0.0026440    0.5377923   -0.1588924   -0.8279690
  -0.0023418   -0.0142438   -0.0026778    0.5282485   -0.0984707   -0.8433605
  -0.0027997   -0.0135718   -0.0030343    0.3187719   -0.1237305   -0.9397208
  -0.0034698   -0.0139214   -0.0030364   -0.2637535   -0.1958867   -0.9444906
  -0.0039316   -0.0148996   -0.0026413   -0.4138430   -0.3717942   -0.8309651
  -0.0038798   -0.0140180   -0.0028378   -0.5775305   -0.1829449   -0.7956065
  -0.0040149   -0.0143858   -0.0026447   -0.7820255   -0.1888551   -0.5939443
  -0.0040013   -0.0149511   -0.0025751   -0.4686503   -0.5290078   -0.7074727
  -0.0040101   -0.0153242   -0.0022718   -0.5808323   -0.6238437   -0.5229272
  -0.0039921   -0.0155627   -0.0019587   -0.7484181   -0.6343834   -0.1934634
  -0.0039277   -0.0156158   -0.0016429   -0.8715119   -0.4588394    0.1730125
  -0.0037939   -0.0158968   -0.0014793   -0.8084457   -0.5198661    0.2759615
  -0.0036186   -0.0161930   -0.0015692   -0.5003201   -0.8378546   -0.2183563
  -0.0035374   -0.0162769   -0.0014902   -0.4279912   -0.8682654   -0.2508761
  -0.0033706   -0.0164380   -0.0013283   -0.2599930   -0.8820788   -0.3928621
  -0.0032002   -0.0165816   -0.0011651   -0.1167041   -0.8672873   -0.4839348
  -0.0030263   -0.0167081   -0.0010008   -0.1826417   -0.9678045   -0.1731946
  -0.0028423   -0.0167846   -0.0008330   -0.0989612   -0.9902342   -0.0981984
  -0.0025114   -0.0167932   -0.0008168    0.2476769   -0.9199962   -0.3037484
  -0.0026493   -0.0168168   -0.0006619   -0.0132933   -0.9978945    0.0634819
  -0.0024226   -0.0156959   -0.0022152    0.3738132   -0.5381845   -0.7553947
  -0.0022467   -0.0158128   -0.0020501    0.3768432   -0.5664548   -0.7328835
  -0.0020666   -0.0159085   -0.0018836    0.4455562   -0.5313121   -0.7205464
  -0.0019357   -0.0160404   -0.0016703    0.5102853   -0.5440266   -0.6660660
  -0.0018765   -0.0159541   -0.0017135    0.5653437   -0.4755030   -0.6740055
  -0.0018756   -0.0162793   -0.0014069    0.4703460   -0.6791776   -0.5634647
  -0.0021464   -0.0166803   -0.0008037    0.4622149   -0.7731319   -0.4343091
  -0.0023123   -0.0167947   -0.0006436    0.4298967   -0.8885561   -0.1601779
  -0.0006262   -0.0024861   -0.0014711    0.3299102    0.7693810    0.5470029
  -0.0004474   -0.0025897   -0.0013053   -0.0261639    0.6386459    0.7690559
  -0.0000773   -0.0024019   -0.0012750   -0.4012469    0.6826645    0.6107128
  -0.0004244   -0.0025607   -0.0013233   -0.3595497    0.5708860    0.7381146
  -0.0000694   -0.0030203    0.0001577    0.1933388    0.9768276    0.0918039
   0.0000436   -0.0031187    0.0008107    0.4717956    0.8754606   -0.1047740
  -0.0006207   -0.0024540    0.0009820    0.4917807    0.8440377   -0.2138973
  -0.0009797   -0.0022547    0.0006497    0.4706275    0.8616922   -0.1897270
  -0.0008011   -0.0023581    0.0008156    0.4787123    0.8546310   -0.2010980
  -0.0011608   -0.0021628    0.0004830    0.4440200    0.8625431   -0.2426225
  -0.0009610   -0.0024988   -0.0014887   -0.1327026    0.9466535    0.2936618
  -0.0008152   -0.0024347   -0.0016408   -0.2430474    0.9046890    0.3499512
  -0.0011006   -0.0025301   -0.0013341    0.0119471    0.9854322    0.1696486
  -0.0018770   -0.0024209   -0.0012029    0.0362989    0.9988289   -0.0319886
  -0.0011801   -0.0025942   -0.0008519    0.2086919    0.9729114   -0.0994537
  -0.0013474   -0.0020999    0.0003141    0.3357740    0.9044344   -0.2631619
  -0.0016387   -0.0021076    0.0000616    0.0913578    0.9386058   -0.3326754
  -0.0015433   -0.0020830    0.0001420    0.1127908    0.9299339   -0.3500017
   0.0001929   -0.0028719   -0.0005134   -0.5728376    0.6874230    0.4464379
   0.0003518   -0.0029108   -0.0003047   -0.3315077    0.8068358    0.4889977
   0.0003844   -0.0030784    0.0000136    0.0389099    0.8942239    0.4459257
   0.0003226   -0.0027261   -0.0006215   -0.5007585    0.6924941    0.5193196
   0.0000773   -0.0022957   -0.0014241   -0.0724601    0.9839142    0.1632862
   0.0002654   -0.0023530   -0.0012551   -0.0138607    0.9778548    0.2088251
   0.0003002   -0.0025088   -0.0009361   -0.3661326    0.7715841    0.5201970
  -0.0018434   -0.0164486   -0.0010888    0.3303886   -0.8874006   -0.3215022
  -0.0017842   -0.0164832   -0.0007611    0.3553584   -0.9343874   -0.0253082
  -0.0019242   -0.0165186   -0.0006072    0.5927355   -0.7973177   -0.1137941
  -0.0021463   -0.0166842   -0.0007832    0.7083117   -0.6925855   -0.1364547
  -0.0022547   -0.0153358   -0.0023016    0.5212016   -0.2688846   -0.8099691
  -0.0032129   -0.0134604   -0.0031326    0.0194898   -0.1370854   -0.9903675
  -0.0020633   -0.0154126   -0.0021424    0.5757715   -0.2149547   -0.7888483
  -0.0013817   -0.0151493   -0.0016390    0.6686647   -0.1437562   -0.7295352
  -0.0028155   -0.0133572   -0.0030706    0.3470274   -0.0909828   -0.9334313
  -0.0026156   -0.0126097   -0.0030748    0.5458755    0.0262776   -0.8374541
  -0.0020424   -0.0138511   -0.0025006    0.6431275    0.0233967   -0.7654016
  -0.0038559   -0.0133759   -0.0028833   -0.6602659   -0.0862423   -0.7460638
  -0.0034645   -0.0129086   -0.0031364   -0.3454738   -0.1218091   -0.9304893
  -0.0040097   -0.0148942   -0.0025881   -0.6706111   -0.2689112   -0.6913520
  -0.0040267   -0.0138731   -0.0027081   -0.8670260   -0.0983321   -0.4884636
  -0.0041314   -0.0149052   -0.0024200   -0.8758944   -0.2407103   -0.4181716
  -0.0041250   -0.0144011   -0.0024663   -0.9279959   -0.1233157   -0.3515918
  -0.0040789   -0.0138926   -0.0025646   -0.9557799   -0.1141166   -0.2710392
  -0.0040967   -0.0139052   -0.0024931   -0.9952073   -0.0507912   -0.0835620
  -0.0041286   -0.0149227   -0.0024163   -0.8254444   -0.4184603   -0.3788568
  -0.0041237   -0.0152267   -0.0021080   -0.9006770   -0.4284912   -0.0719455
  -0.0040020   -0.0155348   -0.0019384   -0.8810061   -0.4510213    0.1428566
  -0.0039317   -0.0155937   -0.0016309   -0.8666531   -0.3168919    0.3853465
  -0.0041362   -0.0150260   -0.0018666   -0.9111673   -0.2411224    0.3341169
  -0.0035717   -0.0162336   -0.0014367   -0.6972591   -0.7052192    0.1284354
  -0.0034683   -0.0163134   -0.0011747   -0.6756611   -0.7299500    0.1032232
  -0.0036486   -0.0157712   -0.0012030   -0.7747379   -0.1995840    0.5999562
  -0.0034764   -0.0163018   -0.0011617   -0.7728814   -0.4979282    0.3933469
  -0.0037989   -0.0156943   -0.0014104   -0.8142266   -0.2560109    0.5210504
  -0.0033121   -0.0164765   -0.0010008   -0.6721637   -0.6886811    0.2718718
  -0.0031376   -0.0166010   -0.0008364   -0.5775415   -0.7220808    0.3808479
  -0.0029507   -0.0166620   -0.0006672   -0.4585398   -0.7368161    0.4968332
  -0.0027521   -0.0166653   -0.0004941   -0.3197476   -0.7517557    0.5767363
  -0.0024432   -0.0167836   -0.0004859    0.0952500   -0.8973482    0.4309219
  -0.0018764   -0.0154887   -0.0019778    0.6074541   -0.2417058   -0.7566887
  -0.0017746   -0.0161177   -0.0014759    0.6371735   -0.4478167   -0.6272720
  -0.0017026   -0.0155653   -0.0017979    0.6924167   -0.2796693   -0.6650896
  -0.0016757   -0.0162770   -0.0012333    0.6022398   -0.6202515   -0.5025886
  -0.0020867   -0.0166654   -0.0004610    0.5670439   -0.8102491    0.1481806
  -0.0007607   -0.0024062   -0.0016959   -0.2064166    0.9036257    0.3753036
  -0.0006262   -0.0024861   -0.0014711    0.1093157    0.7340357    0.6702550
  -0.0002656   -0.0023466   -0.0014444   -0.3520770    0.8020850    0.4823913
  -0.0001158   -0.0022655   -0.0015954   -0.1054115    0.9940896    0.0259668
   0.0006013   -0.0033203    0.0004997    0.2655951    0.9401370    0.2135455
   0.0002190   -0.0032375    0.0009757    0.4946570    0.8685597    0.0303083
  -0.0004421   -0.0025552    0.0011484    0.5397981    0.8349386   -0.1072172
  -0.0001010   -0.0028430    0.0014742    0.5515443    0.8326971    0.0491365
  -0.0007338   -0.0023544    0.0011460    0.2401151    0.9612871    0.1351735
  -0.0005549   -0.0024558    0.0013120    0.3335329    0.9333221    0.1329118
  -0.0009159   -0.0022663    0.0009790    0.2295205    0.9653306    0.1243266
  -0.0010963   -0.0021725    0.0008125    0.2190214    0.9675864    0.1257227
  -0.0012779   -0.0020846    0.0006453    0.1539695    0.9832273    0.0977622
  -0.0014106   -0.0024207   -0.0021600   -0.1228069    0.9898112    0.0720576
  -0.0008671   -0.0023635   -0.0019657   -0.2849890    0.9545089    0.0877155
  -0.0018115   -0.0024281   -0.0016904   -0.0291245    0.9987694    0.0401439
  -0.0023248   -0.0023342   -0.0010568   -0.1328469    0.9784323   -0.1581832
  -0.0021219   -0.0023164   -0.0008819    0.0205900    0.9565249   -0.2909230
  -0.0023973   -0.0023650   -0.0013890   -0.1321745    0.9910579   -0.0182799
  -0.0014648   -0.0020216    0.0004765    0.0142514    0.9993414    0.0333727
  -0.0016614   -0.0020085    0.0003039   -0.2165501    0.9740990   -0.0650941
  -0.0019478   -0.0021108   -0.0002068   -0.0358076    0.9763420   -0.2132467
  -0.0018732   -0.0020706    0.0001260   -0.3218381    0.9467750    0.0061141
   0.0005114   -0.0027796   -0.0004520   -0.2278297    0.7891216    0.5704216
   0.0008424   -0.0027861   -0.0004356   -0.0462082    0.8274929    0.5595715
   0.0011751   -0.0031163   -0.0001128    0.1515999    0.7884132    0.5961728
   0.0017288   -0.0039959    0.0010042    0.2728170    0.9016318    0.3356053
   0.0016703   -0.0036263    0.0003708    0.2271122    0.8509675    0.4735761
   0.0004874   -0.0025700   -0.0007671   -0.1778692    0.8461741    0.5023464
   0.0000030   -0.0023360   -0.0017571    0.2861012    0.8235193   -0.4898593
   0.0001996   -0.0023489   -0.0015846    0.3907361    0.8376238   -0.3817219
   0.0003872   -0.0024081   -0.0014156    0.4689232    0.8163050   -0.3372791
   0.0004512   -0.0024197   -0.0010864    0.0600330    0.9781401    0.1990928
  -0.0016392   -0.0164251   -0.0009138    0.5818577   -0.7807561   -0.2277312
  -0.0016470   -0.0163857   -0.0003793    0.5570782   -0.8253480    0.0920034
  -0.0015682   -0.0164021   -0.0005820    0.5665159   -0.8212650    0.0677014
  -0.0029838   -0.0130044   -0.0031712    0.1649097   -0.0985887   -0.9813690
  -0.0032113   -0.0124461   -0.0032362   -0.0826107   -0.0373037   -0.9958835
  -0.0009330   -0.0149023   -0.0012744    0.7315230   -0.1361358   -0.6680876
  -0.0013568   -0.0157541   -0.0012824    0.7464896   -0.3212035   -0.5827363
  -0.0010760   -0.0153279   -0.0012376    0.7821940   -0.2749833   -0.5590677
  -0.0028498   -0.0125363   -0.0031847    0.3069953    0.0154022   -0.9515864
  -0.0024263   -0.0126874   -0.0029137    0.6939478    0.0910270   -0.7142483
  -0.0024802   -0.0116764   -0.0029459    0.5550921    0.1439723   -0.8192342
  -0.0023221   -0.0118990   -0.0027924    0.6872012    0.0908480   -0.7207643
  -0.0009537   -0.0143110   -0.0014755    0.6976667   -0.0240047   -0.7160202
  -0.0017809   -0.0134606   -0.0022796    0.6139320    0.0932149   -0.7838357
  -0.0020966   -0.0127598   -0.0025075    0.6960566    0.0935692   -0.7118637
  -0.0017702   -0.0119832   -0.0022436    0.6397720    0.0456983   -0.7672050
  -0.0017022   -0.0127819   -0.0021622    0.6159279    0.1229363   -0.7781513
  -0.0039133   -0.0129064   -0.0027091   -0.9553957    0.0440351   -0.2920274
  -0.0038064   -0.0128900   -0.0028902   -0.7906049   -0.0151909   -0.6121381
  -0.0034401   -0.0124113   -0.0031666   -0.5342322    0.0220425   -0.8450504
  -0.0040440   -0.0134206   -0.0024970   -0.9936493    0.0107413   -0.1120078
  -0.0041743   -0.0144412   -0.0022328   -0.9952685   -0.0898821   -0.0369021
  -0.0041355   -0.0149075   -0.0024036   -0.9602579   -0.2549398   -0.1136240
  -0.0040880   -0.0139688   -0.0022070   -0.9667448    0.0559332    0.2495516
  -0.0039926   -0.0135019   -0.0021721   -0.9572259    0.0238761    0.2883547
  -0.0040425   -0.0134279   -0.0024639   -0.9868554    0.0203842    0.1603149
  -0.0041619   -0.0149922   -0.0019905   -0.9771887   -0.1833411    0.1071830
  -0.0039222   -0.0151511   -0.0015054   -0.8064949   -0.1462145    0.5728764
  -0.0041019   -0.0145323   -0.0018880   -0.9350246    0.0052766    0.3545436
  -0.0036020   -0.0137879   -0.0012573   -0.8452478   -0.0253747    0.5337718
  -0.0033469   -0.0159223   -0.0008156   -0.7374897   -0.2249332    0.6367999
  -0.0033105   -0.0144493   -0.0007842   -0.7628281   -0.0871925    0.6406955
  -0.0033270   -0.0163912   -0.0009570   -0.7435421   -0.3977551    0.5375277
  -0.0031604   -0.0164674   -0.0007685   -0.6793287   -0.4143038    0.6056937
  -0.0029713   -0.0165449   -0.0006068   -0.5803315   -0.4605445    0.6716503
  -0.0027608   -0.0166208   -0.0004701   -0.4784685   -0.4982028    0.7230919
  -0.0026789   -0.0166450   -0.0004330   -0.2955864   -0.7057084    0.6438978
  -0.0025447   -0.0166265   -0.0003179   -0.3331577   -0.6133556    0.7161011
  -0.0023252   -0.0165260   -0.0001374   -0.0493124   -0.6543763    0.7545594
  -0.0017422   -0.0162746    0.0000706    0.2540396   -0.7089411    0.6579258
  -0.0016270   -0.0161950   -0.0012651    0.6859210   -0.4191295   -0.5948469
  -0.0015452   -0.0162446   -0.0011227    0.7078728   -0.4909550   -0.5078181
  -0.0015107   -0.0162742   -0.0010184    0.7054847   -0.6118885   -0.3576085
  -0.0016202   -0.0163277   -0.0000897    0.5024153   -0.8067545    0.3110080
  -0.0004596   -0.0023202   -0.0016158   -0.3747890    0.8793098    0.2938493
  -0.0006618   -0.0023341   -0.0017903   -0.3623514    0.9256590    0.1088895
  -0.0003159   -0.0022677   -0.0017687   -0.1511358    0.9869490   -0.0555842
  -0.0002056   -0.0023806   -0.0019336    0.1983771    0.7770048   -0.5974195
   0.0011646   -0.0038228    0.0013138    0.3623487    0.8900642    0.2765668
   0.0009112   -0.0037606    0.0016316    0.4343541    0.8590067    0.2710057
   0.0004447   -0.0034351    0.0014652    0.4994595    0.8634757    0.0703555
   0.0001746   -0.0031245    0.0014709    0.6507875    0.7587814    0.0269540
   0.0003330   -0.0033300    0.0016292    0.6238298    0.7751988    0.0995147
  -0.0002942   -0.0026783    0.0013445    0.5452455    0.8363331    0.0570467
  -0.0003845   -0.0025996    0.0014752    0.3803677    0.8663134    0.3237615
  -0.0002256   -0.0028011    0.0016340    0.3538500    0.8116746    0.4647306
  -0.0000671   -0.0030045    0.0017927    0.3930377    0.7726797    0.4984853
   0.0000613   -0.0030270    0.0016343    0.5444041    0.7875070    0.2888891
  -0.0008749   -0.0023935    0.0013000   -0.1661522    0.8034523    0.5717148
  -0.0006984   -0.0025063    0.0014652   -0.0446964    0.7971570    0.6021154
  -0.0010551   -0.0022976    0.0011335   -0.1210016    0.8547078    0.5048101
  -0.0012351   -0.0022020    0.0009669   -0.1937568    0.8224422    0.5348338
  -0.0014189   -0.0021236    0.0007992   -0.2876452    0.8181776    0.4978410
  -0.0023565   -0.0023330   -0.0027194   -0.1945810    0.9808481    0.0086782
  -0.0023909   -0.0023353   -0.0022038   -0.2498511    0.9682041    0.0124597
  -0.0022154   -0.0023312   -0.0028693   -0.1023907    0.9907694   -0.0888379
  -0.0020663   -0.0023779   -0.0030074    0.0847557    0.9312093   -0.3544936
  -0.0012725   -0.0023971   -0.0023151   -0.1213048    0.9768282   -0.1763286
  -0.0009381   -0.0023885   -0.0022979    0.0022363    0.9360387   -0.3518899
  -0.0007338   -0.0023629   -0.0021226    0.0485376    0.9094414   -0.4129897
  -0.0006548   -0.0023509   -0.0020552   -0.0785731    0.9409096   -0.3294168
  -0.0023305   -0.0023642   -0.0018756   -0.1204964    0.9922579    0.0300822
  -0.0024524   -0.0023058   -0.0008977   -0.3537507    0.9124638   -0.2055971
  -0.0025352   -0.0023885   -0.0012340   -0.4457935    0.8951224   -0.0048957
  -0.0023349   -0.0022627   -0.0008004   -0.2437731    0.9291849   -0.2778309
  -0.0023635   -0.0021944   -0.0005598   -0.2349011    0.9597336   -0.1540547
  -0.0021519   -0.0021344   -0.0003821   -0.2022961    0.9632417   -0.1767535
  -0.0025985   -0.0023730   -0.0015629   -0.3643903    0.9283082    0.0739166
  -0.0016090   -0.0020779    0.0006291   -0.4424226    0.7848596    0.4338866
  -0.0018129   -0.0020995    0.0004542   -0.5768949    0.7521002    0.3186496
  -0.0020787   -0.0020999   -0.0000493   -0.3793799    0.9237670    0.0522055
  -0.0020201   -0.0021385    0.0002778   -0.5585928    0.7553587    0.3426476
  -0.0018834   -0.0021271    0.0003956   -0.5502927    0.7764016    0.3072109
   0.0008136   -0.0026016   -0.0007526    0.1703156    0.9527143    0.2516508
   0.0009896   -0.0027164   -0.0005873    0.2096923    0.9385096    0.2742788
   0.0011626   -0.0028488   -0.0004238    0.2450202    0.8747945    0.4179709
   0.0014480   -0.0032253   -0.0001368    0.4359983    0.7941818    0.4232974
   0.0013243   -0.0030347   -0.0002635    0.3955904    0.8006071    0.4500406
   0.0016426   -0.0034359    0.0000542    0.4334857    0.8438443    0.3162547
   0.0022400   -0.0044271    0.0014936    0.3913702    0.8020966    0.4510768
   0.0023703   -0.0044420    0.0013358    0.5180612    0.7984042    0.3068604
   0.0019383   -0.0042744    0.0014879    0.3145280    0.8625629    0.3963047
   0.0018662   -0.0039740    0.0008493    0.3860022    0.8567039    0.3421414
   0.0018057   -0.0036141    0.0002150    0.5321601    0.8146080    0.2306934
   0.0006345   -0.0025000   -0.0009187    0.1924176    0.9696480    0.1508583
   0.0000483   -0.0025422   -0.0018743    0.4508069    0.4531438   -0.7690474
   0.0002619   -0.0026179   -0.0017411    0.5515612    0.4457774   -0.7050268
   0.0004516   -0.0026937   -0.0015796    0.6363682    0.4311413   -0.6396505
   0.0006277   -0.0027716   -0.0014029    0.6622353    0.4142206   -0.6243923
   0.0005709   -0.0024866   -0.0012479    0.5095924    0.7915028   -0.3374002
  -0.0014121   -0.0162882   -0.0007306    0.7889370   -0.5894899   -0.1734363
  -0.0013320   -0.0162190   -0.0003953    0.7317792   -0.6809058    0.0294371
  -0.0012496   -0.0161403   -0.0000598    0.6678621   -0.7200301    0.1884594
  -0.0030324   -0.0119948   -0.0032103    0.1068944    0.1055082   -0.9886565
  -0.0031263   -0.0119753   -0.0032105   -0.2086143    0.1351406   -0.9686161
  -0.0006532   -0.0144670   -0.0010612    0.8667081   -0.0795277   -0.4924352
  -0.0007824   -0.0149360   -0.0010538    0.8595111   -0.1928511   -0.4733384
  -0.0014608   -0.0161995   -0.0010542    0.7967121   -0.4414069   -0.4128071
  -0.0011599   -0.0158976   -0.0008238    0.8455329   -0.3903809   -0.3642483
  -0.0008663   -0.0154873   -0.0007174    0.9107876   -0.3031033   -0.2803469
  -0.0026956   -0.0116018   -0.0030771    0.3244078    0.1798198   -0.9286681
  -0.0023025   -0.0117533   -0.0027705    0.6583074    0.0968635   -0.7464910
  -0.0026786   -0.0111358   -0.0029530    0.2797371    0.2459822   -0.9280301
  -0.0024356   -0.0112104   -0.0028542    0.4648236    0.1403789   -0.8742041
  -0.0013291   -0.0131462   -0.0018980    0.6505311    0.1099254   -0.7514823
  -0.0006985   -0.0139209   -0.0012473    0.7616469    0.0703029   -0.6441673
  -0.0014431   -0.0114932   -0.0020692    0.5816432   -0.0523588   -0.8117572
  -0.0012374   -0.0127000   -0.0017659    0.6611439    0.0678924   -0.7471810
  -0.0019519   -0.0108944   -0.0025094    0.5603408   -0.0202207   -0.8280153
  -0.0039417   -0.0129542   -0.0024568   -0.9865202    0.0939811    0.1339604
  -0.0037394   -0.0124105   -0.0028814   -0.8910276    0.0887962   -0.4451798
  -0.0036611   -0.0119956   -0.0025844   -0.9877981    0.1502721   -0.0409047
  -0.0035119   -0.0119364   -0.0030050   -0.7515227    0.1754590   -0.6359464
  -0.0032088   -0.0114946   -0.0030595   -0.4919176    0.2730701   -0.8267102
  -0.0041724   -0.0144443   -0.0022170   -0.9849391   -0.0850244    0.1505517
  -0.0037158   -0.0132010   -0.0015538   -0.9289391   -0.0075994    0.3701545
  -0.0035994   -0.0132803   -0.0013072   -0.8802872   -0.0521302    0.4715685
  -0.0027460   -0.0156917   -0.0002004   -0.6063001   -0.1104734    0.7875251
  -0.0029900   -0.0161951   -0.0004770   -0.6160996   -0.2991679    0.7286425
  -0.0027848   -0.0146794   -0.0002496   -0.6180949   -0.1065055    0.7788551
  -0.0033375   -0.0124263   -0.0009436   -0.8806728   -0.0572855    0.4702486
  -0.0030851   -0.0140273   -0.0005110   -0.7140220   -0.0973730    0.6933189
  -0.0025794   -0.0162318   -0.0001549   -0.5088275   -0.3158910    0.8008167
  -0.0023516   -0.0163077   -0.0000386   -0.3552596   -0.3743168    0.8565498
  -0.0020804   -0.0163024    0.0000520   -0.0955377   -0.4793156    0.8724271
  -0.0015369   -0.0160448    0.0002256    0.1768886   -0.5127672    0.8401073
  -0.0018237   -0.0159892    0.0002547   -0.0920462   -0.3555061    0.9301306
  -0.0013832   -0.0161407    0.0000971    0.4655827   -0.6701407    0.5780521
  -0.0005239   -0.0023105   -0.0019453   -0.1339458    0.9510191   -0.2786058
  -0.0004214   -0.0024639   -0.0021132    0.2568554    0.6842780   -0.6824873
  -0.0004656   -0.0023950   -0.0020403    0.0945047    0.7997643   -0.5928287
  -0.0001875   -0.0024678   -0.0019819    0.4104634    0.4464787   -0.7950953
   0.0013623   -0.0041609    0.0017930    0.3325829    0.8062302    0.4892663
   0.0016652   -0.0043080    0.0017991    0.2948222    0.7998264    0.5228361
   0.0012044   -0.0039558    0.0016343    0.4332615    0.8086936    0.3978683
   0.0006160   -0.0035751    0.0016283    0.4504320    0.8720321    0.1914969
   0.0007959   -0.0040018    0.0021010    0.4584459    0.5973995    0.6579827
   0.0006541   -0.0037134    0.0019487    0.4869533    0.7763194    0.4002557
   0.0004947   -0.0035180    0.0017889    0.5059047    0.8225919    0.2596209
   0.0002171   -0.0032439    0.0017921    0.5556619    0.7453856    0.3682937
   0.0003667   -0.0034896    0.0019480    0.4376192    0.7267220    0.5294947
  -0.0005327   -0.0026896    0.0016282   -0.0257407    0.6945254    0.7190076
  -0.0003716   -0.0028652    0.0017862   -0.0019720    0.6333243    0.7738840
  -0.0002203   -0.0031030    0.0019424    0.0834391    0.5642520    0.8213754
   0.0000804   -0.0032618    0.0019476    0.3510642    0.6553386    0.6687939
  -0.0011851   -0.0024629    0.0012352   -0.3465471    0.6320570    0.6931155
  -0.0007766   -0.0026131    0.0015245   -0.2776306    0.5943280    0.7547818
  -0.0015635   -0.0023098    0.0009119   -0.4081770    0.6472293    0.6438057
  -0.0017218   -0.0022323    0.0007137   -0.5084548    0.6376913    0.5786394
  -0.0026676   -0.0023895   -0.0027112   -0.4741216    0.8765255   -0.0831368
  -0.0025279   -0.0023562   -0.0028657   -0.3874508    0.9056725   -0.1721603
  -0.0028104   -0.0024382   -0.0025581   -0.5835051    0.8095361   -0.0645994
  -0.0027386   -0.0024113   -0.0022261   -0.4808623    0.8766972    0.0131731
  -0.0026663   -0.0023806   -0.0018938   -0.3723340    0.9276628   -0.0284453
  -0.0027381   -0.0024202   -0.0019519   -0.5563895    0.8302652   -0.0330213
  -0.0023942   -0.0023559   -0.0030224   -0.2506632    0.9158574   -0.3136448
  -0.0021806   -0.0026162   -0.0033548    0.1067441    0.6221592   -0.7755795
  -0.0022753   -0.0024244   -0.0031841   -0.1424123    0.7561094   -0.6387623
  -0.0019589   -0.0025041   -0.0031730    0.2644670    0.7254252   -0.6354648
  -0.0017618   -0.0025151   -0.0030005    0.3808433    0.7607108   -0.5256210
  -0.0013658   -0.0025318   -0.0026550    0.2163243    0.7928481   -0.5697330
  -0.0011490   -0.0024447   -0.0024753    0.0617716    0.8175240   -0.5725721
  -0.0008445   -0.0025840   -0.0024687    0.2889905    0.6275156   -0.7229859
  -0.0006312   -0.0025143   -0.0022902    0.3573501    0.5982664   -0.7172017
  -0.0026865   -0.0024796   -0.0010839   -0.7400491    0.6713284   -0.0405646
  -0.0025916   -0.0023372   -0.0007435   -0.5864811    0.8058985   -0.0810406
  -0.0027533   -0.0024813   -0.0014143   -0.6894112    0.7005773    0.1841292
  -0.0022907   -0.0021619   -0.0002274   -0.5974836    0.7931921    0.1177269
  -0.0025195   -0.0023085   -0.0004112    0.9524416    0.3038098    0.0235494
  -0.0025195   -0.0023085   -0.0004112    0.3614791    0.8855931    0.2916466
  -0.0028100   -0.0024332   -0.0017408   -0.6238657    0.7760760    0.0921822
  -0.0018513   -0.0021533    0.0004826   -0.5855898    0.6459624    0.4897114
  -0.0022342   -0.0022101    0.0000994   -0.7053283    0.6244098    0.3355956
  -0.0022094   -0.0024180    0.0004144   -0.7508859    0.4535832    0.4800340
  -0.0019905   -0.0023192    0.0005951   -0.6624156    0.4927196    0.5642986
   0.0007522   -0.0025765   -0.0010811    0.5175738    0.7934719   -0.3201870
   0.0009347   -0.0026605   -0.0009135    0.4694954    0.8583768   -0.2067929
   0.0011158   -0.0027505   -0.0007466    0.5314045    0.8264616   -0.1859315
   0.0012885   -0.0028847   -0.0005830    0.6298006    0.7750782   -0.0510394
   0.0014498   -0.0030726   -0.0004229    0.6750934    0.7321385    0.0906760
   0.0016020   -0.0033068   -0.0002664    0.7638687    0.6374452   -0.1008374
   0.0017596   -0.0035140   -0.0001080    0.7608391    0.6269340   -0.1675637
   0.0023882   -0.0046826    0.0016485    0.6410588    0.5883564    0.4928290
   0.0018224   -0.0045171    0.0019574    0.3553132    0.6826992    0.6384938
   0.0021062   -0.0047606    0.0019564    0.4193403    0.5439759    0.7268039
   0.0025570   -0.0047976    0.0014140    0.8568965    0.4868174    0.1695204
   0.0024867   -0.0045240    0.0011734    0.7877320    0.6125555    0.0652228
   0.0023285   -0.0043187    0.0010146    0.6231620    0.7796730    0.0614743
   0.0021620   -0.0041557    0.0008527    0.4944421    0.8565120    0.1480343
   0.0021151   -0.0040594    0.0005295    0.6803732    0.7321736    0.0318442
   0.0019644   -0.0038176    0.0003737    0.7036002    0.7027655    0.1052013
   0.0019129   -0.0037445    0.0000486    0.8084494    0.5675645   -0.1558204
  -0.0001759   -0.0028934   -0.0021274    0.5242032    0.2419659   -0.8164947
   0.0000500   -0.0027623   -0.0019445    0.5387727    0.2504062   -0.8043759
   0.0002619   -0.0027024   -0.0017669    0.6122419    0.2353325   -0.7548367
   0.0004512   -0.0027519   -0.0015971    0.6696098    0.2207784   -0.7091400
   0.0008109   -0.0028476   -0.0012338    0.6433526    0.4228775   -0.6381787
   0.0006266   -0.0028705   -0.0014321    0.6695187    0.2217456   -0.7089243
  -0.0011554   -0.0160030   -0.0005365    0.8675407   -0.4745871   -0.1487958
  -0.0011521   -0.0160480   -0.0001462    0.8626818   -0.5051837    0.0238673
  -0.0011910   -0.0160669   -0.0000161    0.7872353   -0.5084796    0.3488683
  -0.0029694   -0.0115333   -0.0031197   -0.0265443    0.2697618   -0.9625611
  -0.0006734   -0.0149327   -0.0007731    0.9446356   -0.1959212   -0.2632081
  -0.0003898   -0.0141264   -0.0006098    0.9527432   -0.1137477   -0.2816769
  -0.0003436   -0.0136105   -0.0007527    0.8849393    0.0755371   -0.4595396
  -0.0002881   -0.0136618   -0.0005695    0.9714549    0.0414033   -0.2335832
  -0.0008826   -0.0156392   -0.0003371    0.9338571   -0.3534018   -0.0549365
  -0.0006824   -0.0151428   -0.0002137    0.9726092   -0.2140121    0.0907208
  -0.0025141   -0.0107079   -0.0028093    0.0774801    0.2115433   -0.9742927
  -0.0027363   -0.0111217   -0.0029602   -0.0005895    0.3209181   -0.9471068
  -0.0021552   -0.0108188   -0.0026550    0.4289760    0.0277053   -0.9028909
  -0.0023108   -0.0102768   -0.0027123    0.1424869    0.0883678   -0.9858441
  -0.0005429   -0.0125213   -0.0009976    0.8511990    0.1596015   -0.4999876
  -0.0006840   -0.0124437   -0.0012158    0.7908605    0.0527832   -0.6097160
  -0.0010170   -0.0122890   -0.0015925    0.7082139   -0.0155115   -0.7058275
  -0.0011318   -0.0111969   -0.0019358    0.6662263   -0.0852561   -0.7408602
  -0.0015841   -0.0094877   -0.0025080    0.4285497   -0.0408465   -0.9025944
  -0.0009332   -0.0096233   -0.0020916    0.5835322   -0.0564007   -0.8101291
  -0.0035358   -0.0117177   -0.0017154   -0.9888605    0.0739970    0.1291487
  -0.0036174   -0.0119536   -0.0028228   -0.9224791    0.2240253   -0.3143963
  -0.0033913   -0.0110951   -0.0024419   -0.9739102    0.1655165   -0.1552519
  -0.0033608   -0.0114924   -0.0029195   -0.8087216    0.2966520   -0.5079045
  -0.0030021   -0.0110731   -0.0029234   -0.3149550    0.3319001   -0.8891826
  -0.0031766   -0.0110605   -0.0028042   -0.7238731    0.3269042   -0.6075701
  -0.0033829   -0.0113415   -0.0013198   -0.9421269    0.0242356    0.3343795
  -0.0034706   -0.0123472   -0.0011706   -0.8926462   -0.0271057    0.4499422
  -0.0022778   -0.0158597    0.0001076   -0.4807773   -0.1424060    0.8652016
  -0.0019308   -0.0149815    0.0002840   -0.4310139   -0.0504761    0.9009324
  -0.0027086   -0.0142206   -0.0001636   -0.5882538   -0.1298372    0.7981853
  -0.0026370   -0.0122697   -0.0000868   -0.7113001   -0.0695757    0.6994365
  -0.0031322   -0.0120371   -0.0006565   -0.7867690   -0.0383400    0.6160556
  -0.0032256   -0.0117554   -0.0008676   -0.9684544   -0.0005251    0.2491903
  -0.0031850   -0.0114907   -0.0008337   -0.9483814    0.0247350    0.3161658
  -0.0026056   -0.0132796   -0.0000278   -0.5987966   -0.0901588    0.7958103
  -0.0020950   -0.0159161    0.0001887   -0.3000025   -0.2464388    0.9215565
  -0.0015892   -0.0155772    0.0004044   -0.1403660   -0.1950969    0.9706877
  -0.0014339   -0.0160589    0.0001821    0.3831951   -0.5095832    0.7703807
  -0.0014811   -0.0159661    0.0002665    0.1706193   -0.4202995    0.8912000
  -0.0020270   -0.0154498    0.0002524   -0.3641888   -0.0918766    0.9267822
  -0.0013290   -0.0160699    0.0001362    0.5594821   -0.4801141    0.6756259
  -0.0003939   -0.0028563   -0.0022670    0.4881997    0.3331705   -0.8066340
   0.0015234   -0.0043509    0.0019527    0.2697588    0.7370087    0.6197164
   0.0013733   -0.0044362    0.0021033    0.2041980    0.6115367    0.7644122
   0.0012213   -0.0041999    0.0019469    0.3293301    0.6728751    0.6624053
   0.0016706   -0.0046101    0.0021074    0.2873841    0.5792291    0.7628263
   0.0010726   -0.0042775    0.0020979    0.3288486    0.4819415    0.8121521
   0.0006929   -0.0040711    0.0022006    0.4739837    0.4094189    0.7795612
   0.0005176   -0.0037313    0.0021041    0.3862507    0.6195588    0.6833427
   0.0008004   -0.0046153    0.0023142    0.1709588    0.2652372    0.9489059
   0.0001505   -0.0034200    0.0020253    0.2774107    0.6298257    0.7255088
   0.0002223   -0.0035479    0.0021005    0.2126811    0.5692532    0.7941773
   0.0003569   -0.0038685    0.0022510    0.1789920    0.4817015    0.8578610
  -0.0007106   -0.0028969    0.0017672   -0.2531564    0.4951495    0.8311070
  -0.0005625   -0.0031523    0.0019222   -0.2297465    0.3824509    0.8949569
  -0.0003455   -0.0033125    0.0020253   -0.1661143    0.3239851    0.9313644
  -0.0000880   -0.0034354    0.0020920    0.0210532    0.4491428    0.8932119
  -0.0000355   -0.0033838    0.0020464    0.1668876    0.5251533    0.8344834
  -0.0008774   -0.0027337    0.0016058   -0.3744822    0.5025893    0.7792093
  -0.0012318   -0.0025136    0.0012747   -0.4321866    0.5304302    0.7292863
  -0.0015975   -0.0023491    0.0009398   -0.5069718    0.5199925    0.6874500
  -0.0017895   -0.0023132    0.0007688   -0.5662187    0.5507791    0.6132200
  -0.0029028   -0.0025668   -0.0028973   -0.7015811    0.6751036   -0.2280767
  -0.0027609   -0.0025220   -0.0030508   -0.5954414    0.7167231   -0.3629842
  -0.0026322   -0.0025446   -0.0032092   -0.4463540    0.7214435   -0.5294217
  -0.0029615   -0.0025272   -0.0024077   -0.7687975    0.6391455   -0.0210592
  -0.0030499   -0.0026739   -0.0027421   -0.8031934    0.5707499   -0.1706601
  -0.0028862   -0.0024831   -0.0020744   -0.6729422    0.7372596    0.0599750
  -0.0030478   -0.0026240   -0.0019277   -0.8069422    0.5727417    0.1442608
  -0.0028247   -0.0024442   -0.0017524   -0.7665893    0.6387438    0.0659333
  -0.0022579   -0.0026992   -0.0034130   -0.0697207    0.5048582   -0.8603820
  -0.0021341   -0.0030444   -0.0035422    0.1630168    0.3444249   -0.9245523
  -0.0018924   -0.0027931   -0.0033406    0.3453400    0.4656955   -0.8147809
  -0.0025084   -0.0026562   -0.0033625   -0.2796557    0.5455037   -0.7900750
  -0.0016764   -0.0027532   -0.0031745    0.4634578    0.5671055   -0.6808804
  -0.0012859   -0.0027946   -0.0028305    0.4669786    0.5325088   -0.7059499
  -0.0010857   -0.0026320   -0.0026078    0.2374964    0.6207320   -0.7471862
  -0.0009836   -0.0026607   -0.0025816    0.3749575    0.4525027   -0.8091033
  -0.0006090   -0.0027819   -0.0023993    0.5029912    0.3136447   -0.8053737
  -0.0028006   -0.0026157   -0.0009915   -0.9312979    0.3640348   -0.0127640
  -0.0028242   -0.0026272   -0.0009159   -0.9321931    0.3517802   -0.0852454
  -0.0027644   -0.0025339   -0.0006008   -0.8712566    0.4635413    0.1613735
  -0.0025195   -0.0023085   -0.0004112    0.7697253    0.5938422    0.2342529
  -0.0027930   -0.0025322   -0.0013830   -0.8932668    0.3692795    0.2563338
  -0.0028069   -0.0025132   -0.0014573   -0.7946248    0.5359989    0.2850905
  -0.0024742   -0.0023877   -0.0000913   -0.8051518    0.4950554    0.3265743
  -0.0027196   -0.0026419   -0.0002786   -0.7941777    0.4251101    0.4342387
  -0.0028260   -0.0024490   -0.0017269   -0.7956436    0.5830087    0.1644755
  -0.0024719   -0.0023901   -0.0000842   -0.8248947    0.3577980    0.4376406
  -0.0022706   -0.0025507    0.0004453   -0.7803353    0.2713032    0.5634459
  -0.0019741   -0.0027061    0.0008646   -0.6633364    0.2491287    0.7056343
   0.0009980   -0.0029238   -0.0010694    0.6468508    0.4502738   -0.6154978
   0.0013515   -0.0030784   -0.0007173    0.7087542    0.4922923   -0.5052877
   0.0014774   -0.0031573   -0.0004817    0.8108210    0.4731931   -0.3444671
   0.0016576   -0.0036930   -0.0004511    0.8167317    0.3450577   -0.4624765
   0.0015115   -0.0034280   -0.0006053    0.8130824    0.3248487   -0.4830842
   0.0019287   -0.0038541   -0.0000038    0.8358254    0.3554460   -0.4183946
   0.0026277   -0.0051429    0.0016322    0.8436159    0.4170805    0.3381658
   0.0023755   -0.0050729    0.0019507    0.5920237    0.4450876    0.6718668
   0.0025640   -0.0053946    0.0018749    0.7811802    0.2827513    0.5566051
   0.0017171   -0.0047802    0.0021651    0.2972386    0.4293226    0.8528372
   0.0022587   -0.0053896    0.0021537    0.4375348    0.2500620    0.8637316
   0.0017843   -0.0050367    0.0022501    0.2829649    0.3510798    0.8925658
   0.0025404   -0.0046945    0.0009649    0.8990843    0.3968059   -0.1849123
   0.0026858   -0.0051866    0.0011421    0.9502631    0.2902665   -0.1128959
   0.0027046   -0.0053323    0.0014463    0.9572793    0.2778073    0.0802468
   0.0024323   -0.0044664    0.0008470    0.7987393    0.5810159   -0.1563202
   0.0022749   -0.0042551    0.0006891    0.7312457    0.6735784   -0.1075725
   0.0019846   -0.0038950    0.0001267    0.8474779    0.4718908   -0.2431055
   0.0022084   -0.0042570    0.0003587    0.8123428    0.4957669   -0.3071065
  -0.0001404   -0.0044066   -0.0022285    0.6047997    0.1052962   -0.7893858
  -0.0003320   -0.0043317   -0.0023879    0.7039528    0.1867840   -0.6852461
  -0.0006827   -0.0037129   -0.0026001    0.5859955    0.2222560   -0.7792378
   0.0008109   -0.0029451   -0.0012642    0.6489433    0.2219952   -0.7277298
  -0.0008964   -0.0156219   -0.0000782    0.9269458   -0.3275198    0.1830364
  -0.0009839   -0.0156456    0.0001202    0.8097626   -0.2644466    0.5237868
  -0.0006009   -0.0149020   -0.0004408    0.9758200   -0.1933446   -0.1019471
  -0.0003720   -0.0141598   -0.0004810    0.9886957   -0.1183562   -0.0920473
  -0.0003229   -0.0131921   -0.0006477    0.9373925    0.2133437   -0.2752811
  -0.0002648   -0.0137328   -0.0002693    0.9909774    0.0476617    0.1252684
  -0.0002897   -0.0132277   -0.0002897    0.9703970    0.2407875    0.0187365
  -0.0004247   -0.0142359   -0.0000833    0.9284878   -0.1057958    0.3559742
  -0.0006439   -0.0147111    0.0000468    0.8228939   -0.1076897    0.5578966
  -0.0026246   -0.0102053   -0.0027290   -0.0265853    0.1275641   -0.9914740
  -0.0026695   -0.0101960   -0.0027250   -0.2773457    0.1797572   -0.9438044
  -0.0022497   -0.0092951   -0.0027255    0.0442513   -0.0604612   -0.9971892
  -0.0025614   -0.0097339   -0.0026788   -0.4045094    0.0732625   -0.9115946
  -0.0004303   -0.0126005   -0.0007467    0.9522850    0.2279934   -0.2029097
  -0.0005435   -0.0120336   -0.0009594    0.9205934    0.0697601   -0.3842411
  -0.0005138   -0.0115086   -0.0011272    0.8547044   -0.0548397   -0.5162103
  -0.0010231   -0.0117729   -0.0016760    0.7673582    0.0036956   -0.6412080
  -0.0006635   -0.0108820   -0.0015736    0.7917566   -0.1061402   -0.6015445
  -0.0018335   -0.0089015   -0.0026762    0.3815516   -0.0882233   -0.9201277
  -0.0001562   -0.0095540   -0.0013521    0.7809537   -0.1275242   -0.6114319
  -0.0013358   -0.0085496   -0.0025101    0.4861141   -0.1078463   -0.8672152
  -0.0000734   -0.0085382   -0.0015438    0.6598028   -0.0771315   -0.7474697
  -0.0031500   -0.0098454   -0.0015909   -0.9956958    0.0508645    0.0774775
  -0.0033199   -0.0106968   -0.0020623   -0.9893498    0.0980571   -0.1075722
  -0.0031512   -0.0106258   -0.0025543   -0.8091214    0.2455682   -0.5338715
  -0.0030007   -0.0097354   -0.0022427   -0.8658686    0.1525190   -0.4764552
  -0.0030111   -0.0106237   -0.0027049   -0.6186271    0.2667911   -0.7390014
  -0.0029702   -0.0105606   -0.0007688   -0.8477105    0.0445746    0.5285831
  -0.0032025   -0.0114789   -0.0008758   -0.8919726    0.0139511    0.4518741
  -0.0030048   -0.0094596   -0.0012344   -0.9390311    0.0287503    0.3426282
  -0.0024629   -0.0138220    0.0000445   -0.4120854   -0.0925019    0.9064376
  -0.0018816   -0.0139957    0.0002596   -0.2721257    0.0216320    0.9620185
  -0.0014813   -0.0151151    0.0004507   -0.2021337   -0.0282124    0.9789515
  -0.0015861   -0.0145871    0.0004085   -0.0772078    0.0559382    0.9954446
  -0.0023710   -0.0118777    0.0001293   -0.6031829   -0.0380280    0.7966958
  -0.0028070   -0.0111796   -0.0003662   -0.7480333    0.0029147    0.6636548
  -0.0022372   -0.0124209    0.0002121   -0.3581956   -0.0821610    0.9300245
  -0.0015038   -0.0155965    0.0004075    0.0479417   -0.2272481    0.9726561
  -0.0014223   -0.0151297    0.0004562    0.0402488   -0.0283958    0.9987861
  -0.0013086   -0.0156334    0.0003820    0.3950321   -0.2681051    0.8786747
   0.0012143   -0.0046937    0.0022642    0.1747837    0.3612375    0.9159466
   0.0011998   -0.0046367    0.0022454    0.1922802    0.4770423    0.8575891
   0.0006326   -0.0040655    0.0022380    0.2880070    0.3225983    0.9016553
   0.0006384   -0.0041213    0.0022495    0.2753092    0.2666071    0.9236479
   0.0003978   -0.0040304    0.0023034    0.2051428    0.3102831    0.9282461
