NORM_ASCII
2542 5080
  -0.0010885   -0.0015333   -0.0025301   -0.0991320    0.0697995   -0.9926232
  -0.0001607    0.0018475   -0.0021582    0.0326648    0.0981753   -0.9946329
   0.0022052    0.0000053    0.0026880    0.8153613    0.0277475    0.5782872
   0.0010646   -0.0010954    0.0036747    0.6583607    0.0700878    0.7494324
   0.0001030   -0.0005321    0.0043397    0.5308904    0.1381544    0.8361033
   0.0021341   -0.0011330    0.0025903    0.8441994   -0.0103505    0.5359293
  -0.0001187   -0.0010501    0.0045557    0.4646204    0.1562517    0.8716153
  -0.0037063   -0.0043115    0.0029717   -0.7680959   -0.0275960    0.6397399
  -0.0018131   -0.0044031    0.0048256   -0.4903528   -0.0393690    0.8706344
  -0.0016625   -0.0031574    0.0048492   -0.4589404   -0.0176173    0.8882924
  -0.0032278   -0.0049056    0.0036316   -0.6846868   -0.0376905    0.7278622
  -0.0048420   -0.0042526    0.0013201   -0.9267332   -0.0210379    0.3751305
  -0.0040548   -0.0042934    0.0025148   -0.7678078    0.0303596    0.6399605
  -0.0046245   -0.0048347    0.0018055   -0.8384227   -0.0432743    0.5432998
  -0.0039800   -0.0048681    0.0027520   -0.6799409    0.0249715    0.7328416
  -0.0038735   -0.0043022    0.0027392    0.7526860    0.0314164    0.6576297
  -0.0037552   -0.0047578    0.0029605   -0.6400539   -0.0026300    0.7683255
  -0.0038735   -0.0043022    0.0027392    0.9559274    0.0231197    0.2926915
  -0.0016825   -0.0021278    0.0047893   -0.3521019    0.0061926    0.9359412
  -0.0003740   -0.0016115    0.0047129    0.3045846    0.1406618    0.9420417
  -0.0010593   -0.0021538    0.0049073    0.1437924    0.1082817    0.9836660
  -0.0012622   -0.0029402    0.0049586   -0.1177185    0.0688491    0.9906574
  -0.0016261   -0.0026514   -0.0025448   -0.2578566    0.0997042   -0.9610250
  -0.0022838   -0.0043345   -0.0026327   -0.2802100    0.1089055   -0.9537410
  -0.0027016   -0.0065959   -0.0028847   -0.3618719    0.1215464   -0.9242701
  -0.0050261   -0.0065123   -0.0008016   -0.9192435    0.0855573   -0.3842803
  -0.0042453   -0.0088145   -0.0025883   -0.6625364    0.1421263   -0.7354221
  -0.0048819   -0.0070851   -0.0013732   -0.8303952    0.1057799   -0.5470415
  -0.0033591   -0.0077085   -0.0028323   -0.4779527    0.1195362   -0.8702140
  -0.0039550   -0.0105320   -0.0032253   -0.4909175    0.1559361   -0.8571370
  -0.0050089   -0.0048148    0.0010331   -0.9692077   -0.0256951    0.2449003
  -0.0051862   -0.0065087   -0.0003648   -0.9917676    0.0407892   -0.1213807
  -0.0052106   -0.0070864    0.0009451   -0.9688526   -0.0406351    0.2442815
   0.0075338    0.0191983   -0.0014465    0.9530340   -0.2800311   -0.1153637
   0.0027673    0.0022740    0.0009293    0.9845316   -0.0491550   -0.1681702
   0.0027772    0.0028472    0.0003022    0.9516702   -0.0529049   -0.3025309
   0.0028071    0.0022653    0.0019154    0.9789151   -0.0124466    0.2038880
   0.0026236    0.0011366    0.0012485    0.9824927   -0.0450950   -0.1807610
   0.0025928    0.0007446    0.0015680    0.9981326   -0.0387476   -0.0472215
   0.0024969    0.0005646    0.0022850    0.9130149    0.0323270    0.4066433
   0.0025541    0.0005648    0.0021004    0.9917258   -0.0041036    0.1283083
  -0.0003384   -0.0004254   -0.0024182    0.1237760    0.0835630   -0.9887855
   0.0000190    0.0001287   -0.0022914    0.3450726    0.1014870   -0.9330730
   0.0003632    0.0001146   -0.0021681    0.3740848    0.0827090   -0.9236990
   0.0020329    0.0006035   -0.0004586    0.8399233   -0.0175719   -0.5424205
   0.0024419    0.0011512    0.0003514    0.9504558   -0.0460040   -0.3074368
   0.0009694    0.0006560   -0.0018190    0.6285172    0.0634754   -0.7752012
  -0.0003706   -0.0015639   -0.0024479    0.2144534    0.0392945   -0.9759435
  -0.0011609   -0.0026697   -0.0026314    0.0747795    0.0907171   -0.9930652
   0.0023795   -0.0000011    0.0024014    0.9135527   -0.0085182    0.4066311
   0.0023274   -0.0005678    0.0022842    0.9685622    0.0079797    0.2486436
   0.0019200   -0.0012564    0.0028093    0.7814067   -0.0075901    0.6239759
   0.0010263   -0.0022331    0.0036334    0.7092281    0.0685979    0.7016337
   0.0022731   -0.0011361    0.0022401    0.9824855   -0.0332010    0.1833575
   0.0021572   -0.0017018    0.0022830    0.9180718   -0.0573498    0.3922439
  -0.0001015   -0.0021925    0.0046141    0.5515478    0.1220218    0.8251701
  -0.0013448   -0.0032839    0.0049776   -0.2498255    0.0303835    0.9678141
  -0.0012365   -0.0044283    0.0050398   -0.1898303    0.0079249    0.9817849
  -0.0016551   -0.0049811    0.0049071   -0.4660218   -0.0585751    0.8828322
  -0.0022397   -0.0060939    0.0044924   -0.5745761   -0.0402924    0.8174588
  -0.0034088   -0.0066085    0.0035839   -0.5629948    0.0352407    0.8257088
  -0.0036442   -0.0053565    0.0031726   -0.6249073    0.0772293    0.7768697
  -0.0027212   -0.0066414    0.0041667   -0.4442585   -0.0323889    0.8953130
  -0.0049478   -0.0053882    0.0012792   -0.8893854   -0.0574643    0.4535322
  -0.0037771   -0.0060202    0.0031927   -0.7595759   -0.0001834    0.6504186
  -0.0044388   -0.0059866    0.0022567   -0.8420258   -0.0399708    0.5379544
  -0.0003539   -0.0027527    0.0047760    0.4304924    0.1164349    0.8950526
  -0.0005966   -0.0038857    0.0049703    0.2232175    0.0943195    0.9701947
  -0.0012487   -0.0032875    0.0049907   -0.0082729    0.0683660    0.9976260
  -0.0016237   -0.0043602   -0.0028154   -0.1438584    0.0993588   -0.9845977
  -0.0020159   -0.0054846   -0.0028874   -0.1102142    0.1140707   -0.9873402
  -0.0029007   -0.0082959   -0.0031973   -0.3048213    0.1592415   -0.9390027
  -0.0016767   -0.0085527   -0.0034043   -0.0282110    0.1919141   -0.9810062
  -0.0053535   -0.0082084   -0.0009896   -0.9358512    0.0620877   -0.3468828
  -0.0046895   -0.0087983   -0.0021836   -0.7425184    0.1485300   -0.6531502
  -0.0048580   -0.0099303   -0.0024557   -0.7381048    0.1213459   -0.6636840
  -0.0051439   -0.0087823   -0.0016154   -0.8514993    0.1021929   -0.5143010
  -0.0025023   -0.0100206   -0.0036418   -0.3089795    0.1327671   -0.9417561
  -0.0049152   -0.0104962   -0.0025442   -0.7030210    0.1405756   -0.6971370
  -0.0044016   -0.0119717   -0.0033865   -0.5658128    0.2160049   -0.7957373
  -0.0025440   -0.0105890   -0.0037325   -0.2624782    0.1739947   -0.9491212
  -0.0029312   -0.0111425   -0.0037793   -0.3092694    0.2053267   -0.9285437
  -0.0042876   -0.0127967   -0.0037610   -0.4586946    0.2318511   -0.8578137
  -0.0022315   -0.0123078   -0.0042994   -0.3341729    0.2984521   -0.8940105
  -0.0053562   -0.0076480    0.0006457   -0.9813213   -0.0029387    0.1923535
  -0.0054550   -0.0082063   -0.0005732   -0.9935606    0.0162452   -0.1121313
  -0.0051135   -0.0072700    0.0012051   -0.8969116   -0.0410840    0.4402972
   0.0023977    0.0005810    0.0006277    0.9793354   -0.0476415   -0.1965515
   0.0022527   -0.0004513    0.0009925    0.9863969   -0.0263122   -0.1622614
   0.0023515   -0.0005656    0.0017682    0.9978901   -0.0097841   -0.0641837
   0.0024223   -0.0000011    0.0022788    0.9798675   -0.0220320    0.1984294
   0.0000028   -0.0004391   -0.0023340    0.3748937    0.0812710   -0.9234987
  -0.0000444   -0.0010073   -0.0023580    0.2927542    0.0294854   -0.9557330
   0.0000447   -0.0010121   -0.0023205    0.4039892    0.0571922   -0.9129741
   0.0006127   -0.0004681   -0.0020405    0.4567460    0.0748677   -0.8864411
   0.0020646   -0.0005432    0.0000883    0.9274722   -0.0275233   -0.3728777
   0.0011040    0.0000790   -0.0016191    0.8162737    0.0349585   -0.5766065
   0.0007671   -0.0021851   -0.0019594    0.7108741    0.0962568   -0.6967013
   0.0002073   -0.0021600   -0.0022852    0.3381718    0.0624894   -0.9390074
  -0.0000069   -0.0027207   -0.0023702    0.2620901    0.0790420   -0.9618010
  -0.0000810   -0.0038573   -0.0024743    0.1966296    0.0987467   -0.9754926
  -0.0002432   -0.0044206   -0.0025557    0.1702890    0.1272729   -0.9771403
  -0.0005405   -0.0049770   -0.0026669    0.1602691    0.1218446   -0.9795242
  -0.0013189   -0.0049428   -0.0028569    0.1109190    0.0889096   -0.9898445
   0.0023201   -0.0011347    0.0018986    0.9992917   -0.0078188   -0.0368090
   0.0016100   -0.0028234    0.0028939    0.8316830    0.0109114    0.5551436
   0.0011907   -0.0033796    0.0033571    0.7828400    0.0273143    0.6216232
   0.0001435   -0.0039132    0.0044947    0.7263181    0.1015686    0.6798131
   0.0021756   -0.0016982    0.0015973    0.9902308   -0.0447254   -0.1320705
   0.0021239   -0.0022682    0.0020023    0.9953785   -0.0307508    0.0909731
   0.0019523   -0.0027995    0.0023073    0.9425179   -0.0059789    0.3341022
  -0.0010830   -0.0044352    0.0050451    0.0187422    0.0459354    0.9987686
  -0.0012739   -0.0055683    0.0050568   -0.1787533   -0.0259053    0.9835528
  -0.0016825   -0.0066899    0.0048676   -0.4144375   -0.0751842    0.9069669
  -0.0024786   -0.0066529    0.0043524   -0.5568532   -0.0535032    0.8288859
  -0.0035679   -0.0060315    0.0033987   -0.5221285    0.1015795    0.8467960
  -0.0037117   -0.0071659    0.0033813   -0.6693991   -0.0274225    0.7423967
  -0.0031434   -0.0083333    0.0039320   -0.5525139   -0.0441811    0.8323319
  -0.0028080   -0.0077112    0.0041193   -0.3831505   -0.0659903    0.9213257
  -0.0028141   -0.0077781    0.0041174   -0.1890409   -0.0379730    0.9812347
  -0.0044156   -0.0071302    0.0024717   -0.8342196    0.0024459    0.5514270
  -0.0042709   -0.0072981    0.0027036   -0.7893265   -0.0056926    0.6139473
  -0.0003316   -0.0049390    0.0048696    0.5269574    0.1235995    0.8408561
  -0.0008884   -0.0055851    0.0050903    0.1490842    0.0403604    0.9880005
  -0.0014619   -0.0055069   -0.0029141    0.0740376    0.0778238   -0.9942142
  -0.0010550   -0.0067122   -0.0029418    0.1059339    0.1460683   -0.9835863
  -0.0015095   -0.0072141   -0.0031400    0.1321718    0.2005464   -0.9707274
  -0.0020617   -0.0088988   -0.0034835   -0.0731623    0.1791931   -0.9810898
  -0.0020843   -0.0094678   -0.0035744   -0.1096044    0.1843464   -0.9767309
  -0.0005294   -0.0083949   -0.0031616    0.1125735    0.2022446   -0.9728434
  -0.0010001   -0.0089453   -0.0033866    0.0785602    0.2139432   -0.9736820
  -0.0054055   -0.0087743   -0.0011152   -0.9614546    0.0340066   -0.2728528
  -0.0053445   -0.0093412   -0.0015436   -0.9118923    0.0909418   -0.4002273
  -0.0055056   -0.0104776   -0.0018016   -0.8933948    0.0872287   -0.4407231
  -0.0016293   -0.0106253   -0.0038671   -0.0484016    0.2276353   -0.9725428
  -0.0048991   -0.0119604   -0.0030769   -0.6768174    0.1970561   -0.7092863
  -0.0053964   -0.0110497   -0.0021912   -0.8458153    0.0227652   -0.5329898
  -0.0052225   -0.0112604   -0.0024740   -0.8109713    0.1017806   -0.5761651
  -0.0051019   -0.0144715   -0.0039732   -0.5784510    0.2511007   -0.7761075
  -0.0023227   -0.0111664   -0.0038923   -0.2015147    0.2384203   -0.9500251
  -0.0041133   -0.0133884   -0.0040344   -0.4555207    0.3316618   -0.8261364
  -0.0027987   -0.0134232   -0.0046826   -0.4084348    0.3652112   -0.8365415
  -0.0018058   -0.0117569   -0.0041533   -0.0968484    0.3257847   -0.9404705
  -0.0023695   -0.0140075   -0.0051006   -0.3587465    0.4469316   -0.8194835
  -0.0056725   -0.0093423    0.0000079   -0.9989001   -0.0140271    0.0447419
  -0.0055774   -0.0093492    0.0004316   -0.9518409   -0.0408173    0.3038631
  -0.0046658   -0.0076884    0.0022371   -0.8601943    0.0033254    0.5099555
   0.0020604   -0.0014955    0.0006763    0.9805508   -0.0153724   -0.1956624
   0.0022469   -0.0012282    0.0015981    0.9800578    0.0043854   -0.1986645
   0.0004803   -0.0027424   -0.0021718    0.4750753    0.1141193   -0.8725138
   0.0016661   -0.0022320   -0.0004971    0.9158443    0.0577653   -0.3973567
   0.0009771   -0.0044780   -0.0016306    0.8753244    0.1034645   -0.4723370
   0.0006819   -0.0050323   -0.0021744    0.7930609    0.1522366   -0.5898122
   0.0002693   -0.0044416   -0.0024351    0.2815941    0.1558345   -0.9467948
   0.0001195   -0.0055755   -0.0026729    0.1280572    0.1465953   -0.9808727
   0.0015455   -0.0039600    0.0028068    0.8454755    0.0261511    0.5333735
   0.0006292   -0.0050698    0.0039252    0.7616810    0.1075297    0.6389675
   0.0007432   -0.0050741    0.0037971    0.8375036    0.1072265    0.5358080
   0.0013201   -0.0050930    0.0030313    0.8490729    0.0875090    0.5209774
   0.0005634   -0.0056383    0.0040883    0.7613924    0.1461747    0.6315969
   0.0007391   -0.0056438    0.0038033    0.9363707    0.0761388    0.3426555
   0.0020263   -0.0028344    0.0019205    0.9999760   -0.0009322   -0.0068640
   0.0020711   -0.0019288    0.0013032    0.9881446    0.0048092   -0.1534510
   0.0017886   -0.0051063    0.0020728    0.9651496    0.0557847    0.2556839
  -0.0009299   -0.0067233    0.0050725   -0.0015471   -0.0172939    0.9998493
  -0.0012961   -0.0072767    0.0050032   -0.3325418   -0.0720821    0.9403298
  -0.0043251   -0.0088469    0.0029297   -0.7691802   -0.0171522    0.6388017
  -0.0041744   -0.0117070    0.0032425   -0.6376504   -0.0519730    0.7685706
  -0.0038681   -0.0111503    0.0034425   -0.4730244   -0.0576030    0.8791643
  -0.0034958   -0.0094582    0.0037069   -0.5821922   -0.0598355    0.8108464
  -0.0028113   -0.0089187    0.0041424   -0.4941237   -0.0773288    0.8659458
  -0.0028079   -0.0083480    0.0041342   -0.4972164   -0.0471229    0.8663459
  -0.0020597   -0.0083827    0.0046055   -0.4731658   -0.0834972    0.8770076
  -0.0023257   -0.0083714    0.0044334   -0.3726695   -0.0637209    0.9257738
  -0.0003081   -0.0067476    0.0049549    0.3937608    0.0658488    0.9168513
  -0.0000676   -0.0056170    0.0047581    0.6349171    0.1546494    0.7569438
  -0.0006679   -0.0061119   -0.0027885    0.0755413    0.1384290   -0.9874872
  -0.0001275   -0.0078434   -0.0030572    0.2253040    0.2307552   -0.9465676
   0.0004114   -0.0084365   -0.0030001    0.3605489    0.2790145   -0.8900311
   0.0001191   -0.0089935   -0.0031880    0.2023712    0.2236572   -0.9534272
  -0.0002272   -0.0095476   -0.0033833    0.1590746    0.2397818   -0.9577056
  -0.0057539   -0.0099053   -0.0003311   -0.9993328    0.0084959   -0.0355211
  -0.0055042   -0.0099085   -0.0014979   -0.9659451    0.0716911   -0.2486172
  -0.0057213   -0.0110401   -0.0015747   -0.9427894    0.0505401   -0.3295357
  -0.0058235   -0.0104715   -0.0005761   -0.9934896    0.0397417   -0.1067658
  -0.0001641   -0.0106896   -0.0036499    0.2303782    0.2794221   -0.9321208
  -0.0011484   -0.0112151   -0.0039806    0.0843108    0.2481529   -0.9650450
  -0.0051483   -0.0121955   -0.0029448   -0.7395123    0.1831215   -0.6477562
  -0.0055817   -0.0161602   -0.0041876   -0.7176130    0.1651800   -0.6765701
  -0.0055264   -0.0144557   -0.0035340   -0.7564317    0.1746146   -0.6303339
  -0.0060642   -0.0131727   -0.0021320   -0.9017332    0.1311069   -0.4119323
  -0.0058220   -0.0133101   -0.0026324   -0.8351038    0.1448546   -0.5306777
  -0.0039863   -0.0139456   -0.0043921   -0.5102763    0.3588878   -0.7815483
  -0.0047249   -0.0150534   -0.0044837   -0.6255673    0.1998187   -0.7541473
  -0.0042500   -0.0150721   -0.0048331   -0.5537995    0.2953144   -0.7785214
  -0.0031321   -0.0136958   -0.0046713   -0.4219917    0.4055216   -0.8108485
  -0.0026497   -0.0140169   -0.0050004   -0.3633479    0.4282339   -0.8274020
   0.0000056   -0.0118353   -0.0039174    0.2823597    0.3087860   -0.9082534
  -0.0010915   -0.0129237   -0.0046472    0.0791677    0.4558494   -0.8865291
  -0.0018246   -0.0131071   -0.0047510   -0.1799689    0.4514466   -0.8739606
  -0.0028124   -0.0144719   -0.0052789   -0.4506091    0.4614597   -0.7642031
  -0.0024868   -0.0151191   -0.0058787   -0.3841941    0.4835647   -0.7864859
  -0.0027300   -0.0149996   -0.0057166   -0.4439814    0.4751247   -0.7596953
  -0.0055446   -0.0109593    0.0011261   -0.9403608   -0.0283311    0.3389969
  -0.0051083   -0.0099489    0.0019620   -0.8904271   -0.0109635    0.4549939
  -0.0058377   -0.0110449    0.0000096   -0.9888633    0.0035131    0.1487853
   0.0016660   -0.0045191    0.0002998    0.9834442    0.0193283   -0.1801777
   0.0005219   -0.0055925   -0.0024642    0.6251522    0.1781849   -0.7598914
   0.0015545   -0.0045102   -0.0003048    0.9617450    0.0596252   -0.2673788
   0.0012826   -0.0062054   -0.0009698    0.9373119    0.0866163   -0.3375560
   0.0006981   -0.0056468   -0.0022411    0.8035472    0.1868286   -0.5651611
   0.0002623   -0.0055808   -0.0026397    0.3243671    0.1820310   -0.9282514
   0.0000647   -0.0061420   -0.0027571    0.1132743    0.1458857   -0.9827951
   0.0009430   -0.0056509    0.0035688    0.8185717    0.0704465    0.5700681
   0.0007391   -0.0056438    0.0038033    0.9618291    0.0279878    0.2722158
   0.0016331   -0.0056720    0.0024073    0.9265746   -0.0063042    0.3760581
   0.0014395   -0.0059441    0.0026670    0.8740789    0.0127742    0.4856159
   0.0007208   -0.0062126    0.0037843    0.9181977    0.0567169    0.3920409
  -0.0000672   -0.0073277    0.0048000    0.5971382    0.1028736    0.7955143
   0.0001671   -0.0073367    0.0046200    0.7348825    0.1035638    0.6702405
   0.0007391   -0.0056438    0.0038033    0.9748416    0.0273953    0.2212088
   0.0018098   -0.0050417    0.0015110    0.9980841    0.0439075   -0.0435919
   0.0017240   -0.0056674    0.0011680    0.9879249    0.0308053   -0.1518404
   0.0016155   -0.0050885    0.0005701    0.9833028    0.0528307   -0.1741392
   0.0017530   -0.0056754    0.0020234    0.9972105    0.0047770    0.0744876
  -0.0006452   -0.0084459    0.0049949    0.2122914   -0.0137779    0.9771093
  -0.0003212   -0.0073185    0.0049462    0.3566957    0.0364809    0.9335081
  -0.0010637   -0.0084278    0.0049958   -0.1357284   -0.0793315    0.9875648
  -0.0018795   -0.0095314    0.0046191   -0.3853072   -0.1201245    0.9149363
  -0.0051042   -0.0110902    0.0021902   -0.8453232   -0.0258776    0.5336282
  -0.0048594   -0.0122443    0.0026045   -0.7098642   -0.0497117    0.7025821
  -0.0044828   -0.0128328    0.0029908   -0.6291281   -0.0612899    0.7748816
  -0.0039572   -0.0122879    0.0033903   -0.4056863   -0.0502565    0.9126297
  -0.0033216   -0.0106065    0.0038292   -0.4949108   -0.0773307    0.8654960
  -0.0039505   -0.0122257    0.0033924   -0.3424032   -0.0502527    0.9382083
  -0.0037207   -0.0122981    0.0035808   -0.5431370   -0.0599610    0.8375004
  -0.0028544   -0.0123380    0.0040520   -0.4238785   -0.0737643    0.9027103
  -0.0023642   -0.0089397    0.0044041   -0.2321162   -0.0933843    0.9681949
  -0.0023684   -0.0095084    0.0043539   -0.4058264   -0.1154127    0.9066338
  -0.0023784   -0.0097680    0.0043352   -0.4168495   -0.1019060    0.9032451
  -0.0023633   -0.0095095    0.0043559   -0.2936952   -0.1001373    0.9506396
  -0.0000472   -0.0072772   -0.0029284    0.1335470    0.1709848   -0.9761810
   0.0006208   -0.0084460   -0.0027933    0.6457738    0.2423243   -0.7240546
   0.0003328   -0.0073457   -0.0028490    0.4065353    0.1743708   -0.8968410
   0.0004497   -0.0095771   -0.0031837    0.5233398    0.2531252   -0.8136603
   0.0003576   -0.0101432   -0.0033333    0.4078158    0.2258539   -0.8846900
  -0.0060884   -0.0121198   -0.0010065   -0.9967263    0.0576485   -0.0566861
  -0.0062386   -0.0132978   -0.0016981   -0.9792032    0.0989286   -0.1771278
  -0.0002775   -0.0112529   -0.0038381    0.1940749    0.2829466   -0.9392956
   0.0006293   -0.0112948   -0.0034034    0.5192918    0.2678812   -0.8115267
   0.0000973   -0.0114670   -0.0037641    0.3829709    0.2955308   -0.8752113
  -0.0059785   -0.0161476   -0.0036985   -0.8262163    0.1323525   -0.5475850
  -0.0041066   -0.0156459   -0.0051616   -0.6166087    0.2443905   -0.7483762
  -0.0050003   -0.0167499   -0.0049315   -0.6580943    0.1806664   -0.7309388
  -0.0052957   -0.0173092   -0.0048456   -0.7539864   -0.0206942   -0.6565639
  -0.0060564   -0.0167143   -0.0038233   -0.8169070    0.0539250   -0.5742430
  -0.0060134   -0.0138717   -0.0025657   -0.8641979    0.1273213   -0.4867764
  -0.0067604   -0.0155545   -0.0021169   -0.9422413    0.1594171   -0.2945633
  -0.0035494   -0.0142542   -0.0048022   -0.4870701    0.3733531   -0.7895379
  -0.0037275   -0.0150164   -0.0051005   -0.5386608    0.3004918   -0.7871145
   0.0001223   -0.0131597   -0.0042755    0.4642136    0.3531143   -0.8122906
   0.0007538   -0.0124381   -0.0035872    0.6067956    0.2708467   -0.7472892
   0.0003074   -0.0141242   -0.0044805    0.5889065    0.3588069   -0.7241870
  -0.0012147   -0.0140559   -0.0052179    0.2304654    0.4866545   -0.8426465
  -0.0016805   -0.0145861   -0.0056534   -0.0521123    0.5339175   -0.8439292
  -0.0003431   -0.0135257   -0.0046960    0.2814593    0.4443289   -0.8505013
  -0.0016774   -0.0140355   -0.0052662   -0.2137302    0.5308311   -0.8200840
  -0.0032591   -0.0151098   -0.0054599   -0.6032380    0.3299055   -0.7261311
  -0.0031485   -0.0155810   -0.0058493   -0.5656395    0.3815380   -0.7310818
  -0.0029306   -0.0156890   -0.0060564   -0.5088288    0.3874090   -0.7687701
  -0.0020799   -0.0147778   -0.0057613   -0.2985765    0.5377905   -0.7884373
  -0.0025746   -0.0162716   -0.0066032   -0.4998448    0.4220837   -0.7563072
  -0.0031066   -0.0173872   -0.0069245   -0.5878133    0.2745709   -0.7609773
  -0.0062843   -0.0133049   -0.0003214   -0.9723707    0.0798030    0.2193780
  -0.0064347   -0.0138653   -0.0009821   -0.9951944    0.0945793   -0.0253545
   0.0003123   -0.0067220   -0.0027775    0.4682837    0.1787194   -0.8653148
   0.0015260   -0.0056516   -0.0000569    0.9815696    0.0679073   -0.1786329
   0.0011566   -0.0067676   -0.0012815    0.9490780    0.1125101   -0.2942659
   0.0005545   -0.0067335   -0.0025913    0.6474157    0.2062883   -0.7336880
   0.0007496   -0.0073131   -0.0024294    0.8704455    0.1901314   -0.4540647
   0.0009132   -0.0062202    0.0035304    0.8680798    0.0781297    0.4902378
   0.0014156   -0.0062349    0.0026317    0.8803079    0.0329898    0.4732543
   0.0016672   -0.0062393    0.0018244    0.9877351   -0.0022931    0.1561223
   0.0007391   -0.0062135    0.0037503    0.8411344    0.0914311    0.5330415
  -0.0000700   -0.0075384    0.0048006    0.5498740    0.0630914    0.8328613
   0.0003705   -0.0079132    0.0043980    0.8094202    0.1011190    0.5784582
  -0.0000873   -0.0084669    0.0047920    0.4940649    0.0197002    0.8692018
   0.0001132   -0.0096148    0.0045793    0.6003241    0.0298554    0.7991994
   0.0002644   -0.0090507    0.0044518    0.7859211    0.0820123    0.6128638
   0.0014494   -0.0067913    0.0003166    0.9864085    0.0552259   -0.1547527
   0.0016692   -0.0062387    0.0014851    0.9976837    0.0146379   -0.0664302
  -0.0003680   -0.0078870    0.0049526    0.3838619    0.0189583    0.9231959
  -0.0006700   -0.0090139    0.0049640    0.1520744   -0.0666282    0.9861207
  -0.0004497   -0.0090226    0.0048973    0.3745447   -0.0226954    0.9269310
  -0.0014882   -0.0101186    0.0047314   -0.3201073   -0.1106710    0.9408949
  -0.0010928   -0.0101362    0.0048376   -0.0466663   -0.1169679    0.9920387
  -0.0059177   -0.0134664    0.0011215   -0.8954186    0.0290897    0.4442738
  -0.0053723   -0.0138356    0.0020989   -0.7805811   -0.0570513    0.6224455
  -0.0044147   -0.0145470    0.0031254   -0.6505702   -0.0564369    0.7573462
  -0.0041215   -0.0139909    0.0033325   -0.5442951   -0.0552498    0.8370725
  -0.0039509   -0.0122877    0.0033936   -0.5273247   -0.0481803    0.8482967
  -0.0039491   -0.0128577    0.0034105   -0.5283916   -0.0506502    0.8474886
  -0.0029749   -0.0134727    0.0039625   -0.4144791   -0.0669708    0.9075913
  -0.0038939   -0.0145724    0.0034741   -0.3896239   -0.0541454    0.9193810
  -0.0021851   -0.0117979    0.0043626   -0.3193593   -0.0977549    0.9425782
  -0.0029534   -0.0140447    0.0039529   -0.2751069   -0.0584081    0.9596378
   0.0003435   -0.0072937   -0.0028309    0.5995402    0.1953975   -0.7761259
   0.0008001   -0.0090258   -0.0026219    0.7998018    0.2812813   -0.5302810
   0.0007341   -0.0095905   -0.0029709    0.6849352    0.2781091   -0.6734383
   0.0007955   -0.0107324   -0.0031159    0.6642653    0.3914821   -0.6367836
   0.0008008   -0.0108106   -0.0031267    0.7062825    0.2745311   -0.6525318
   0.0008696   -0.0113058   -0.0032158    0.7441890    0.2928461   -0.6003532
  -0.0064062   -0.0165980   -0.0032533   -0.8333541    0.1376105   -0.5353357
  -0.0034963   -0.0150996   -0.0052847   -0.5911199    0.2578215   -0.7642679
  -0.0038359   -0.0165568   -0.0058526   -0.6735560    0.2791763   -0.6843851
  -0.0043675   -0.0172385   -0.0055869   -0.7100375    0.1521028   -0.6875402
  -0.0054753   -0.0184438   -0.0045401   -0.8069805   -0.2069232   -0.5531412
  -0.0058134   -0.0178619   -0.0040754   -0.8203562   -0.2122469   -0.5310056
  -0.0066282   -0.0172646   -0.0030351   -0.8156876   -0.2010600   -0.5424284
  -0.0046657   -0.0179018   -0.0055029   -0.7408989    0.0076782   -0.6715727
  -0.0069754   -0.0166838   -0.0024717   -0.8626914    0.0734732   -0.5003651
  -0.0065279   -0.0161294   -0.0028843   -0.8514788    0.1478541   -0.5031134
  -0.0067457   -0.0149911   -0.0012060   -0.9899091    0.1416777    0.0027352
  -0.0071193   -0.0165527   -0.0021330   -0.9405453    0.1255827   -0.3156002
  -0.0069246   -0.0155530   -0.0012149   -0.9823375    0.1847394   -0.0297386
  -0.0001998   -0.0139801   -0.0048279    0.4816687    0.3847805   -0.7873622
  -0.0000401   -0.0135994   -0.0045535    0.6236026    0.3365515   -0.7055869
   0.0006483   -0.0152804   -0.0044634    0.7853673    0.2990503   -0.5420029
   0.0010529   -0.0118846   -0.0030464    0.8516153    0.2055262   -0.4821933
   0.0001035   -0.0141140   -0.0046904    0.5429382    0.4276736   -0.7227125
   0.0002440   -0.0146895   -0.0048313    0.6710147    0.3885592   -0.6314753
  -0.0012868   -0.0145016   -0.0055525    0.0618509    0.5825087   -0.8104678
  -0.0000380   -0.0152449   -0.0053836    0.4617381    0.4616207   -0.7574327
  -0.0004504   -0.0155606   -0.0058319    0.4871049    0.4668015   -0.7381227
  -0.0002437   -0.0140984   -0.0049032    0.3177026    0.4181100   -0.8510283
   0.0000051   -0.0146788   -0.0050438    0.3386655    0.4565575   -0.8227156
  -0.0023155   -0.0162799   -0.0067404   -0.3104760    0.5090252   -0.8028063
  -0.0036707   -0.0167973   -0.0061508   -0.6874042    0.2551096   -0.6799960
  -0.0035447   -0.0173711   -0.0065099   -0.6666631    0.2341434   -0.7076278
  -0.0025010   -0.0169579   -0.0070538   -0.3654004    0.3435664   -0.8651270
  -0.0028605   -0.0173964   -0.0070843   -0.4583056    0.2469448   -0.8537999
  -0.0029265   -0.0179635   -0.0071880   -0.4566194    0.0968114   -0.8843790
  -0.0034790   -0.0185120   -0.0069622   -0.6554303    0.0767806   -0.7513427
  -0.0060676   -0.0136644    0.0008592   -0.9240149    0.1134005    0.3651532
  -0.0063611   -0.0138748    0.0000094   -0.9733189    0.1193655    0.1959646
   0.0012271   -0.0079127   -0.0010955    0.9623495    0.1358912   -0.2354080
   0.0010177   -0.0096079   -0.0021365    0.9537527    0.1948139   -0.2289177
   0.0009111   -0.0092278   -0.0023721    0.9191612    0.2387808   -0.3132513
   0.0007062   -0.0084943    0.0038146    0.8799561    0.0857602    0.4672499
   0.0012237   -0.0073684    0.0029150    0.9100689    0.0743450    0.4077345
   0.0013933   -0.0068036    0.0026055    0.8269257    0.0451189    0.5604982
   0.0015415   -0.0068086    0.0022723    0.9585867    0.0646903    0.2773565
   0.0013543   -0.0073729    0.0025856    0.8808817    0.0412665    0.4715342
   0.0016122   -0.0068081    0.0018005    0.9988404    0.0313759    0.0365169
   0.0005132   -0.0101991    0.0041102    0.8452060    0.0978248    0.5254115
  -0.0002006   -0.0107432    0.0046467    0.2736502   -0.0508976    0.9604817
  -0.0004402   -0.0100085    0.0047992    0.2670968   -0.0807122    0.9602837
   0.0004972   -0.0107684    0.0040958    0.7745856    0.1263752    0.6197148
   0.0000508   -0.0113220    0.0045101    0.5258532    0.0284435    0.8500996
   0.0006941   -0.0090638    0.0038071    0.8808699    0.1040355    0.4617845
   0.0014887   -0.0079400    0.0014381    0.9949095    0.0183088   -0.0990953
   0.0014009   -0.0079329    0.0008551    0.9910176    0.0400661   -0.1275888
   0.0012710   -0.0084889   -0.0005561    0.9833418    0.1027958   -0.1499065
  -0.0014777   -0.0118285    0.0045965   -0.0616037   -0.1096345    0.9920611
  -0.0062496   -0.0155984    0.0011273   -0.8212683    0.0108721    0.5704386
  -0.0052233   -0.0150798    0.0023950   -0.7385505   -0.0553674    0.6719209
  -0.0044561   -0.0151164    0.0030969   -0.5066290   -0.0523361    0.8605742
  -0.0039823   -0.0157082    0.0034226   -0.2861789   -0.0509204    0.9568222
  -0.0043060   -0.0162629    0.0032342   -0.5485206   -0.0699528    0.8332057
  -0.0033233   -0.0145981    0.0037929   -0.4129003   -0.0553688    0.9090917
  -0.0039808   -0.0156937    0.0034231   -0.2140761   -0.0439825    0.9758263
  -0.0034740   -0.0151611    0.0037137   -0.4496271   -0.0606899    0.8911522
  -0.0014888   -0.0123992    0.0045491   -0.1635423   -0.0659457    0.9843298
  -0.0021373   -0.0146509    0.0042855   -0.2560123   -0.0473192    0.9655147
  -0.0027535   -0.0151931    0.0040592   -0.3721984   -0.0524361    0.9266708
  -0.0030595   -0.0151802    0.0039122   -0.2315138   -0.0336872    0.9722482
  -0.0030180   -0.0148390    0.0039189   -0.1831034   -0.0314701    0.9825898
   0.0008792   -0.0095985   -0.0027244    0.8913919    0.2720804   -0.3624814
   0.0009213   -0.0101702   -0.0028043    0.8486602    0.2260415   -0.4782060
   0.0009601   -0.0107411   -0.0028457    0.7728716    0.4641904   -0.4326624
   0.0009113   -0.0107379   -0.0029326    0.6762263    0.5660225   -0.4715257
   0.0010754   -0.0109462   -0.0026353    0.9093381    0.2706093   -0.3160298
   0.0010345   -0.0113146   -0.0029818    0.8402834    0.2926918   -0.4563500
  -0.0037731   -0.0174827   -0.0063156   -0.7446861    0.1348548   -0.6536489
  -0.0042635   -0.0184841   -0.0061057   -0.7799788    0.0053390   -0.6257831
  -0.0061242   -0.0187977   -0.0032964   -0.8199226   -0.2863796   -0.4956951
  -0.0050036   -0.0190312   -0.0050245   -0.8398670   -0.1621541   -0.5180052
  -0.0058061   -0.0202447   -0.0032926   -0.8462471   -0.2781216   -0.4544384
  -0.0062822   -0.0189911   -0.0029748   -0.8004130   -0.3062680   -0.5153047
  -0.0071284   -0.0178203   -0.0021188   -0.8497027   -0.2884967   -0.4413333
  -0.0071716   -0.0172469   -0.0022095   -0.9020558   -0.1075106   -0.4180154
  -0.0068693   -0.0155609   -0.0005086   -0.9804424    0.1235875    0.1531629
  -0.0072620   -0.0166764   -0.0017869   -0.9766198    0.0758700   -0.2011405
  -0.0071957   -0.0166862   -0.0007492   -0.9771208    0.1222745    0.1740226
  -0.0072932   -0.0166787   -0.0013630   -0.9975547    0.0675208    0.0180445
   0.0000241   -0.0146793   -0.0050318    0.4917062    0.4367603   -0.7533030
   0.0013293   -0.0137169   -0.0027143    0.8967532    0.2372283   -0.3735724
   0.0016143   -0.0164676   -0.0034867    0.7092325    0.3922175   -0.5857941
   0.0017665   -0.0153401   -0.0024636    0.8632778    0.3851701   -0.3261831
   0.0011178   -0.0166946   -0.0042120    0.7730312    0.3144028   -0.5509752
   0.0004130   -0.0167174   -0.0054637    0.7392550    0.2760259   -0.6142571
   0.0003041   -0.0158299   -0.0053131    0.6809262    0.3619386   -0.6366631
   0.0011639   -0.0118905   -0.0027780    0.9406614    0.2205828   -0.2578747
   0.0014232   -0.0136155   -0.0024266    0.9174995    0.1935840   -0.3474476
  -0.0018145   -0.0157341   -0.0064600   -0.1372025    0.5798420   -0.8030932
  -0.0008897   -0.0157731   -0.0062542    0.2478589    0.5506158   -0.7971124
  -0.0000840   -0.0160387   -0.0057666    0.6091005    0.3644239   -0.7044088
  -0.0002371   -0.0162801   -0.0060323    0.5830998    0.3989342   -0.7077048
  -0.0007577   -0.0160883   -0.0063654    0.4793222    0.4212647   -0.7699262
  -0.0006051   -0.0158421   -0.0061002    0.6174242    0.3826577   -0.6872848
  -0.0020867   -0.0164563   -0.0069263   -0.2472971    0.4605178   -0.8525066
  -0.0018767   -0.0168668   -0.0071406   -0.0669456    0.3240077   -0.9436828
  -0.0022691   -0.0173004   -0.0072300   -0.1417503    0.2632387   -0.9542600
  -0.0022903   -0.0174184   -0.0072650   -0.1803200    0.2000285   -0.9630541
  -0.0026503   -0.0179742   -0.0072939   -0.2347672    0.0905930   -0.9678209
  -0.0026788   -0.0185424   -0.0073310   -0.2341099    0.0000334   -0.9722101
  -0.0029692   -0.0185309   -0.0072499   -0.4240291    0.0123722   -0.9055640
  -0.0035042   -0.0190795   -0.0069935   -0.5954060   -0.0245592   -0.8030495
  -0.0063625   -0.0144500    0.0006304   -0.9206643    0.0712919    0.3837899
   0.0012613   -0.0090589   -0.0005594    0.9465789    0.1236229   -0.2978351
   0.0012625   -0.0091159   -0.0005562    0.9659518    0.1521583   -0.2092485
   0.0012403   -0.0101923   -0.0013171    0.9660495    0.2119379   -0.1477523
   0.0012813   -0.0090789    0.0024619    0.9447830    0.0738598    0.3192644
   0.0013635   -0.0073725    0.0025665    0.9209835    0.0285557    0.3885536
   0.0014171   -0.0085129    0.0020929    0.9865401    0.0383980    0.1589471
   0.0014151   -0.0085084    0.0014916    0.9919537    0.0564766   -0.1133058
   0.0008282   -0.0107782    0.0034898    0.9251616    0.1287671    0.3570644
  -0.0003674   -0.0124457    0.0045250    0.2386703   -0.0474465    0.9699409
   0.0002951   -0.0113311    0.0043469    0.5939314    0.0519444    0.8028370
   0.0004931   -0.0112783    0.0041012    0.7897489    0.0957580    0.6059101
   0.0006868   -0.0113445    0.0038492    0.8687093    0.1385081    0.4755625
   0.0012786   -0.0094396    0.0000779    0.9899478    0.1202843   -0.0743981
   0.0012806   -0.0096342    0.0000584    0.9883863    0.1429952   -0.0514286
  -0.0051579   -0.0156518    0.0024701   -0.6360275   -0.0427075    0.7704836
  -0.0060050   -0.0161810    0.0015961   -0.7626587   -0.0156976    0.6466106
  -0.0069261   -0.0181143    0.0006365   -0.8304216   -0.0034402    0.5571250
  -0.0049637   -0.0156616    0.0026862   -0.6898241   -0.0618757    0.7213280
  -0.0047999   -0.0162398    0.0028679   -0.6480636   -0.0612532    0.7591190
  -0.0045228   -0.0159229    0.0030628   -0.2480962   -0.0436463    0.9677517
  -0.0045543   -0.0162519    0.0030515   -0.4223151   -0.0673653    0.9039424
  -0.0040712   -0.0168441    0.0033716   -0.4808483   -0.0949359    0.8716491
  -0.0039814   -0.0157088    0.0034229   -0.4154827   -0.0536209    0.9080192
  -0.0030197   -0.0157526    0.0039388   -0.3712153   -0.0478378    0.9273137
  -0.0009622   -0.0135613    0.0045555    0.0040475   -0.0266121    0.9996376
  -0.0013750   -0.0152541    0.0044604   -0.1549479   -0.0404544    0.9870940
  -0.0017237   -0.0158100    0.0043744   -0.2212920   -0.0560535    0.9735953
  -0.0030186   -0.0151814    0.0039265   -0.3703874   -0.0267474    0.9284922
   0.0013672   -0.0119076   -0.0014968    0.9710948    0.2073040   -0.1183213
  -0.0043370   -0.0190514   -0.0060852   -0.8400944   -0.0331869   -0.5414241
  -0.0039872   -0.0196332   -0.0066434   -0.7498946   -0.0515285   -0.6595476
  -0.0045485   -0.0196143   -0.0058506   -0.8560515   -0.1098744   -0.5050776
  -0.0066085   -0.0191648   -0.0023565   -0.8208543   -0.3676401   -0.4370802
  -0.0062769   -0.0203465   -0.0023357   -0.8458179   -0.3909664   -0.3629563
  -0.0041933   -0.0201959   -0.0063989   -0.8428767   -0.1322882   -0.5215925
  -0.0047130   -0.0207510   -0.0055175   -0.9119778   -0.1759530   -0.3705902
  -0.0055833   -0.0207281   -0.0034819   -0.8837142   -0.2681993   -0.3835602
  -0.0068965   -0.0183987   -0.0022902   -0.8179539   -0.3535238   -0.4538417
  -0.0073096   -0.0172449   -0.0018574   -0.9665953   -0.1473855   -0.2096926
  -0.0071814   -0.0184670   -0.0015996   -0.8968399   -0.3635655   -0.2519887
  -0.0072063   -0.0172594   -0.0001214   -0.9435872    0.0452285    0.3280206
  -0.0073866   -0.0172468   -0.0010208   -0.9949736    0.0020131    0.1001175
  -0.0073734   -0.0173111   -0.0013722   -0.9860067   -0.1306310   -0.1035678
   0.0016195   -0.0141966   -0.0019278    0.9431736    0.2735240   -0.1887012
   0.0019897   -0.0161373   -0.0026760    0.7271051    0.5550625   -0.4040096
   0.0021322   -0.0176478   -0.0035805    0.5303114    0.4795220   -0.6991627
   0.0014305   -0.0175963   -0.0041532    0.6506934    0.3933056   -0.6495451
   0.0017300   -0.0147738   -0.0017136    0.9294149    0.3633414   -0.0645826
   0.0021759   -0.0159345   -0.0014239    0.8714762    0.4904372    0.0007702
   0.0006697   -0.0175557   -0.0053643    0.7555736    0.2678352   -0.5978067
   0.0000574   -0.0169557   -0.0059403    0.6693657    0.2636769   -0.6945675
   0.0003073   -0.0181080   -0.0058662    0.6594704    0.1272720   -0.7408783
   0.0000707   -0.0175264   -0.0060020    0.6678182    0.1809553   -0.7219931
   0.0015021   -0.0130594   -0.0006317    0.9687142    0.2462798   -0.0306433
  -0.0017142   -0.0163045   -0.0068657    0.0975602    0.4948172   -0.8635033
  -0.0004375   -0.0163627   -0.0062525    0.5484355    0.3780272   -0.7458645
  -0.0009182   -0.0164837   -0.0066408    0.3716807    0.4142840   -0.8307961
  -0.0017254   -0.0174422   -0.0072423    0.1389190    0.1566977   -0.9778279
  -0.0015040   -0.0168823   -0.0070752    0.2640649    0.3155798   -0.9114160
  -0.0022111   -0.0179916   -0.0073302    0.0846800   -0.0032092   -0.9964030
  -0.0023525   -0.0185554   -0.0073483    0.0866136    0.0130746   -0.9961562
  -0.0031619   -0.0190943   -0.0071827   -0.3704422   -0.0452811   -0.9277511
  -0.0026818   -0.0196838   -0.0073081    0.0252091   -0.0853593   -0.9960313
  -0.0035326   -0.0207907   -0.0070015   -0.4988299   -0.1507534   -0.8534882
  -0.0032736   -0.0202288   -0.0071531   -0.2887264   -0.1161550   -0.9503395
   0.0011000   -0.0102138    0.0027645    0.9701963    0.0481202    0.2374944
   0.0012690   -0.0102170    0.0020343    0.9951939    0.0448449    0.0870520
   0.0013522   -0.0092682    0.0013981    0.9867354    0.0661795   -0.1482347
   0.0013599   -0.0090730    0.0010742    0.9940219    0.0845157   -0.0691192
   0.0013167   -0.0096436    0.0013443    0.9837929    0.0756785   -0.1625553
   0.0011681   -0.0107853    0.0023029    0.9805856    0.1112833    0.1614558
   0.0009668   -0.0111393    0.0031474    0.9390356    0.1721333    0.2976276
  -0.0004379   -0.0135820    0.0044624    0.3018599    0.0044646    0.9533418
   0.0001398   -0.0158860    0.0041822    0.5077303    0.0482243    0.8601653
   0.0004280   -0.0141869    0.0040559    0.7366357    0.0814666    0.6713650
   0.0008393   -0.0136306    0.0035790    0.8927318    0.1189281    0.4346103
   0.0012917   -0.0102127    0.0013467    0.9959848    0.0881281   -0.0157404
   0.0014013   -0.0120116   -0.0002389    0.9847956    0.1696529    0.0373565
  -0.0054405   -0.0162100    0.0022549   -0.7127335   -0.0424748    0.7001477
  -0.0052740   -0.0167887    0.0024346   -0.5681898   -0.0715229    0.8197834
  -0.0048504   -0.0168090    0.0028451   -0.6280114   -0.0813259    0.7739430
  -0.0052123   -0.0162927    0.0024435   -0.4481722   -0.0326443    0.8933510
  -0.0063036   -0.0173072    0.0013385   -0.7384959   -0.0569967    0.6718446
  -0.0067985   -0.0184248    0.0008651   -0.7687046   -0.1067422    0.6306341
  -0.0069651   -0.0184157    0.0006320   -0.8670877   -0.1061754    0.4867090
  -0.0034664   -0.0163022    0.0037217   -0.4410722   -0.0674176    0.8949359
  -0.0041673   -0.0191212    0.0031756   -0.4479557   -0.1070063    0.8876291
  -0.0046195   -0.0178798    0.0029389   -0.5520449   -0.1180767    0.8254116
  -0.0026106   -0.0174809    0.0040933   -0.3680371   -0.0653130    0.9275144
  -0.0017874   -0.0163774    0.0043526   -0.2097483   -0.0258829    0.9774128
  -0.0009289   -0.0169829    0.0044476    0.0637946   -0.0034222    0.9979572
  -0.0039969   -0.0207732   -0.0066332   -0.7173557   -0.1805799   -0.6728980
  -0.0068132   -0.0195486   -0.0015166   -0.8606664   -0.4830580   -0.1609606
  -0.0063227   -0.0207076   -0.0018107   -0.8693291   -0.4377239   -0.2294879
  -0.0056270   -0.0212982   -0.0031648   -0.9123792   -0.2466751   -0.3266734
  -0.0043415   -0.0217544   -0.0060273   -0.7750174   -0.2561311   -0.5777066
  -0.0045150   -0.0218983   -0.0057349   -0.8038991   -0.2651155   -0.5324096
  -0.0051733   -0.0213084   -0.0045305   -0.9104065   -0.1710633   -0.3766926
  -0.0046947   -0.0213220   -0.0054304   -0.9235320   -0.1675260   -0.3449982
  -0.0046787   -0.0218932   -0.0054288   -0.8831098   -0.2004641   -0.4241830
  -0.0073942   -0.0178166   -0.0010694   -0.9787730   -0.1948312   -0.0635936
  -0.0073536   -0.0183890   -0.0008104   -0.9379912   -0.3466589   -0.0003535
  -0.0070468   -0.0192464   -0.0007446   -0.8695159   -0.4917946   -0.0456090
  -0.0073700   -0.0178222   -0.0004109   -0.9783605   -0.1060080    0.1776883
  -0.0072839   -0.0178263   -0.0001265   -0.9246422   -0.0692475    0.3744884
   0.0026242   -0.0168797   -0.0021273    0.7765937    0.6251716   -0.0778635
   0.0025795   -0.0171353   -0.0027979    0.5846292    0.6147326   -0.5294454
   0.0030937   -0.0176756   -0.0024922    0.7062508    0.6706529   -0.2267918
   0.0032615   -0.0184673   -0.0033450    0.5111834    0.5090126   -0.6925299
   0.0021776   -0.0187674   -0.0040697    0.4673746    0.3142769   -0.8263117
   0.0015745   -0.0181707   -0.0042959    0.6417604    0.3342919   -0.6902119
   0.0018230   -0.0153558   -0.0004766    0.9356217    0.3381287    0.1013949
   0.0026440   -0.0170983   -0.0008923    0.8305471    0.5048240    0.2352537
   0.0017631   -0.0159300    0.0005184    0.9142267    0.3506792    0.2030116
   0.0017639   -0.0154185   -0.0001088    0.9391231    0.3042770    0.1595722
   0.0014007   -0.0187314   -0.0045779    0.6687655    0.1623819   -0.7255238
   0.0006858   -0.0186968   -0.0054814    0.7154995    0.0857791   -0.6933271
  -0.0008186   -0.0169143   -0.0067431    0.5291766    0.2606495   -0.8074862
  -0.0011399   -0.0180397   -0.0069965    0.5603531   -0.0227109   -0.8279424
  -0.0010593   -0.0174728   -0.0069837    0.4933488    0.1232785   -0.8610513
   0.0002435   -0.0186743   -0.0058792    0.4901303   -0.0167235   -0.8714887
   0.0013737   -0.0136357    0.0009745    0.9700112    0.2070164    0.1273674
  -0.0014038   -0.0180264   -0.0071589    0.3557855   -0.0411645   -0.9336606
  -0.0012549   -0.0186048   -0.0069684    0.4412925   -0.0800614   -0.8937847
  -0.0019647   -0.0190321   -0.0072437    0.3248938   -0.0653304   -0.9434914
  -0.0022178   -0.0208453   -0.0070526    0.2915934   -0.1131474   -0.9498268
  -0.0026129   -0.0208281   -0.0071578    0.0435109   -0.1719152   -0.9841504
  -0.0027071   -0.0202523   -0.0072350   -0.0894629   -0.1518970   -0.9843392
  -0.0018232   -0.0202916   -0.0069620    0.4409308   -0.0820660   -0.8937814
  -0.0032137   -0.0213029   -0.0070199   -0.1791535   -0.2680297   -0.9466066
  -0.0034744   -0.0215371   -0.0068806   -0.3769876   -0.2812763   -0.8824761
  -0.0037470   -0.0213524   -0.0067724   -0.5528639   -0.2740238   -0.7869259
   0.0013216   -0.0096443    0.0013812    0.9944891    0.0720600   -0.0761500
   0.0010864   -0.0113539    0.0027683    0.9697220    0.1414227    0.1990951
   0.0011657   -0.0113548    0.0023125    0.9934461    0.1128262    0.0183059
  -0.0001197   -0.0158767    0.0043179    0.3720643    0.0380573    0.9274264
   0.0003858   -0.0158952    0.0040225    0.6905013    0.0581085    0.7209933
   0.0001300   -0.0164558    0.0041783    0.8661887    0.0313107    0.4987352
   0.0010538   -0.0179325    0.0034676    0.7359426    0.1341279    0.6636250
   0.0009683   -0.0153457    0.0034260    0.8422708    0.1675210    0.5123638
   0.0010490   -0.0142071    0.0031454    0.9299187    0.1759965    0.3229187
   0.0010917   -0.0136361    0.0028334    0.9673963    0.1780765    0.1800921
   0.0011989   -0.0119231    0.0019184    0.9838123    0.1278934    0.1255258
  -0.0052694   -0.0184979    0.0023953   -0.6521687   -0.0916796    0.7525097
  -0.0051724   -0.0167935    0.0025272   -0.6700681   -0.0644683    0.7394948
  -0.0060694   -0.0190303    0.0017062   -0.6982445   -0.0549272    0.7137490
  -0.0064381   -0.0195828    0.0012075   -0.8397037   -0.2207338    0.4961596
  -0.0068963   -0.0189879    0.0005359   -0.8454203   -0.3415651    0.4106067
  -0.0072945   -0.0183971   -0.0001741   -0.9322359   -0.2304552    0.2789741
  -0.0070844   -0.0184719    0.0003637   -0.8869579   -0.2826487    0.3652607
  -0.0046673   -0.0190965    0.0028549   -0.5600008   -0.0855930    0.8240588
  -0.0041397   -0.0202609    0.0030935   -0.4378853   -0.1549526    0.8855767
  -0.0038922   -0.0202735    0.0032757   -0.5626760   -0.0944261    0.8212669
  -0.0041995   -0.0196895    0.0031319   -0.4110043   -0.1238646    0.9031794
  -0.0027201   -0.0191871    0.0040006   -0.4840744   -0.0392762    0.8741449
  -0.0015750   -0.0180972    0.0044055   -0.1299464   -0.0015051    0.9915199
  -0.0022204   -0.0186390    0.0042349   -0.3020696    0.0912154    0.9489119
  -0.0001320   -0.0164459    0.0043097    0.5308876    0.0233481    0.8471206
  -0.0004242   -0.0181448    0.0044289    0.1687940    0.1392115    0.9757708
  -0.0001453   -0.0169763    0.0042995    0.3389939    0.0546358    0.9392008
  -0.0038612   -0.0224916   -0.0063503   -0.6021835   -0.3496477   -0.7177196
  -0.0069204   -0.0195333   -0.0005126   -0.8774680   -0.4766565   -0.0533715
  -0.0064318   -0.0207056   -0.0014077   -0.9302798   -0.3437698   -0.1280698
  -0.0064657   -0.0212799   -0.0006205   -0.9888813   -0.1377750   -0.0559633
  -0.0052708   -0.0224466   -0.0040795   -0.8928565   -0.2453292   -0.3776518
  -0.0063663   -0.0218507   -0.0012630   -0.9434429   -0.0928428   -0.3182700
  -0.0057652   -0.0218664   -0.0025834   -0.9252786   -0.1627220   -0.3426093
  -0.0055492   -0.0218698   -0.0033939   -0.9428504   -0.1576947   -0.2935398
  -0.0040089   -0.0229259   -0.0060052   -0.6295721   -0.4398350   -0.6404562
  -0.0046106   -0.0228118   -0.0052854   -0.7632117   -0.3535843   -0.5408198
  -0.0042663   -0.0237388   -0.0052482   -0.6958062   -0.4553118   -0.5554682
  -0.0048506   -0.0218873   -0.0051379   -0.8778500   -0.1585354   -0.4519357
  -0.0048425   -0.0224627   -0.0051089   -0.7989896   -0.2992353   -0.5216070
  -0.0071309   -0.0189723   -0.0003289   -0.8815567   -0.4388768    0.1739108
   0.0029849   -0.0174651   -0.0020688    0.7601741    0.6496964    0.0054711
   0.0034065   -0.0183751   -0.0030891    0.6716236    0.5973761   -0.4382506
   0.0034677   -0.0182612   -0.0027796    0.7389348    0.6327685   -0.2314721
   0.0032173   -0.0178080   -0.0022446    0.7313885    0.6816076   -0.0219538
   0.0035554   -0.0188311   -0.0032239    0.7266471    0.3901333   -0.5654909
   0.0033625   -0.0188216   -0.0034407    0.5556663    0.2899025   -0.7792249
   0.0015996   -0.0193113   -0.0044859    0.5310950    0.1284422   -0.8375206
   0.0031036   -0.0193797   -0.0036700    0.4900945    0.0851513   -0.8675002
   0.0018990   -0.0170783    0.0007692    0.9034368    0.3076593    0.2985760
   0.0025566   -0.0173577   -0.0004442    0.8409125    0.3715784    0.3934409
   0.0030606   -0.0176825   -0.0014614    0.7834227    0.6022852    0.1533018
   0.0028541   -0.0182506   -0.0004906    0.8277901    0.2742840    0.4894198
   0.0031944   -0.0182599   -0.0010805    0.8275485    0.3814616    0.4118866
   0.0012808   -0.0147798    0.0020030    0.9530522    0.2528267    0.1666437
   0.0014176   -0.0142084    0.0010383    0.9622828    0.2255519    0.1521120
   0.0008121   -0.0193827   -0.0052865    0.7145780    0.0750467   -0.6955187
   0.0007413   -0.0209796   -0.0053740    0.5685688    0.0992293   -0.8166291
   0.0005586   -0.0198312   -0.0055089    0.6148357    0.0275893   -0.7881725
   0.0001475   -0.0192513   -0.0058740    0.3115483   -0.0317047   -0.9497012
  -0.0001181   -0.0192294   -0.0060452    0.5318227   -0.1114402   -0.8394913
   0.0000420   -0.0198068   -0.0058606    0.3529597   -0.0338596   -0.9350257
   0.0011313   -0.0121923    0.0022715    0.9912371    0.1289215    0.0287802
