NORM_ASCII
2408 4812
   0.0038505    0.0009839    0.0024319    0.5888929    0.5605984    0.5821809
   0.0032371    0.0016447    0.0027268    0.6019196    0.3495283    0.7179991
   0.0014977    0.0040645    0.0033935    0.3070912    0.1116795    0.9451046
   0.0018572    0.0040897    0.0033122    0.2099130   -0.0921344    0.9733693
   0.0022858    0.0038012    0.0030620    0.5560848   -0.2728278    0.7850699
   0.0021041    0.0041049    0.0032525    0.4028714   -0.1853941    0.8962833
   0.0033599    0.0022676    0.0024961    0.5597447    0.1423378    0.8163491
   0.0030504    0.0029413    0.0026381    0.4601559    0.0883824    0.8834281
   0.0027394    0.0036244    0.0027747    0.3147899   -0.1260065    0.9407602
   0.0035461    0.0033164    0.0024440    0.4633363   -0.0792056    0.8826358
   0.0026010    0.0038720    0.0028982    0.4031449   -0.3597868    0.8414438
  -0.0036309    0.0014556    0.0054010   -0.4152750    0.0390587    0.9088570
  -0.0035458    0.0020193    0.0053510   -0.3034557    0.1631739    0.9387699
  -0.0037528    0.0013738    0.0053368   -0.4939326    0.0424602    0.8684629
  -0.0036622    0.0024508    0.0051981   -0.5024498    0.3082603    0.8077870
  -0.0034184    0.0025376    0.0052300   -0.2061792    0.4005502    0.8927764
  -0.0067435   -0.0076282    0.0074096   -0.7301863   -0.2057142    0.6515440
  -0.0070264   -0.0074569    0.0069823   -0.8581975   -0.1838094    0.4792819
  -0.0071856   -0.0066761    0.0065502   -0.9421680   -0.0580098    0.3300822
  -0.0073154   -0.0075460    0.0062287   -0.9518928   -0.1523475    0.2658767
  -0.0072795   -0.0069277    0.0062632   -0.9664370   -0.0926521    0.2396144
  -0.0065973   -0.0081590    0.0074270   -0.6722232   -0.3342619    0.6605944
  -0.0063553   -0.0082524    0.0076262   -0.5819554   -0.3172303    0.7487943
  -0.0036726   -0.0087347    0.0079141    0.2710899   -0.7622280    0.5878084
  -0.0038900   -0.0088401    0.0078260    0.3114308   -0.8136495    0.4909025
  -0.0048946   -0.0087404    0.0081302    0.0165467   -0.4770604    0.8787147
  -0.0049822   -0.0090506    0.0078918    0.1645707   -0.6909992    0.7038726
  -0.0046496   -0.0090703    0.0077825    0.3210332   -0.7898696    0.5225359
  -0.0043259   -0.0090495    0.0076474    0.3877951   -0.8584993    0.3355501
  -0.0061873   -0.0086650    0.0075993   -0.5258318   -0.4912661    0.6943764
  -0.0056761   -0.0087342    0.0078762   -0.4177671   -0.4161255    0.8076572
  -0.0055580   -0.0089957    0.0078291   -0.2816499   -0.5680626    0.7732905
  -0.0053310   -0.0089468    0.0079498   -0.1202846   -0.5470158    0.8284355
  -0.0051110   -0.0088545    0.0080462   -0.0967170   -0.4631080    0.8810090
  -0.0051235   -0.0027864    0.0044688   -0.6934074    0.2435887   -0.6781230
  -0.0053699   -0.0035090    0.0043273   -0.6940339    0.4079864   -0.5931813
  -0.0055673   -0.0037204    0.0043024   -0.7280230    0.5057260   -0.4628431
  -0.0055453   -0.0041266    0.0038492   -0.7635832    0.4372243   -0.4751585
  -0.0064518   -0.0053219    0.0045053   -0.9268757   -0.0030725   -0.3753557
  -0.0062440   -0.0054554    0.0040398   -0.9084478   -0.0098996   -0.4178810
  -0.0059458   -0.0051091    0.0037327   -0.8795016    0.1681918   -0.4451836
  -0.0057136   -0.0044053    0.0038122   -0.8755304    0.0491092   -0.4806609
  -0.0058066   -0.0047763    0.0036620   -0.8503883    0.2405936   -0.4679256
  -0.0056269   -0.0044714    0.0036306   -0.8656426    0.2249396   -0.4472864
  -0.0072645   -0.0064182    0.0061667   -0.9910571    0.0681716    0.1147106
  -0.0072820   -0.0069225    0.0054041   -0.9414153    0.1423653   -0.3057277
  -0.0073111   -0.0066337    0.0059096   -0.9985453    0.0431673   -0.0323099
  -0.0070730   -0.0070623    0.0049424   -0.8454002    0.0327464   -0.5331287
  -0.0065272   -0.0058358    0.0044674   -0.8817331    0.0332546   -0.4705751
  -0.0040963    0.0009948    0.0049683   -0.8858686   -0.0457609    0.4616739
  -0.0040670    0.0015291    0.0048990   -0.9163328    0.0095392    0.4003038
  -0.0039322    0.0017356    0.0051163   -0.7382222    0.0499542    0.6727054
  -0.0048461   -0.0028582    0.0040187   -0.8949841    0.2116868   -0.3926732
  -0.0051797   -0.0032588    0.0043287   -0.7671163    0.2640357   -0.5846518
  -0.0044857   -0.0032612    0.0031176   -0.8058686    0.1402091   -0.5752541
  -0.0047225   -0.0033613    0.0033456   -0.7827247    0.3328157   -0.5259047
  -0.0042854   -0.0030807    0.0028279   -0.9177179   -0.1696052   -0.3592047
  -0.0044514   -0.0023701    0.0030432   -0.9632492   -0.1836095   -0.1960573
  -0.0044487   -0.0017986    0.0030281   -0.9683306   -0.1936023   -0.1576512
  -0.0044753   -0.0013497    0.0028699   -0.9753449   -0.1984807   -0.0964763
  -0.0044440   -0.0011004    0.0024401   -0.9774652   -0.1922876   -0.0871047
  -0.0044437    0.0001155    0.0025058   -0.9810932   -0.1290511   -0.1442289
  -0.0044317   -0.0002537    0.0020374   -0.9878747   -0.1413390   -0.0642409
  -0.0043845    0.0007085    0.0025004   -0.9968747   -0.0318116    0.0723111
  -0.0044094    0.0005643    0.0023267   -0.9927844   -0.0974508   -0.0698744
  -0.0038500    0.0032386    0.0040507   -0.9481553    0.1788970    0.2626734
  -0.0038684    0.0026250    0.0047504   -0.9046440    0.2316597    0.3577053
  -0.0039926    0.0021045    0.0048672   -0.9232395    0.0657386    0.3785594
  -0.0039664    0.0029860    0.0037664   -0.9802273    0.0813743    0.1803680
  -0.0042132    0.0024525    0.0025398   -0.9934109   -0.0229007    0.1122958
   0.0031761   -0.0064694    0.0071856    0.6146914   -0.6185640    0.4894212
   0.0021291   -0.0072703    0.0069429    0.4855829   -0.6791922    0.5503700
   0.0031768   -0.0074049    0.0056899    0.6427427   -0.6388534    0.4227863
   0.0027250   -0.0073935    0.0061656    0.5916220   -0.6491540    0.4781029
  -0.0001690   -0.0078607    0.0067521    0.1209258   -0.8807364    0.4579088
   0.0008269   -0.0079151    0.0064205    0.1986543   -0.8498962    0.4880706
   0.0018220   -0.0076759    0.0066098    0.4059334   -0.7470626    0.5264177
   0.0012791   -0.0080851    0.0061289    0.2104853   -0.8491640    0.4843723
  -0.0003247   -0.0072274    0.0073424    0.8489341   -0.4718333    0.2380845
  -0.0002881   -0.0077160    0.0069374   -0.0614236   -0.6904772    0.7207415
  -0.0003247   -0.0072274    0.0073424    0.9310495   -0.3233324    0.1691242
  -0.0004248   -0.0074729    0.0070651    0.9687384   -0.1764709    0.1743674
  -0.0004248   -0.0074729    0.0070651    0.5714994   -0.4810772    0.6647956
   0.0041873   -0.0061824    0.0064113    0.7125929   -0.4646579    0.5256467
   0.0038898   -0.0063519    0.0066329    0.7071016   -0.5555426    0.4374697
   0.0044900   -0.0060492    0.0062089    0.7824017   -0.3568386    0.5104056
   0.0035832   -0.0064679    0.0068239    0.5918719   -0.6832630    0.4275971
   0.0047094   -0.0051797    0.0062632    0.8830216    0.0078288    0.4692670
   0.0046631   -0.0057066    0.0061557    0.8750657   -0.1372994    0.4641216
   0.0054279   -0.0037634    0.0050502    0.8457287    0.2147901    0.4884753
   0.0053116   -0.0030422    0.0049616    0.7980118    0.3935601    0.4563855
   0.0042721   -0.0012054    0.0046720    0.4363834    0.6636691    0.6075466
   0.0048313   -0.0016599    0.0046553    0.6147821    0.5604812    0.5548908
  -0.0009235   -0.0073664    0.0073576    0.8038762   -0.4747378    0.3583393
  -0.0008859   -0.0075356    0.0071322    0.7148207   -0.3537921    0.6032102
  -0.0008766   -0.0073059    0.0073584    0.7128594   -0.6219469    0.3240579
  -0.0005629   -0.0072231    0.0071883    0.1749076   -0.8201714    0.5447257
  -0.0033439   -0.0087374    0.0077941    0.3901874   -0.8059474    0.4451995
  -0.0032445   -0.0087788    0.0075466    0.4524133   -0.8778149    0.1573633
  -0.0031038   -0.0087283    0.0070671    0.4663224   -0.8845932   -0.0061839
  -0.0021805   -0.0083778    0.0064826    0.4528522   -0.8896716    0.0583894
  -0.0010506   -0.0079302    0.0068843    0.5202441   -0.7695797    0.3702610
  -0.0012665   -0.0080399    0.0067998    0.4546813   -0.8693881    0.1934665
  -0.0008445   -0.0077639    0.0069364    0.4799877   -0.6007683    0.6392881
  -0.0006712   -0.0076089    0.0069727    0.4284932   -0.3682072    0.8251164
  -0.0033930    0.0040053    0.0043055   -0.7088641    0.4386880    0.5523264
  -0.0033967    0.0040800    0.0042335   -0.7040194    0.4117365    0.5786447
  -0.0035689    0.0036108    0.0044309   -0.8026516    0.2959267    0.5178589
  -0.0034222    0.0044098    0.0039245   -0.7028478    0.3232176    0.6336682
  -0.0032994    0.0049322    0.0038105   -0.5560091    0.2488248    0.7930575
  -0.0034954    0.0047926    0.0036969   -0.7081226    0.1542805    0.6890282
  -0.0036993    0.0027941    0.0049097   -0.6636997    0.3968369    0.6340529
  -0.0037112    0.0031100    0.0045782   -0.8120847    0.3179223    0.4893301
  -0.0033899    0.0053345    0.0036130   -0.6217228    0.1502044    0.7686998
  -0.0030336    0.0055643    0.0037886   -0.4565640    0.1536216    0.8763274
  -0.0025955    0.0060673    0.0038265   -0.3178467    0.1824772    0.9304169
  -0.0024071    0.0063297    0.0038213    0.7827602    0.1247587    0.6096898
  -0.0021727    0.0064263    0.0038685    0.0166861    0.2528866    0.9673520
  -0.0010089    0.0061755    0.0041258   -0.1038665    0.2305565    0.9674996
  -0.0024071    0.0063297    0.0038213    0.6016581    0.1572238    0.7831272
  -0.0004486    0.0062015    0.0041393    0.0160795    0.2044615    0.9787425
   0.0009785    0.0063769    0.0039732    0.1739762    0.0314310    0.9842481
   0.0003103    0.0065820    0.0040098    0.0747955    0.2544453    0.9641905
   0.0013100    0.0055862    0.0039036    0.1478692   -0.1267157    0.9808557
   0.0017278    0.0048265    0.0035393    0.2679458   -0.2982488    0.9161074
   0.0014789    0.0041121    0.0033913    0.3803864    0.0799189    0.9213681
   0.0016619    0.0044031    0.0033692    0.2404399   -0.2182312    0.9458138
   0.0016522    0.0055136    0.0038234    0.3097998   -0.1371259    0.9408616
   0.0044544    0.0006273    0.0019946    0.6007061    0.7597121    0.2489773
   0.0049961   -0.0002123    0.0030739    0.4782850    0.7928502    0.3776666
   0.0044049    0.0007166    0.0019203    0.7146680    0.5923484    0.3719852
   0.0037948    0.0013739    0.0022088    0.6949916    0.3817614    0.6092988
   0.0041909    0.0012107    0.0018778    0.7115934    0.4381650    0.5492234
   0.0047651   -0.0006215    0.0037848    0.3718434    0.7043888    0.6046229
   0.0036249    0.0014718    0.0023853    0.6967416    0.3474108    0.6275802
   0.0035002    0.0020103    0.0023783    0.6933905    0.0922476    0.7146328
   0.0020756    0.0047237    0.0034796    0.2469908   -0.2793525    0.9278781
   0.0024777    0.0040416    0.0030695    0.4344970   -0.3278932    0.8388673
   0.0028375    0.0040077    0.0028970    0.2782562   -0.2950964    0.9140523
   0.0039087    0.0024706    0.0020875    0.7105877   -0.0164149    0.7034171
   0.0039555    0.0025955    0.0020572    0.6703857   -0.1036649    0.7347358
   0.0038723    0.0033290    0.0023153    0.5159049   -0.1223639    0.8478615
   0.0029979    0.0042825    0.0029548    0.4153272   -0.2581318    0.8722794
  -0.0037624    0.0019029    0.0052734   -0.6594635    0.0667671    0.7487657
  -0.0038559    0.0023091    0.0050812   -0.7509787    0.1665977    0.6389649
  -0.0068776   -0.0078920    0.0071197   -0.8005457   -0.3102161    0.5127305
  -0.0072162   -0.0079564    0.0064126   -0.8764247   -0.3091296    0.3692135
  -0.0073281   -0.0076768    0.0060675   -0.9528201   -0.2918881    0.0832775
  -0.0073510   -0.0072677    0.0058569   -0.9886725   -0.1473200    0.0286964
  -0.0064459   -0.0085465    0.0073781   -0.6302264   -0.5177832    0.5785458
  -0.0066992   -0.0084222    0.0071282   -0.7136554   -0.4816213    0.5086619
  -0.0035643   -0.0088266    0.0076960    0.3312085   -0.8884688    0.3176855
  -0.0036912   -0.0089254    0.0073318    0.4047201   -0.9079043    0.1091395
  -0.0050883   -0.0092615    0.0075940    0.2014260   -0.9200885    0.3359535
  -0.0052017   -0.0091435    0.0077963    0.0298720   -0.7530307    0.6573070
  -0.0047662   -0.0092288    0.0074527    0.3691417   -0.9064359    0.2052030
  -0.0043256   -0.0091567    0.0069154    0.4420572   -0.8948994    0.0611589
  -0.0063004   -0.0088375    0.0072790   -0.5383340   -0.7400327    0.4031726
  -0.0060427   -0.0089474    0.0074959   -0.4558872   -0.6489465    0.6091267
  -0.0057996   -0.0089775    0.0076657   -0.4302624   -0.6143653    0.6613846
  -0.0058214   -0.0089306    0.0076755   -0.4835486   -0.4854922    0.7283392
  -0.0054293   -0.0091993    0.0076771   -0.1229083   -0.8574999    0.4995873
  -0.0051688   -0.0034576    0.0040997   -0.8526358    0.3572215   -0.3813200
  -0.0052625   -0.0035972    0.0041065   -0.7715817    0.4505924   -0.4490302
  -0.0052587   -0.0039069    0.0035953   -0.8451602    0.3877385   -0.3679172
  -0.0063090   -0.0054176    0.0041916   -0.9093544   -0.1173534   -0.3991275
  -0.0059374   -0.0056319    0.0033265   -0.8919672    0.0946335   -0.4420849
  -0.0064117   -0.0060176    0.0042019   -0.8612153   -0.0441053   -0.5063229
  -0.0053449   -0.0042236    0.0033609   -0.8289461    0.3278262   -0.4531869
  -0.0073164   -0.0070182    0.0054280   -0.9784811   -0.1046543   -0.1778264
  -0.0072583   -0.0071759    0.0052101   -0.9221205   -0.1289053   -0.3647975
  -0.0071536   -0.0073100    0.0050092   -0.8268173   -0.2708180   -0.4929815
  -0.0070023   -0.0074162    0.0048264   -0.7150162   -0.3044990   -0.6293109
  -0.0069490   -0.0072328    0.0047724   -0.7647560   -0.0655469   -0.6409773
  -0.0045002   -0.0036201    0.0029493   -0.6433207    0.3884436   -0.6597349
  -0.0043675   -0.0034048    0.0029306   -0.8123578    0.0762511   -0.5781528
  -0.0052009   -0.0042374    0.0031284   -0.7830345    0.3351315   -0.5239692
  -0.0046677   -0.0035536    0.0031417   -0.6645311    0.4652978   -0.5847191
  -0.0043302   -0.0026842    0.0026089   -0.9372155   -0.3086545   -0.1623559
  -0.0041905   -0.0032196    0.0026235   -0.9025815   -0.2615664   -0.3419498
  -0.0043128   -0.0023050    0.0023480   -0.9616051   -0.2305036   -0.1489422
  -0.0043750   -0.0008506    0.0017017   -0.9753902   -0.2076056   -0.0742561
  -0.0044137    0.0001813    0.0018454   -0.9904133   -0.1283119   -0.0511626
  -0.0042968   -0.0011287    0.0008923   -0.9802524   -0.1870171   -0.0642632
  -0.0043325    0.0019117    0.0010678   -0.9932574   -0.1056899    0.0476386
  -0.0038435    0.0035059    0.0036529   -0.9595437    0.1614719    0.2306573
  -0.0035779    0.0039229    0.0040941   -0.8753570    0.2775136    0.3958993
  -0.0040711    0.0033481    0.0027939   -0.9673744    0.0062407    0.2532742
  -0.0042380    0.0035520    0.0013350   -0.9860596   -0.0706234    0.1506609
   0.0035907   -0.0069799    0.0056789    0.6818729   -0.6453757    0.3442957
   0.0023502   -0.0077645    0.0059966    0.5651237   -0.6939522    0.4461677
   0.0035777   -0.0073043    0.0052357    0.7209514   -0.6084493    0.3316903
   0.0036724   -0.0070323    0.0054967    0.6722927   -0.5915586    0.4450630
   0.0027648   -0.0077401    0.0055869    0.6184494   -0.7231664    0.3074909
   0.0034083   -0.0074891    0.0050955    0.6839142   -0.6956896    0.2197211
  -0.0005122   -0.0077808    0.0068260    0.1779978   -0.7202129    0.6705297
   0.0001371   -0.0083218    0.0055133   -0.0077866   -0.9687499    0.2479172
   0.0006904   -0.0085453    0.0049803    0.0690486   -0.9616706    0.2653713
  -0.0006494   -0.0081202    0.0059078    0.1576146   -0.9565297    0.2453743
   0.0003778   -0.0081739    0.0059272    0.1345766   -0.9030305    0.4079524
   0.0018230   -0.0082598    0.0055663    0.4045363   -0.8278725    0.3885583
   0.0010968   -0.0084410    0.0053635    0.1719702   -0.9303995    0.3237022
  -0.0004248   -0.0074729    0.0070651    0.6828252   -0.4097027    0.6048913
  -0.0006249   -0.0076070    0.0069596    0.1967196   -0.4849124    0.8521510
  -0.0006422   -0.0075783    0.0069768    0.4058982   -0.4164724    0.8135093
   0.0041958   -0.0065177    0.0059151    0.6116770   -0.6707634    0.4194374
   0.0042948   -0.0062684    0.0061900    0.6935342   -0.5709576    0.4393378
   0.0039148   -0.0066259    0.0060212    0.6670101   -0.6924747    0.2749113
   0.0039836   -0.0066542    0.0058445    0.5555434   -0.7576630    0.3425175
   0.0045929   -0.0061097    0.0059726    0.8365353   -0.3833472    0.3914761
   0.0049190   -0.0053230    0.0058039    0.8889255   -0.0305142    0.4570342
   0.0047682   -0.0057795    0.0059265    0.9075997   -0.1899366    0.3744154
   0.0054376   -0.0045889    0.0051210    0.8767005    0.0992668    0.4706828
   0.0055473   -0.0039085    0.0048655    0.8983656    0.2097506    0.3859325
   0.0056572   -0.0034227    0.0043718    0.9294995    0.2865311    0.2322297
   0.0055178   -0.0028875    0.0043574    0.9055332    0.3525808    0.2360010
   0.0054070   -0.0027583    0.0045555    0.7909275    0.4185084    0.4464129
   0.0050987   -0.0014064    0.0041565    0.5781956    0.5124038    0.6349269
   0.0051128   -0.0010431    0.0038771    0.5366246    0.5794200    0.6134382
  -0.0007756   -0.0073542    0.0071154    0.4350593   -0.4799288    0.7618345
  -0.0033520   -0.0088111    0.0070423    0.4337992   -0.9009848   -0.0066788
  -0.0030367   -0.0087184    0.0059948    0.4273816   -0.9004905   -0.0803853
  -0.0022074   -0.0083770    0.0056980    0.4341990   -0.9005938   -0.0200511
  -0.0011205   -0.0081377    0.0056153    0.2392267   -0.9699948    0.0433660
  -0.0010770   -0.0080817    0.0062780    0.3357118   -0.9287101    0.1574647
  -0.0009524   -0.0079651    0.0066328    0.3916757   -0.8862333    0.2473473
  -0.0007315   -0.0078789    0.0067327    0.3917465   -0.8284872    0.4001794
  -0.0035888    0.0042386    0.0037615   -0.8939756    0.1716884    0.4139212
  -0.0036533    0.0046115    0.0035191   -0.8647617    0.0346234    0.5009875
  -0.0035724    0.0051809    0.0034772   -0.7773999    0.0933335    0.6220436
  -0.0036469    0.0055654    0.0032522   -0.8212019    0.0180324    0.5703528
  -0.0034789    0.0057347    0.0034125   -0.6977282    0.0591040    0.7139202
  -0.0026431    0.0062333    0.0037754   -0.1976802    0.1875390    0.9621599
  -0.0034134    0.0063199    0.0033960   -0.6484868    0.0954315    0.7552203
  -0.0022227    0.0066064    0.0038061   -0.2239205    0.2379862    0.9451043
  -0.0018560    0.0074754    0.0036237   -0.2003036    0.2980713    0.9332909
  -0.0007691    0.0073123    0.0038059   -0.0427233    0.3211491    0.9460645
  -0.0010396    0.0072566    0.0038210   -0.1066484    0.3398647    0.9344079
  -0.0025347    0.0067731    0.0036870   -0.3205427    0.2118963    0.9232293
  -0.0004971    0.0073676    0.0037894   -0.0848948    0.3183318    0.9441704
   0.0014961    0.0058595    0.0038895    0.2967871    0.1167287    0.9477826
   0.0011937    0.0066754    0.0038464    0.2411213    0.3246947    0.9145676
   0.0002767    0.0070436    0.0038682    0.0866421    0.3856715    0.9185590
   0.0019843    0.0054995    0.0037117    0.3398901   -0.0957664    0.9355766
   0.0021302    0.0052081    0.0036133    0.2671516   -0.1615256    0.9500208
   0.0018257    0.0058561    0.0037705    0.4185226    0.1956142    0.8868900
   0.0045555    0.0006088    0.0017369    0.6747925    0.6702848    0.3088258
   0.0052480   -0.0007378    0.0034859    0.6106344    0.6142931    0.4997696
   0.0053063   -0.0004746    0.0030659    0.6620363    0.6832321    0.3080614
   0.0050191   -0.0006733    0.0036399    0.4735059    0.6622053    0.5807550
   0.0052428   -0.0002780    0.0026005    0.6740740    0.7352356    0.0710829
   0.0044286    0.0010431    0.0015904    0.7316083    0.4155441    0.5404373
   0.0041302    0.0016732    0.0017463    0.7060791    0.2476881    0.6634025
   0.0040454    0.0018265    0.0018209    0.7470077    0.1274569    0.6524831
   0.0039152    0.0020342    0.0019696    0.7478813    0.1016781    0.6559993
   0.0043801    0.0015459    0.0015069    0.7367690    0.2465676    0.6295839
   0.0040478    0.0023567    0.0018997    0.7841556   -0.0180442    0.6203018
   0.0022765    0.0049323    0.0035073    0.3347395   -0.2499451    0.9085576
   0.0025837    0.0049111    0.0033826    0.5023480   -0.1470712    0.8520661
   0.0044070    0.0029750    0.0018323    0.5828029   -0.2746882    0.7647791
   0.0043132    0.0032174    0.0019881    0.6098926   -0.0913543    0.7872010
   0.0040740    0.0024514    0.0018713    0.7485970   -0.1201414    0.6520495
   0.0029096    0.0050447    0.0031959    0.5858810    0.0018268    0.8103951
   0.0037601    0.0042096    0.0024832    0.6618131    0.1198862    0.7400207
  -0.0069682   -0.0081326    0.0068458   -0.7811315   -0.4062928    0.4740883
  -0.0070166   -0.0083490    0.0065882   -0.7743629   -0.5558780    0.3022609
  -0.0069769   -0.0081678    0.0068035   -0.7933316   -0.4183782    0.4422495
  -0.0072280   -0.0080440    0.0063068   -0.8684038   -0.4597984    0.1856348
  -0.0071765   -0.0082063    0.0060863   -0.7981199   -0.6004030   -0.0502073
  -0.0072836   -0.0078435    0.0058442   -0.9070861   -0.3926487   -0.1517293
  -0.0065632   -0.0087016    0.0070461   -0.5965532   -0.6943827    0.4024387
  -0.0067185   -0.0086071    0.0069017   -0.6286260   -0.6826971    0.3724971
  -0.0038847   -0.0089680    0.0062351    0.4390639   -0.8963091   -0.0620726
  -0.0055615   -0.0092716    0.0072963   -0.0781475   -0.9912673    0.1062173
  -0.0047162   -0.0093018    0.0065262    0.3198127   -0.9462275   -0.0487178
  -0.0058139   -0.0091434    0.0074050   -0.3745784   -0.8858430    0.2738122
  -0.0064415   -0.0088593    0.0068689   -0.4280864   -0.8888142    0.1635583
  -0.0058394   -0.0089666    0.0076355   -0.4464024   -0.6792057    0.5825843
  -0.0056682   -0.0091893    0.0075202   -0.3236787   -0.8520938    0.4113007
  -0.0060367   -0.0065729    0.0033834   -0.8307944   -0.2457146   -0.4994046
  -0.0061980   -0.0068926    0.0037648   -0.8758848   -0.2063107   -0.4361900
  -0.0058510   -0.0063767    0.0030766   -0.7919496   -0.1037651   -0.6017048
  -0.0056653   -0.0053300    0.0030248   -0.8010744    0.1172870   -0.5869613
  -0.0062972   -0.0067202    0.0039501   -0.8715106   -0.1528576   -0.4659441
  -0.0054695   -0.0049964    0.0029900   -0.8097002    0.2801151   -0.5156754
  -0.0068045   -0.0074987    0.0046605   -0.6332416   -0.3840186   -0.6719634
  -0.0065207   -0.0071108    0.0043254   -0.7801964   -0.2096750   -0.5893471
  -0.0072334   -0.0075841    0.0054213   -0.8786701   -0.3903349   -0.2749136
  -0.0071179   -0.0077118    0.0052248   -0.7683591   -0.5090921   -0.3878783
  -0.0069564   -0.0078132    0.0050454   -0.5689335   -0.6343704   -0.5233439
  -0.0067354   -0.0078818    0.0048885   -0.5156269   -0.6520775   -0.5558092
  -0.0043645   -0.0037363    0.0027604   -0.6861758    0.3233198   -0.6516342
  -0.0044363   -0.0038124    0.0027514   -0.5555359    0.4926555   -0.6698286
  -0.0047556   -0.0038632    0.0029025   -0.6442228    0.4511089   -0.6176389
  -0.0042528   -0.0035318    0.0027333   -0.8302185    0.0384112   -0.5561131
  -0.0042677   -0.0028404    0.0023927   -0.9075309   -0.3654976   -0.2068796
  -0.0040758   -0.0033468    0.0024267   -0.8699460   -0.3220000   -0.3735104
  -0.0041988   -0.0024840    0.0013537   -0.9468569   -0.3202342   -0.0302006
  -0.0041742   -0.0029785    0.0021880   -0.8756217   -0.4408963   -0.1972234
  -0.0042318   -0.0010525    0.0002349   -0.9891252   -0.1440816   -0.0295254
  -0.0043648    0.0003549    0.0011310   -0.9837891   -0.1592663   -0.0824215
  -0.0042280   -0.0004378    0.0002744   -0.9878982   -0.1490268   -0.0429899
  -0.0043458    0.0012919    0.0010249   -0.9883670   -0.1402264   -0.0588829
  -0.0042293   -0.0017147    0.0005544   -0.9847109   -0.1704852    0.0357679
  -0.0042673    0.0042052    0.0010037   -0.9797203   -0.0848863    0.1815005
  -0.0042932    0.0013624    0.0003633   -0.9858857   -0.1631324   -0.0376449
  -0.0043685    0.0034675    0.0001064   -0.9835251   -0.1693962    0.0631134
  -0.0043094    0.0020855   -0.0001864   -0.9843068   -0.1764101   -0.0044247
  -0.0043512    0.0047635    0.0002671   -0.9830337   -0.1133162    0.1442366
  -0.0041387    0.0045746    0.0015709   -0.9767641   -0.0951160    0.1920542
  -0.0038279    0.0057799    0.0028469   -0.9328794   -0.0724635    0.3528244
  -0.0037155    0.0049824    0.0032730   -0.8916297   -0.0053151    0.4527343
   0.0037712   -0.0067856    0.0057722    0.6422585   -0.6995166    0.3133378
   0.0021544   -0.0081860    0.0053489    0.5279746   -0.7825357    0.3299708
   0.0037768   -0.0071022    0.0052657    0.6957048   -0.6249424    0.3541778
   0.0038704   -0.0071167    0.0050008    0.7741406   -0.6280920    0.0787828
   0.0041855   -0.0067530    0.0053592    0.6738378   -0.6981322    0.2419795
   0.0023355   -0.0082650    0.0049032    0.5698834   -0.7928503    0.2159195
   0.0032569   -0.0076361    0.0048586    0.6944613   -0.7142199    0.0872553
   0.0028552   -0.0079439    0.0046977    0.7083984   -0.7019637    0.0736115
   0.0000727   -0.0084294    0.0049701   -0.0602817   -0.9836712    0.1695794
  -0.0004487   -0.0082150    0.0054191   -0.0202641   -0.9871874    0.1582734
   0.0008884   -0.0086295    0.0044846    0.0600452   -0.9936501    0.0951525
   0.0015851   -0.0085488    0.0048908    0.3328325   -0.9076300    0.2557934
   0.0042987   -0.0065781    0.0056787    0.6373808   -0.6879945    0.3470003
   0.0045946   -0.0064093    0.0054549    0.7973789   -0.5665095    0.2079756
   0.0047815   -0.0061404    0.0054457    0.8806485   -0.4268077    0.2056535
   0.0053998   -0.0051580    0.0050392    0.9244047   -0.1067045    0.3661832
   0.0050517   -0.0058288    0.0051381    0.9008109   -0.3107638    0.3032584
   0.0056018   -0.0042962    0.0047552    0.9493739    0.1156912    0.2920697
   0.0056592   -0.0038927    0.0045123    0.9701025    0.1836863    0.1586206
   0.0056619   -0.0035926    0.0041563    0.9717282    0.1769418   -0.1563202
   0.0055919   -0.0030377    0.0041453    0.9534116    0.3015125   -0.0098302
   0.0053554   -0.0019431    0.0041323    0.8188953    0.3628768    0.4446694
   0.0055333   -0.0026480    0.0039213    0.9748771    0.2141761    0.0611818
   0.0054497   -0.0021354    0.0039536    0.9275977    0.3105555    0.2076482
   0.0051783   -0.0014283    0.0041037    0.6179178    0.4577752    0.6392335
   0.0053587   -0.0015197    0.0039315    0.7963524    0.3939809    0.4589139
   0.0053149   -0.0011218    0.0037133    0.6621077    0.5313387    0.5284813
  -0.0038066   -0.0088966    0.0059197    0.3583639   -0.9098418   -0.2091965
  -0.0021227   -0.0083385    0.0054033    0.3589883   -0.9302199   -0.0762781
  -0.0026991   -0.0083205    0.0045213    0.2729148   -0.9460017   -0.1749236
  -0.0015236   -0.0081950    0.0043057    0.0631492   -0.9979528   -0.0101154
  -0.0037399    0.0059697    0.0030581   -0.8587078   -0.0327619    0.5114172
  -0.0033038    0.0068579    0.0033052   -0.5043902    0.2067570    0.8383568
  -0.0035022    0.0067203    0.0031953   -0.7285918    0.0861660    0.6795067
  -0.0038112    0.0063521    0.0028292   -0.8838400   -0.0405259    0.4660306
  -0.0024044    0.0072875    0.0035605   -0.3217115    0.2965054    0.8992142
  -0.0015956    0.0084216    0.0032661   -0.2335732    0.3927268    0.8894994
  -0.0007045    0.0082015    0.0034394   -0.0823904    0.4161847    0.9055397
  -0.0010971    0.0085455    0.0032644   -0.1092826    0.4678849    0.8770069
  -0.0003268    0.0078371    0.0035939    0.0468694    0.4482931    0.8926570
  -0.0005931    0.0077894    0.0036177   -0.1268254    0.3649775    0.9223376
   0.0016832    0.0066328    0.0036381    0.3906700    0.3303127    0.8592266
   0.0012723    0.0075473    0.0034542    0.3092937    0.4552827    0.8348982
   0.0011706    0.0079631    0.0032767    0.2261282    0.5080445    0.8311178
   0.0023067    0.0055319    0.0035708    0.4383120    0.1416658    0.8875885
   0.0024630    0.0051830    0.0035063    0.4508382   -0.0015734    0.8926043
   0.0024501    0.0064832    0.0032062    0.5386276    0.3656012    0.7590890
   0.0019991    0.0070380    0.0033148    0.4865159    0.4232905    0.7642823
   0.0048896    0.0001804    0.0018242    0.7430443    0.6687917    0.0245513
   0.0047164    0.0005075    0.0015575    0.7495775    0.5642944    0.3459848
   0.0045120    0.0010065    0.0015186    0.7180698    0.3841884    0.5803232
   0.0054183   -0.0008340    0.0033101    0.7843066    0.4911034    0.3790522
   0.0054604   -0.0012330    0.0035278    0.8260630    0.4057470    0.3911385
   0.0055450   -0.0009555    0.0031178    0.8794323    0.4150407    0.2331096
   0.0054426   -0.0005891    0.0028776    0.8087707    0.5746221    0.1252972
   0.0055259   -0.0007341    0.0026690    0.8621495    0.5001461   -0.0809448
   0.0043247    0.0020923    0.0015414    0.6482108   -0.0337517    0.7607125
   0.0041964    0.0022853    0.0016977    0.7162510   -0.0677308    0.6945481
   0.0047230    0.0013543    0.0011561    0.7445507    0.2461216    0.6205387
   0.0044510    0.0019041    0.0013808    0.5976870   -0.0765440    0.7980672
   0.0026767    0.0054999    0.0033615    0.6022683    0.1720253    0.7795385
   0.0047010    0.0026098    0.0015330    0.5153677   -0.1858239    0.8365797
   0.0043765    0.0025873    0.0016678    0.5726709   -0.2381426    0.7844336
   0.0047404    0.0031745    0.0016186    0.7192995    0.0670033    0.6914614
   0.0043334    0.0038849    0.0020123    0.6923754    0.1832172    0.6978881
   0.0033985    0.0052098    0.0027668    0.6968597    0.2347920    0.6776867
   0.0047996    0.0048775    0.0011715    0.7721697    0.2922265    0.5642318
  -0.0068343   -0.0085235    0.0067878   -0.7175673   -0.5726425    0.3964564
  -0.0067042   -0.0087263    0.0066374   -0.5568485   -0.8191667    0.1374249
  -0.0069918   -0.0084636    0.0063274   -0.6559450   -0.7541225    0.0321785
  -0.0070455   -0.0083241    0.0058958   -0.6367447   -0.7206105   -0.2743660
  -0.0068910   -0.0085115    0.0060838   -0.4019003   -0.8805046   -0.2513718
  -0.0071798   -0.0079771    0.0056432   -0.7917722   -0.5332488   -0.2978967
  -0.0066447   -0.0087572    0.0066896   -0.4000758   -0.9105090    0.1044641
  -0.0058172   -0.0091716    0.0070855   -0.2736073   -0.9618404   -0.0014729
  -0.0051906   -0.0092983    0.0062227   -0.0329149   -0.9883455   -0.1486263
  -0.0047304   -0.0090314    0.0053946    0.2503305   -0.9254218   -0.2844805
  -0.0063431   -0.0089020    0.0066202   -0.2846965   -0.9512664   -0.1184909
  -0.0060754   -0.0074372    0.0037730   -0.7422219   -0.4867492   -0.4606321
  -0.0057406   -0.0076344    0.0034188   -0.6644457   -0.5935560   -0.4540961
  -0.0056035   -0.0073282    0.0030283   -0.7051192   -0.4165697   -0.5738263
  -0.0055664   -0.0068952    0.0028285   -0.7394754   -0.2553523   -0.6228734
  -0.0062220   -0.0073272    0.0039577   -0.7614981   -0.4032486   -0.5074556
  -0.0053519   -0.0064748    0.0025573   -0.7665302   -0.1238375   -0.6301554
  -0.0049612   -0.0050942    0.0023681   -0.7528778    0.1659943   -0.6368837
  -0.0048343   -0.0042191    0.0026920   -0.6813808    0.3367010   -0.6498866
  -0.0063737   -0.0075748    0.0043102   -0.6728052   -0.3676812   -0.6419842
  -0.0061703   -0.0077214    0.0041790   -0.5603687   -0.6020951   -0.5687428
  -0.0063384   -0.0077640    0.0044229   -0.4252279   -0.7199060   -0.5485586
  -0.0065044   -0.0079456    0.0047353   -0.4128437   -0.7183987   -0.5598780
  -0.0070244   -0.0080815    0.0054618   -0.5947225   -0.6953164   -0.4035345
  -0.0068089   -0.0081532    0.0053029   -0.4546576   -0.7640181   -0.4577803
  -0.0065422   -0.0081974    0.0051630   -0.3354530   -0.8296712   -0.4462253
  -0.0067558   -0.0081622    0.0052748   -0.3106582   -0.7939637   -0.5226022
  -0.0042455   -0.0038618    0.0025650   -0.6878729    0.3316621   -0.6456246
  -0.0043201   -0.0039436    0.0025574   -0.5676192    0.4486994   -0.6902734
  -0.0041373   -0.0036573    0.0025365   -0.8300472    0.0295794   -0.5569081
  -0.0039517   -0.0034691    0.0022335   -0.8480568   -0.3484038   -0.3992674
  -0.0040503   -0.0030606    0.0013129   -0.8215075   -0.5683330    0.0460767
  -0.0041701   -0.0028692    0.0008589   -0.9157519   -0.3764815    0.1402142
  -0.0040697   -0.0031125    0.0019872   -0.8139631   -0.5485072   -0.1913218
  -0.0041122   -0.0028245    0.0014912   -0.8826114   -0.4688174   -0.0347465
  -0.0042665   -0.0027171    0.0003484   -0.9770183   -0.1685426    0.1304936
  -0.0042188   -0.0012908    0.0000263   -0.9934287   -0.0949418    0.0639183
  -0.0042416   -0.0006201   -0.0006837   -0.9938062   -0.1042449    0.0385007
  -0.0042121    0.0002216   -0.0000321   -0.9890176   -0.1415439   -0.0425393
  -0.0042086    0.0003559   -0.0001974   -0.9863813   -0.1637425   -0.0155059
  -0.0043072    0.0023856   -0.0005420   -0.9710885   -0.2288576    0.0679060
  -0.0044232    0.0036683   -0.0008245   -0.9816999   -0.1633373    0.0979093
  -0.0043941    0.0022310   -0.0014418   -0.9731994   -0.2255445    0.0448620
  -0.0043987    0.0046032   -0.0002635   -0.9824350   -0.1481553    0.1134521
  -0.0042578    0.0011227   -0.0021480   -0.9688377   -0.2391375   -0.0645505
  -0.0042977    0.0051278    0.0005420   -0.9753825   -0.1335780    0.1754590
  -0.0044135    0.0060943   -0.0002354   -0.9747910   -0.2052694    0.0874476
  -0.0038884    0.0061685    0.0026225   -0.9408591   -0.1113223    0.3199866
  -0.0040368    0.0063172    0.0021247   -0.9698117   -0.1260374    0.2087577
  -0.0041115    0.0052065    0.0016166   -0.9805684   -0.1147015    0.1591512
   0.0040806   -0.0068618    0.0049389    0.7775118   -0.6125536   -0.1423145
   0.0035397   -0.0073969    0.0045928    0.7748238   -0.6167286   -0.1389025
   0.0044768   -0.0065564    0.0051197    0.7540608   -0.6567776    0.0059480
   0.0025986   -0.0082125    0.0040520    0.6831968   -0.7300397   -0.0168566
   0.0016834   -0.0085838    0.0046396    0.3203638   -0.9343270    0.1562054
   0.0031787   -0.0076432    0.0042410    0.7945121   -0.5685777   -0.2132368
   0.0009831   -0.0086478    0.0042226    0.0607878   -0.9952553    0.0759721
  -0.0007837   -0.0082791    0.0039117   -0.0422128   -0.9987903   -0.0252198
   0.0047616   -0.0062460    0.0047662    0.7800329   -0.6185336   -0.0946828
   0.0049501   -0.0060676    0.0048564    0.8316560   -0.5505118    0.0726985
   0.0055623   -0.0049304    0.0047023    0.9949340   -0.0874588    0.0495714
   0.0053530   -0.0054667    0.0048260    0.9423078   -0.3080988    0.1308864
   0.0051432   -0.0058333    0.0048674    0.8903782   -0.4462603    0.0898799
   0.0056843   -0.0040196    0.0043443    0.9983407    0.0537859   -0.0205628
   0.0055503   -0.0044751    0.0038142    0.9621660   -0.0617561   -0.2653731
   0.0053946   -0.0044570    0.0033751    0.9321150   -0.0158210   -0.3618167
   0.0055901   -0.0032118    0.0039261    0.9734083    0.1518214   -0.1715416
   0.0054653   -0.0021127    0.0038833    0.9096341    0.2806798    0.3062428
   0.0054966   -0.0025035    0.0033818    0.9874185    0.0537198   -0.1487245
   0.0055241   -0.0024217    0.0034761    0.9966034    0.0135375   -0.0812309
   0.0055663   -0.0017868    0.0035296    0.9503884    0.2147092    0.2250820
  -0.0031467   -0.0080364    0.0029500    0.2508052   -0.9481048   -0.1954328
  -0.0043690   -0.0085279    0.0037288    0.1829805   -0.9354010   -0.3025609
  -0.0047690   -0.0086320    0.0041854    0.0444779   -0.9445085   -0.3254620
  -0.0024980   -0.0079962    0.0026818    0.1101426   -0.9920285   -0.0612208
  -0.0021759   -0.0080011    0.0025589    0.0445576   -0.9974971    0.0549005
  -0.0017291   -0.0081046    0.0022314   -0.0831380   -0.9938571    0.0730491
  -0.0035836    0.0071126    0.0029824   -0.7037993    0.1574265    0.6927362
  -0.0031820    0.0073805    0.0031920   -0.5297476    0.2801362    0.8005568
  -0.0037524    0.0069434    0.0028229   -0.8123014    0.0333769    0.5822821
  -0.0038253    0.0073278    0.0025965   -0.8395757    0.0893682    0.5358414
  -0.0040307    0.0075002    0.0021466   -0.9141970    0.0133365    0.4050505
  -0.0040411    0.0068541    0.0020691   -0.9560130   -0.1397168    0.2579116
  -0.0028176    0.0079813    0.0030993   -0.4088137    0.3548944    0.8407861
  -0.0018144    0.0087632    0.0030334   -0.2245231    0.4903313    0.8421191
  -0.0026534    0.0084688    0.0029289   -0.3834115    0.4052651    0.8299131
  -0.0005879    0.0082139    0.0034178    0.0439880    0.4640653    0.8847081
  -0.0004989    0.0086335    0.0031849    0.0252148    0.5039606    0.8633585
  -0.0006425    0.0093967    0.0027258   -0.0614811    0.5734774    0.8169111
   0.0010462    0.0083498    0.0030709    0.2127345    0.5562162    0.8033477
  -0.0001834    0.0086670    0.0031275    0.0624409    0.4999420    0.8638050
   0.0018801    0.0082373    0.0026643    0.4613903    0.5660889    0.6831269
   0.0026111    0.0056556    0.0033741    0.5373695    0.2701289    0.7989145
   0.0029173    0.0071549    0.0024379    0.5924659    0.4630532    0.6592161
   0.0032740    0.0061124    0.0025860    0.6550442    0.3615652    0.6634664
   0.0053377   -0.0004606    0.0023407    0.8164550    0.5582531   -0.1474951
   0.0053692   -0.0005890    0.0021683    0.8657267    0.4486510   -0.2218775
   0.0051110   -0.0001459    0.0017908    0.8078225    0.5831407   -0.0858468
   0.0049979    0.0000503    0.0016253    0.8185745    0.5671777    0.0908034
   0.0048371    0.0008044    0.0011608    0.7835368    0.3399574    0.5200952
   0.0051318    0.0001647    0.0009939    0.8364207    0.3854313    0.3896706
   0.0055674   -0.0013642    0.0033282    0.9152613    0.3085710    0.2589994
   0.0056146   -0.0015284    0.0031062    0.9979529    0.0399719   -0.0499217
   0.0056186   -0.0011054    0.0029055    0.9479737    0.3147869    0.0474870
   0.0056114   -0.0012993    0.0026631    0.9791747    0.1339676   -0.1525439
   0.0055322   -0.0009209    0.0024316    0.9180070    0.3071388   -0.2508564
   0.0043579    0.0021462    0.0015365    0.4927693   -0.1741706    0.8525509
   0.0046506    0.0021055    0.0014118    0.4148862   -0.2433764    0.8767196
   0.0047640    0.0013302    0.0011131    0.6122607    0.0088607    0.7906063
   0.0048706    0.0011313    0.0010258    0.7212813    0.1564872    0.6747333
   0.0047838    0.0018790    0.0012738    0.4845882   -0.2410678    0.8408690
   0.0049292    0.0020799    0.0012713    0.5913299   -0.1457965    0.7931408
   0.0050049    0.0027441    0.0013321    0.7242828    0.0578209    0.6870743
   0.0048949    0.0038960    0.0013715    0.8041276    0.2467684    0.5408181
   0.0049948    0.0035699    0.0012609    0.8177546    0.2029135    0.5386127
   0.0045570    0.0059691    0.0011565    0.7709948    0.3788570    0.5118930
   0.0049272    0.0047012    0.0010066    0.8331336    0.3003207    0.4644307
   0.0050990    0.0055049    0.0004004    0.8275783    0.3569481    0.4332461
  -0.0066080   -0.0087539    0.0063806   -0.3388111   -0.9199398   -0.1972759
  -0.0068255   -0.0083880    0.0057457   -0.2729926   -0.8705372   -0.4094386
  -0.0064885   -0.0083989    0.0056249   -0.2231103   -0.8935214   -0.3896683
  -0.0054021   -0.0091431    0.0058095   -0.1555709   -0.9274692   -0.3399980
  -0.0056982   -0.0088672    0.0055170   -0.3046146   -0.8784054   -0.3682580
  -0.0059590   -0.0077948    0.0040186   -0.5998984   -0.6571328   -0.4563972
  -0.0058380   -0.0077048    0.0037212   -0.5884803   -0.7147837   -0.3778560
  -0.0055777   -0.0079662    0.0036818   -0.5736654   -0.7497346   -0.3298577
  -0.0053110   -0.0080843    0.0034488   -0.4775723   -0.7983357   -0.3668581
  -0.0051641   -0.0078890    0.0029154   -0.5531967   -0.6718484   -0.4925374
  -0.0049783   -0.0071890    0.0022723   -0.6837573   -0.3669061   -0.6307582
  -0.0048305   -0.0076540    0.0023724   -0.5450037   -0.5796162   -0.6058185
  -0.0047811   -0.0058563    0.0018550   -0.8200607    0.1020791   -0.5630989
  -0.0046514   -0.0068349    0.0017444   -0.7112258   -0.3820157   -0.5901033
  -0.0046305   -0.0064807    0.0015880   -0.8193232   -0.1968780   -0.5384687
  -0.0046616   -0.0049451    0.0021566   -0.6946753    0.3391507   -0.6343524
  -0.0059572   -0.0083320    0.0048074   -0.3910196   -0.8088529   -0.4391590
  -0.0063533   -0.0081676    0.0049381   -0.3307679   -0.7870543   -0.5207092
  -0.0067676   -0.0081975    0.0053501   -0.2684857   -0.8768913   -0.3987192
  -0.0041215   -0.0039838    0.0023717   -0.7150069    0.2876610   -0.6371941
  -0.0040235   -0.0037782    0.0023357   -0.8198271    0.0340678   -0.5715968
  -0.0038126   -0.0035829    0.0020457   -0.8427410   -0.3480877   -0.4106369
  -0.0038276   -0.0033614    0.0012687   -0.7460247   -0.6439552    0.1696135
  -0.0039428   -0.0032320    0.0017952   -0.7886378   -0.6015779   -0.1271003
  -0.0038235   -0.0033577    0.0016000   -0.7516394   -0.6536257   -0.0883838
  -0.0041686   -0.0030852    0.0005870   -0.8905219   -0.4063973    0.2044796
  -0.0042926   -0.0031128   -0.0001412   -0.9265835   -0.3603424    0.1076866
  -0.0043959   -0.0024246   -0.0007073   -0.9867229   -0.1458521    0.0714503
  -0.0043467   -0.0021596   -0.0003013   -0.9923532   -0.0455850    0.1147048
  -0.0042644   -0.0013344   -0.0006433   -0.9920236   -0.0490194    0.1161304
  -0.0041676   -0.0001075   -0.0015009   -0.9836169   -0.1611221   -0.0808547
  -0.0043157   -0.0014381   -0.0009576   -0.9986445   -0.0514046    0.0081731
  -0.0044892    0.0040147   -0.0013641   -0.9810873   -0.1843957    0.0588720
  -0.0044760    0.0050159   -0.0008415   -0.9808624   -0.1612039    0.1091891
  -0.0045063    0.0056568   -0.0011680   -0.9803673   -0.1775172    0.0858348
  -0.0045641    0.0056725   -0.0018746   -0.9819382   -0.1823989    0.0502796
  -0.0045454    0.0048190   -0.0017996   -0.9878950   -0.1487589    0.0439807
  -0.0043708    0.0025164   -0.0025562   -0.9545650   -0.2400218   -0.1766218
  -0.0044578    0.0035016   -0.0027534   -0.9707808   -0.2379445   -0.0310982
  -0.0043592    0.0029436   -0.0027542   -0.9475724   -0.2658471   -0.1772905
  -0.0042741    0.0019573   -0.0025578   -0.9341752   -0.2686646   -0.2348104
  -0.0040675    0.0008127   -0.0028710   -0.9355850   -0.2057395   -0.2869704
  -0.0040240   -0.0003537   -0.0026154   -0.9637966   -0.2538473   -0.0815948
  -0.0045174    0.0070192   -0.0005038   -0.9665018   -0.2087868    0.1492728
  -0.0043055    0.0060612    0.0004212   -0.9690370   -0.1455143    0.1994817
  -0.0044959    0.0062278   -0.0007738   -0.9779034   -0.1659619    0.1271283
  -0.0045142    0.0068105   -0.0007673   -0.9643227   -0.2526240    0.0791383
  -0.0044959    0.0066660   -0.0006518   -0.9620535   -0.2727010    0.0093366
   0.0048665   -0.0059112    0.0040664    0.7161145   -0.6227717   -0.3151752
   0.0038492   -0.0069055    0.0042245    0.7750679   -0.5704815   -0.2716996
   0.0021718   -0.0084628    0.0039001    0.5750469   -0.8157358   -0.0624191
   0.0025151   -0.0080589    0.0032632    0.7661349   -0.6005977   -0.2287352
   0.0012386   -0.0086496    0.0043231    0.1424587   -0.9784389    0.1495423
   0.0015364   -0.0086217    0.0042629    0.3025014   -0.9524284    0.0370552
   0.0030485   -0.0069186    0.0020644    0.7890718   -0.5779718   -0.2081208
   0.0035849   -0.0064717    0.0025237    0.7818105   -0.5849131   -0.2159837
   0.0038760   -0.0064686    0.0033701    0.7701322   -0.5800314   -0.2654429
   0.0013137   -0.0086552    0.0041066    0.1832682   -0.9827738    0.0238414
  -0.0002794   -0.0085221    0.0020332   -0.0755658   -0.9923956    0.0971637
   0.0012133   -0.0087017    0.0027408    0.1679580   -0.9830557    0.0734281
   0.0015299   -0.0086375    0.0025813    0.4064835   -0.9126937   -0.0419688
   0.0015854   -0.0086429    0.0032812    0.3294062   -0.9440064   -0.0185333
   0.0050216   -0.0059634    0.0045209    0.8318426   -0.5302467   -0.1639400
   0.0053935   -0.0054157    0.0044962    0.9380038   -0.3372564   -0.0800442
   0.0054419   -0.0049559    0.0039757    0.9703914   -0.1230075   -0.2078695
   0.0054182   -0.0052988    0.0042844    0.9494125   -0.2266875   -0.2173218
   0.0052806   -0.0048970    0.0033683    0.8976843   -0.2260040   -0.3782660
   0.0052750   -0.0050782    0.0035969    0.8988326   -0.2843845   -0.3335046
   0.0051205   -0.0046697    0.0029719    0.9211461   -0.1685170   -0.3508445
   0.0053595   -0.0040236    0.0029773    0.9507170   -0.0451495   -0.3067551
   0.0054019   -0.0034821    0.0029129    0.9720496    0.0720226   -0.2234553
   0.0054755   -0.0022169    0.0030162    0.9648073    0.0536355   -0.2574299
  -0.0032150   -0.0079655    0.0022100    0.1011068   -0.9636614   -0.2472533
  -0.0039341   -0.0081211    0.0028188    0.2076024   -0.9409639   -0.2673729
  -0.0044986   -0.0081270    0.0027926   -0.0279979   -0.9215943   -0.3871435
  -0.0049505   -0.0081931    0.0031975   -0.2637148   -0.8862952   -0.3807036
  -0.0051071   -0.0085783    0.0042757   -0.3000372   -0.8831935   -0.3604816
  -0.0030218   -0.0078731    0.0015229   -0.1347964   -0.9717624   -0.1936694
  -0.0019063   -0.0082264    0.0011839   -0.0849627   -0.9902545    0.1103514
  -0.0007317   -0.0084559    0.0013812    0.1284011   -0.9726428    0.1935954
  -0.0006043   -0.0084696    0.0014696   -0.1252478   -0.9886157    0.0833790
  -0.0004841   -0.0085089    0.0015651    0.0601879   -0.9970949    0.0466818
  -0.0036572    0.0074971    0.0027565   -0.7179804    0.1963036    0.6678092
  -0.0035487    0.0081264    0.0025632   -0.7477113    0.2547452    0.6132150
  -0.0033754    0.0085025    0.0024672   -0.5432341    0.4144754    0.7301417
  -0.0041474    0.0077118    0.0017171   -0.9612954   -0.1013226    0.2562126
  -0.0041160    0.0082005    0.0015891   -0.9076478    0.1381624    0.3963416
  -0.0043365    0.0066561    0.0004474   -0.9617694   -0.1898130    0.1974098
  -0.0022389    0.0090250    0.0027647   -0.3149323    0.5224336    0.7923893
  -0.0009672    0.0096917    0.0024676   -0.1254804    0.7064257    0.6965755
  -0.0000657    0.0096876    0.0023825    0.0959748    0.7006563    0.7070146
   0.0000050    0.0090899    0.0028671    0.1348239    0.6055615    0.7842945
  -0.0014968    0.0095370    0.0025348   -0.1917735    0.6109583    0.7680839
   0.0012538    0.0086953    0.0027071    0.3002253    0.6404940    0.7068466
   0.0015352    0.0086594    0.0025727    0.3972572    0.6468260    0.6510014
   0.0034581    0.0073505    0.0017792    0.6036025    0.5172507    0.6067254
   0.0029044    0.0082699    0.0016472    0.5492898    0.6009857    0.5806004
   0.0019024    0.0089024    0.0020287    0.4806154    0.6588974    0.5786735
   0.0034824    0.0067472    0.0020834    0.6622213    0.4085514    0.6281312
   0.0055200   -0.0009646    0.0023810    0.9074188    0.1725123   -0.3831848
   0.0053087   -0.0008132    0.0019059    0.9328265    0.1752291   -0.3148484
   0.0052067   -0.0003670    0.0017662    0.8886022    0.4129893   -0.1995644
   0.0052181   -0.0004408    0.0016700    0.8975877    0.4139243   -0.1516673
   0.0050855   -0.0000927    0.0014182    0.9261314    0.3682450    0.0817080
   0.0049795    0.0006927    0.0009745    0.7958010    0.3092143    0.5206605
   0.0052478   -0.0003843    0.0009994    0.8819046    0.2342864    0.4090895
   0.0051591   -0.0002427    0.0012059    0.9225217    0.3182567    0.2183265
   0.0052920    0.0000619    0.0008140    0.6801111    0.2948117    0.6712190
   0.0051314    0.0005860    0.0007918    0.7094313    0.2334586    0.6649844
   0.0050320   -0.0020440    0.0016574    0.9081437   -0.0277080   -0.4177408
   0.0055955   -0.0014540    0.0027270    0.9683763   -0.1642344   -0.1878146
   0.0055942   -0.0013492    0.0026063    0.9450402    0.0136813   -0.3266678
   0.0049303    0.0012770    0.0009938    0.6061391   -0.0900866    0.7902403
   0.0051235    0.0011928    0.0008265    0.6690763   -0.0243964    0.7427932
   0.0052794    0.0018905    0.0009227    0.7091248   -0.0754904    0.7010301
   0.0052631    0.0023408    0.0010280    0.7872112    0.0715621    0.6125173
   0.0052394    0.0030928    0.0009833    0.8221196    0.2142101    0.5274783
   0.0051978    0.0045256    0.0006017    0.8405725    0.2860240    0.4600305
