NORM_ASCII
1130 2292
  -0.0188173   -0.0734459   -0.0207572   -0.1220220   -0.8068164    0.5780640
  -0.0196690   -0.0752792   -0.0243012   -0.5478390   -0.7561550    0.3579134
  -0.0201899   -0.0751545   -0.0253227   -0.7090664   -0.6613477    0.2446304
  -0.0151673   -0.0763746   -0.0255397    0.7276212   -0.4604913    0.5084438
  -0.0207495   -0.0742972   -0.0251796   -0.8780816   -0.4754234    0.0542698
  -0.0207147   -0.0742516   -0.0245366   -0.8200958   -0.5559041    0.1356964
  -0.0209920   -0.0737320   -0.0257072   -0.9245957   -0.3807839   -0.0112381
  -0.0211807   -0.0733229   -0.0247502   -0.9236352   -0.3832457    0.0045625
  -0.0203536   -0.0742123   -0.0285208   -0.9657027    0.0050636   -0.2596010
  -0.0205315   -0.0744488   -0.0276910   -0.9590698   -0.2285729   -0.1671513
  -0.0206779   -0.0739944   -0.0274323   -0.9602163   -0.0781337   -0.2681039
  -0.0205608   -0.0726348   -0.0278777   -0.9138318    0.0695886   -0.4000862
  -0.0202736   -0.0727960   -0.0283503   -0.7860309    0.2993127   -0.5408949
  -0.0211754   -0.0731666   -0.0255533   -0.9529621   -0.2911453   -0.0842476
  -0.0194626   -0.0757845   -0.0317032   -0.8859188    0.1847987   -0.4254378
  -0.0194652   -0.0752870   -0.0314517   -0.8342290    0.3007845   -0.4621587
  -0.0196687   -0.0738974   -0.0299774   -0.8351905    0.3213808   -0.4462861
  -0.0200289   -0.0734368   -0.0291015   -0.6869635    0.4699973   -0.5542416
  -0.0147495   -0.0763625   -0.0261289    0.8562258   -0.1977388    0.4772596
  -0.0187509   -0.0759367   -0.0327617   -0.7886252    0.2521263   -0.5608053
  -0.0183028   -0.0764336   -0.0335861   -0.8605265    0.2267237   -0.4561693
  -0.0177870   -0.0769298   -0.0348926   -0.8812200    0.1367272   -0.4525009
  -0.0123800   -0.0779655   -0.0336572    0.6036677    0.5892093   -0.5370453
  -0.0118787   -0.0777352   -0.0310280    0.8251943    0.5473818    0.1393825
  -0.0121011   -0.0773501   -0.0314239    0.6869098    0.7250087    0.0501733
  -0.0119003   -0.0775926   -0.0318476    0.8022411    0.5955058   -0.0422157
  -0.0119222   -0.0779132   -0.0302397    0.8813779    0.4128272    0.2296664
  -0.0121256   -0.0778289   -0.0297882    0.8039705    0.4899804    0.3369728
  -0.0131339   -0.0772130   -0.0289066    0.6662961    0.7091524    0.2305478
  -0.0125631   -0.0775629   -0.0293329    0.6620825    0.6189826    0.4225012
  -0.0136128   -0.0781402   -0.0344606    0.3794688    0.4860021   -0.7872772
  -0.0132906   -0.0778227   -0.0340969    0.3801599    0.5945025   -0.7085515
  -0.0164818   -0.0764462   -0.0358543   -0.0559698    0.3655161   -0.9291208
  -0.0170627   -0.0761630   -0.0355511   -0.4833727    0.3233651   -0.8135022
  -0.0175763   -0.0766327   -0.0352721   -0.7634784    0.1488100   -0.6284556
  -0.0153965   -0.0767300   -0.0355200    0.6917327    0.2437904   -0.6797589
  -0.0146144   -0.0773462   -0.0346788    0.7909643    0.2836193   -0.5421582
  -0.0152313   -0.0762664   -0.0350536    0.7968990    0.3589946   -0.4858753
  -0.0193242   -0.0740011   -0.0217486   -0.2829859   -0.8094320    0.5145278
  -0.0193927   -0.0748327   -0.0230804   -0.4104951   -0.7910306    0.4536125
  -0.0159930   -0.0741046   -0.0222571    0.4728843   -0.6317228    0.6142530
  -0.0173093   -0.0741981   -0.0218015    0.1564287   -0.7454134    0.6479883
  -0.0170816   -0.0737964   -0.0214170    0.2546215   -0.7244620    0.6405644
  -0.0157963   -0.0757295   -0.0242073    0.6597307   -0.5395657    0.5230911
  -0.0182416   -0.0737268   -0.0210631    0.0512655   -0.7827874    0.6201740
  -0.0193856   -0.0734370   -0.0208927   -0.1703595   -0.8254910    0.5380913
  -0.0198520   -0.0731350   -0.0205792   -0.2560102   -0.8168022    0.5170038
  -0.0183856   -0.0731290   -0.0202554    0.0032774   -0.8081578    0.5889569
  -0.0202398   -0.0746800   -0.0240715   -0.6336462   -0.7078384    0.3121815
  -0.0197734   -0.0744748   -0.0227947   -0.4878041   -0.7645023    0.4214065
  -0.0207108   -0.0739433   -0.0234525   -0.7578443   -0.6169480    0.2122431
  -0.0154964   -0.0760217   -0.0248028    0.6054235   -0.5831509    0.5416616
  -0.0211336   -0.0734513   -0.0239601   -0.8893101   -0.4521198    0.0686674
  -0.0215125   -0.0724147   -0.0242447   -0.9545283   -0.2867504   -0.0815469
  -0.0204905   -0.0740596   -0.0280082   -0.9484233    0.0820472   -0.3062051
  -0.0212151   -0.0725038   -0.0261196   -0.9648247   -0.1400681   -0.2224729
  -0.0205789   -0.0721303   -0.0276342   -0.7783748    0.2500024   -0.5758745
  -0.0210192   -0.0724134   -0.0268224   -0.9275760   -0.0110546   -0.3734709
  -0.0198916   -0.0724993   -0.0285134   -0.5435893    0.5306617   -0.6503144
  -0.0214218   -0.0725250   -0.0248028   -0.9689990   -0.2140860   -0.1233211
  -0.0189110   -0.0746059   -0.0318982   -0.7739418    0.4203146   -0.4736557
  -0.0191848   -0.0741332   -0.0308935   -0.6870357    0.5326863   -0.4941936
  -0.0137000   -0.0767377   -0.0282670    0.8580042    0.4612751    0.2259516
  -0.0141456   -0.0764686   -0.0272474    0.9160948    0.3194249    0.2423594
  -0.0183867   -0.0744106   -0.0326184   -0.7593931    0.4324489   -0.4861174
  -0.0177125   -0.0763072   -0.0349054   -0.8205363    0.2595559   -0.5092650
  -0.0176761   -0.0753275   -0.0343753   -0.7106820    0.4731865   -0.5206012
  -0.0177468   -0.0750291   -0.0339709   -0.6587792    0.4849087   -0.5752160
  -0.0124797   -0.0775991   -0.0333165    0.6014427    0.6600649   -0.4500900
  -0.0122376   -0.0774851   -0.0326849    0.6963571    0.6571486   -0.2885178
  -0.0122152   -0.0773051   -0.0321594    0.6736205    0.7157079   -0.1843845
  -0.0131428   -0.0774041   -0.0336289    0.4268425    0.7086657   -0.5617814
  -0.0121945   -0.0773802   -0.0308392    0.5600591    0.8170248    0.1371287
  -0.0123677   -0.0773765   -0.0301196    0.6479195    0.7452580    0.1574510
  -0.0142254   -0.0777041   -0.0345137    0.4268235    0.5234541   -0.7374398
  -0.0144743   -0.0770207   -0.0342492    0.6658222    0.4791674   -0.5719086
  -0.0134991   -0.0770164   -0.0333631    0.4120724    0.6967125   -0.5871865
  -0.0170456   -0.0756731   -0.0352877   -0.3845059    0.5190807   -0.7633547
  -0.0157625   -0.0761595   -0.0356071    0.4920065    0.4191194   -0.7630652
  -0.0163056   -0.0754130   -0.0353398    0.0663383    0.5692151   -0.8195080
  -0.0156189   -0.0755907   -0.0350528    0.5840375    0.5652538   -0.5825705
  -0.0156887   -0.0751756   -0.0347308    0.6442271    0.6119488   -0.4587920
  -0.0151705   -0.0755482   -0.0342992    0.7913515    0.5093725   -0.3380865
  -0.0146942   -0.0763779   -0.0340487    0.7833109    0.4998689   -0.3695337
  -0.0201294   -0.0740869   -0.0225290   -0.5596158   -0.7474420    0.3579953
  -0.0197816   -0.0736900   -0.0214402   -0.3488113   -0.8131316    0.4659911
  -0.0156280   -0.0742362   -0.0227368    0.8610761   -0.3337629    0.3836018
  -0.0158472   -0.0736691   -0.0219206    0.6931042   -0.4665245    0.5495102
  -0.0166784   -0.0729703   -0.0206772    0.3823055   -0.6745764    0.6314976
  -0.0175044   -0.0729372   -0.0202173    0.2570389   -0.7353402    0.6270613
  -0.0159541   -0.0733547   -0.0215352    0.7103282   -0.4380741    0.5509310
  -0.0154180   -0.0744274   -0.0232019    0.8055839   -0.4205092    0.4173805
  -0.0153124   -0.0750467   -0.0240936    0.8348688   -0.3588464    0.4174007
  -0.0194440   -0.0729446   -0.0201511   -0.1567443   -0.8262420    0.5410688
  -0.0201506   -0.0733172   -0.0211634   -0.4638741   -0.7799457    0.4201256
  -0.0208492   -0.0715776   -0.0187517   -0.3630636   -0.8046916    0.4697407
  -0.0204681   -0.0727301   -0.0203860   -0.4408995   -0.7865116    0.4324433
  -0.0184619   -0.0728283   -0.0198538    0.0588656   -0.7919080    0.6077965
  -0.0211731   -0.0732715   -0.0234487   -0.8758108   -0.4770851    0.0731115
  -0.0213124   -0.0728772   -0.0224664   -0.7682108   -0.6154325    0.1763377
  -0.0150634   -0.0759213   -0.0252270    0.8302086   -0.3409044    0.4410645
  -0.0217081   -0.0714895   -0.0243938   -0.9674791   -0.1763818   -0.1813107
  -0.0220872   -0.0702186   -0.0235325   -0.9684388   -0.1538222   -0.1961248
  -0.0215808   -0.0710503   -0.0254069   -0.9636608   -0.1001248   -0.2476546
  -0.0216376   -0.0722289   -0.0217411   -0.8552869   -0.5119489    0.0799543
  -0.0221844   -0.0710398   -0.0216020   -0.9320820   -0.3573093   -0.0596079
  -0.0224557   -0.0701478   -0.0216574   -0.9568808   -0.2441849   -0.1573303
  -0.0211121   -0.0718251   -0.0266656   -0.8772548    0.0961195   -0.4703032
  -0.0203851   -0.0714858   -0.0274596   -0.2950755    0.6071551   -0.7377623
  -0.0195590   -0.0726797   -0.0289604   -0.3154687    0.7435479   -0.5895897
  -0.0197740   -0.0720514   -0.0281918   -0.0485577    0.7742382   -0.6310288
  -0.0187869   -0.0740897   -0.0314554   -0.6562010    0.6435032   -0.3940861
  -0.0184069   -0.0740024   -0.0319680   -0.5012596    0.8219282   -0.2705048
  -0.0187896   -0.0736714   -0.0307664   -0.3301239    0.8398102   -0.4309722
  -0.0146734   -0.0756694   -0.0260230    0.9467473    0.0939069    0.3079788
  -0.0145272   -0.0757839   -0.0265650    0.9346268    0.3267512    0.1403799
  -0.0145535   -0.0755737   -0.0274195    0.8269874    0.5617724    0.0224431
  -0.0140267   -0.0762797   -0.0284905    0.7439068    0.6682574    0.0058878
  -0.0148640   -0.0755484   -0.0254945    0.9610114   -0.0027633    0.2764949
  -0.0176012   -0.0756279   -0.0347776   -0.5945374    0.5394488   -0.5962552
  -0.0178259   -0.0742296   -0.0333162   -0.4378316    0.6796493   -0.5885409
  -0.0126628   -0.0771961   -0.0328339    0.5289231    0.7841254   -0.3246347
  -0.0128006   -0.0768621   -0.0319911    0.4596658    0.8879586    0.0153894
  -0.0134102   -0.0767541   -0.0328913    0.4499972    0.7898453   -0.4167098
  -0.0129340   -0.0770999   -0.0296041    0.4514994    0.8835433    0.1244968
  -0.0126583   -0.0770766   -0.0309235    0.4011227    0.9047634    0.1431911
  -0.0135845   -0.0767325   -0.0289166    0.6574392    0.7517357   -0.0516445
  -0.0133324   -0.0768771   -0.0307538    0.3961454    0.9127814    0.0994934
  -0.0138835   -0.0765788   -0.0297861    0.5996192    0.7993141   -0.0394173
  -0.0138573   -0.0766308   -0.0330960    0.5240509    0.7098782   -0.4705780
  -0.0164054   -0.0750467   -0.0349991    0.0623169    0.7314318   -0.6790612
  -0.0156334   -0.0749547   -0.0342320    0.6884334    0.6789773   -0.2550477
  -0.0160290   -0.0747672   -0.0344776    0.3452860    0.8224736   -0.4520119
  -0.0149595   -0.0756396   -0.0337311    0.7832564    0.5958417   -0.1774319
  -0.0205491   -0.0732349   -0.0214612   -0.5289318   -0.7599953    0.3776748
  -0.0211533   -0.0728668   -0.0217684   -0.6995365   -0.6740926    0.2371662
  -0.0155643   -0.0738275   -0.0223938    0.8857536   -0.2956047    0.3578525
  -0.0167234   -0.0719162   -0.0195579    0.4841648   -0.6124022    0.6249384
  -0.0162925   -0.0724064   -0.0203933    0.7406415   -0.3997026    0.5400815
  -0.0178094   -0.0724246   -0.0194980    0.1592060   -0.7582943    0.6321734
  -0.0172563   -0.0711138   -0.0183345    0.4671881   -0.6533047    0.5957586
  -0.0160056   -0.0725673   -0.0208661    0.7184819   -0.4239976    0.5513708
  -0.0152507   -0.0745381   -0.0237426    0.9913906    0.0190936    0.1295383
  -0.0213531   -0.0716753   -0.0194530   -0.5506129   -0.7547155    0.3566931
  -0.0202082   -0.0719517   -0.0189655   -0.1915184   -0.8222894    0.5358739
  -0.0213429   -0.0711916   -0.0185136   -0.3933590   -0.8068326    0.4407833
  -0.0206946   -0.0710810   -0.0177890   -0.2895769   -0.8081766    0.5128311
  -0.0188171   -0.0725659   -0.0194820   -0.0166714   -0.7783616    0.6275949
  -0.0217829   -0.0702001   -0.0248237   -0.9516984   -0.0063082   -0.3069696
  -0.0220196   -0.0695629   -0.0240681   -0.9529852   -0.0209487   -0.3022919
  -0.0222185   -0.0698942   -0.0231617   -0.9626773   -0.1593649   -0.2187582
  -0.0213736   -0.0704530   -0.0258623   -0.8102557    0.2365954   -0.5361980
  -0.0214376   -0.0722708   -0.0209888   -0.7453254   -0.6313480    0.2142190
  -0.0220249   -0.0714584   -0.0211314   -0.9024209   -0.4306110    0.0145142
  -0.0219115   -0.0715042   -0.0203953   -0.8016581   -0.5741453    0.1664373
  -0.0229000   -0.0692257   -0.0205163   -0.9526370   -0.2722717   -0.1354653
  -0.0226367   -0.0695431   -0.0215349   -0.9586217   -0.1889481   -0.2129391
  -0.0210787   -0.0711677   -0.0265388   -0.7385664    0.2842274   -0.6113382
  -0.0207656   -0.0712861   -0.0270411   -0.6908541    0.3316224   -0.6424540
  -0.0207400   -0.0708001   -0.0267729   -0.4583468    0.4989779   -0.7354857
  -0.0203147   -0.0710520   -0.0271367   -0.0722570    0.6501165   -0.7563911
  -0.0188240   -0.0730690   -0.0298126    0.1196633    0.8775144   -0.4643805
  -0.0182215   -0.0737062   -0.0311559    0.0588028    0.9865612   -0.1524444
  -0.0181268   -0.0732853   -0.0301459    0.1842217    0.9015592   -0.3914758
  -0.0181685   -0.0734885   -0.0306553    0.0426541    0.9464573   -0.3199988
  -0.0150368   -0.0746050   -0.0256551    0.9372533    0.3422347    0.0665701
  -0.0149850   -0.0748557   -0.0267765    0.8333330    0.5501670   -0.0535947
  -0.0151420   -0.0745490   -0.0263973    0.8674578    0.4905356   -0.0830167
  -0.0139341   -0.0764886   -0.0292002    0.7184785    0.6896527   -0.0903761
  -0.0152875   -0.0740677   -0.0241478    0.9451487    0.3265498    0.0076857
  -0.0178718   -0.0739415   -0.0328970   -0.2924772    0.9099646   -0.2939754
  -0.0180545   -0.0738476   -0.0324037   -0.3007164    0.9445981   -0.1315452
  -0.0170346   -0.0749120   -0.0345822   -0.2613968    0.7421019   -0.6172168
  -0.0174980   -0.0744081   -0.0337658   -0.3445118    0.6782714   -0.6490451
  -0.0131913   -0.0766698   -0.0322419    0.4511232    0.8762889   -0.1691318
  -0.0142174   -0.0762466   -0.0328262    0.6295802    0.7466395   -0.2148446
  -0.0133451   -0.0767080   -0.0315725    0.4401326    0.8836696    0.1594092
  -0.0137958   -0.0766213   -0.0304005    0.5075221    0.8612920   -0.0244419
  -0.0138432   -0.0766151   -0.0310893    0.4460681    0.8881433    0.1105654
  -0.0142945   -0.0762643   -0.0299419    0.6038693    0.7797888   -0.1651400
  -0.0142837   -0.0760921   -0.0289398    0.6955326    0.7049384   -0.1389107
  -0.0156319   -0.0748008   -0.0336887    0.6397653    0.7543010   -0.1474121
  -0.0164166   -0.0742658   -0.0336423    0.2113073    0.8684910   -0.4484112
  -0.0164652   -0.0744778   -0.0341464    0.0603770    0.8573926   -0.5111091
  -0.0212621   -0.0722055   -0.0203312   -0.6316539   -0.7064574    0.3192670
  -0.0162114   -0.0719430   -0.0200926    0.6923733   -0.4549841    0.5600077
  -0.0190785   -0.0722602   -0.0191246   -0.0207271   -0.7807233    0.6245330
  -0.0192092   -0.0716673   -0.0183085    0.0049772   -0.8222804    0.5690607
  -0.0183269   -0.0718485   -0.0186298    0.2135830   -0.7709273    0.6000445
  -0.0173419   -0.0708097   -0.0179397    0.4864728   -0.6540178    0.5793142
  -0.0152831   -0.0740273   -0.0235067    0.9732252    0.2264476   -0.0394225
  -0.0153266   -0.0737401   -0.0230862    0.9929175    0.1147957   -0.0306074
  -0.0221946   -0.0708780   -0.0196404   -0.7899837   -0.5932170    0.1549817
  -0.0222143   -0.0707457   -0.0190850   -0.7155274   -0.6645564    0.2153724
  -0.0220688   -0.0706201   -0.0184853   -0.6615834   -0.6926104    0.2873990
  -0.0216239   -0.0708771   -0.0181689   -0.4644557   -0.7858532    0.4083084
  -0.0194727   -0.0714136   -0.0179077   -0.0536360   -0.8194265    0.5706693
  -0.0210839   -0.0707341   -0.0174968   -0.2907504   -0.8207826    0.4917114
  -0.0204808   -0.0707849   -0.0173184   -0.1617379   -0.8116623    0.5612888
  -0.0219863   -0.0683543   -0.0237318   -0.8847260    0.1858574   -0.4274539
  -0.0215147   -0.0701254   -0.0254982   -0.8998032    0.1363925   -0.4144288
  -0.0227844   -0.0688091   -0.0215123   -0.9608820   -0.0951631   -0.2600957
  -0.0221801   -0.0687291   -0.0234597   -0.9226601    0.0982552   -0.3728863
  -0.0211066   -0.0706053   -0.0263456   -0.6186045    0.3839358   -0.6855084
  -0.0224525   -0.0705166   -0.0200040   -0.8982579   -0.4394326    0.0056227
  -0.0231771   -0.0687502   -0.0196356   -0.9487663   -0.2756371   -0.1544885
  -0.0196337   -0.0713776   -0.0273839    0.1313562    0.7736067   -0.6199017
  -0.0197673   -0.0710517   -0.0270146    0.2941981    0.7431712   -0.6009526
  -0.0201119   -0.0706490   -0.0267578    0.1104356    0.6841939   -0.7208902
  -0.0206814   -0.0703276   -0.0264860   -0.1763172    0.6020803   -0.7787243
  -0.0187387   -0.0725655   -0.0288710    0.2098756    0.8620404   -0.4613443
  -0.0187014   -0.0723122   -0.0284047    0.2152557    0.8211527   -0.5285577
  -0.0177564   -0.0737480   -0.0318620    0.0000096    0.9998310    0.0183862
  -0.0181036   -0.0728720   -0.0291440    0.2904510    0.8644477   -0.4103273
  -0.0178527   -0.0731316   -0.0295402    0.3598778    0.8510450   -0.3823747
  -0.0176989   -0.0737362   -0.0310136    0.4229763    0.8970646   -0.1279301
  -0.0174657   -0.0734831   -0.0298320    0.5163471    0.7958706   -0.3161892
  -0.0152878   -0.0740861   -0.0254745    0.8706084    0.4854985   -0.0795756
  -0.0154149   -0.0742107   -0.0267440    0.8357877    0.5380136   -0.1095459
  -0.0148471   -0.0752241   -0.0277810    0.7864183    0.6036732   -0.1308625
  -0.0149572   -0.0749630   -0.0273514    0.8149347    0.5652940   -0.1277655
  -0.0152625   -0.0745124   -0.0271278    0.8057485    0.5720852   -0.1532576
  -0.0154828   -0.0736855   -0.0245123    0.9052244    0.4227090   -0.0434272
  -0.0140661   -0.0762462   -0.0321220    0.5163226    0.8487445    0.1142095
  -0.0145959   -0.0758873   -0.0325434    0.6826476    0.7298893    0.0354112
  -0.0137251   -0.0764497   -0.0318038    0.4981212    0.8617135    0.0965664
  -0.0143725   -0.0762991   -0.0312359    0.4661177    0.8695923    0.1629216
  -0.0150542   -0.0756542   -0.0298924    0.6331351    0.7223881   -0.2780205
  -0.0152940   -0.0751594   -0.0292779    0.6660180    0.7005590   -0.2561974
  -0.0147953   -0.0755587   -0.0288323    0.7283863    0.6638652   -0.1695183
  -0.0148550   -0.0760438   -0.0308549    0.5101951    0.8580046   -0.0594064
  -0.0153647   -0.0757047   -0.0308533    0.6295844    0.7747588   -0.0580705
  -0.0153559   -0.0749823   -0.0328004    0.6923114    0.6918308    0.2051222
  -0.0164219   -0.0741200   -0.0330941    0.4781257    0.8660324   -0.1462316
  -0.0158967   -0.0744852   -0.0326691    0.5813697    0.7992192    0.1525057
  -0.0154353   -0.0731572   -0.0222582    0.9859267    0.0321630    0.1640554
  -0.0167238   -0.0703836   -0.0181589    0.8077994   -0.3722920    0.4570107
  -0.0162745   -0.0711508   -0.0194295    0.8554138   -0.2799301    0.4357825
  -0.0184741   -0.0712492   -0.0178239    0.1846532   -0.7728193    0.6071684
  -0.0176706   -0.0706311   -0.0174904    0.4153417   -0.6612557    0.6246857
  -0.0156331   -0.0725362   -0.0214808    0.9354883   -0.0964369    0.3399434
  -0.0158932   -0.0713923   -0.0204846    0.9819014    0.0898712    0.1667115
  -0.0228148   -0.0696792   -0.0181013   -0.7904721   -0.5901676    0.1638781
  -0.0227585   -0.0699129   -0.0192343   -0.8974109   -0.4407277   -0.0203168
  -0.0226414   -0.0696507   -0.0174142   -0.6881430   -0.6812048    0.2498385
  -0.0214125   -0.0701599   -0.0167094   -0.2907822   -0.8099200    0.5093873
  -0.0218106   -0.0698228   -0.0164091   -0.4014135   -0.8004375    0.4451595
  -0.0190290   -0.0710522   -0.0174418    0.0119084   -0.7927332    0.6094525
  -0.0207584   -0.0705174   -0.0169333   -0.1855567   -0.8331685    0.5209596
  -0.0223075   -0.0669162   -0.0223261   -0.7253847    0.4021107   -0.5586806
  -0.0221989   -0.0682243   -0.0232165   -0.8851090    0.1937698   -0.4231257
  -0.0217607   -0.0684900   -0.0242402   -0.7433838    0.3703434   -0.5569796
  -0.0229561   -0.0669619   -0.0210883   -0.9207940    0.0619760   -0.3850939
  -0.0230707   -0.0682700   -0.0206858   -0.9619582   -0.1371554   -0.2362729
  -0.0233046   -0.0685941   -0.0191235   -0.9397740   -0.3139784   -0.1350641
  -0.0236284   -0.0670707   -0.0191326   -0.9538640   -0.1466862   -0.2619668
  -0.0234874   -0.0679904   -0.0189982   -0.9531856   -0.2174701   -0.2101047
  -0.0188215   -0.0711857   -0.0266911    0.2746709    0.7825292   -0.5587521
  -0.0200621   -0.0699451   -0.0259949    0.3674708    0.6811122   -0.6332862
  -0.0194360   -0.0701859   -0.0256529    0.4008731    0.7276741   -0.5565889
  -0.0208655   -0.0699818   -0.0261461   -0.2031320    0.6178799   -0.7595800
  -0.0177081   -0.0724974   -0.0280267    0.3784757    0.8143658   -0.4399597
  -0.0173278   -0.0738727   -0.0320947    0.2596200    0.9650412    0.0359569
  -0.0172118   -0.0733538   -0.0292095    0.5922345    0.7250107   -0.3515934
  -0.0169386   -0.0741820   -0.0309770    0.6173835    0.7827316   -0.0785418
  -0.0165576   -0.0743651   -0.0302291    0.6486746    0.7240902   -0.2343387
  -0.0167065   -0.0740491   -0.0298577    0.6251559    0.7143938   -0.3143592
  -0.0158667   -0.0734937   -0.0267746    0.7953154    0.5622738   -0.2265425
  -0.0160860   -0.0730450   -0.0265306    0.7190295    0.6329615   -0.2869781
  -0.0162114   -0.0722526   -0.0245363    0.8508839    0.4937067   -0.1795835
  -0.0165523   -0.0723022   -0.0259151    0.7422353    0.6255973   -0.2402392
  -0.0157441   -0.0731183   -0.0242916    0.9075149    0.4106715   -0.0881227
  -0.0156279   -0.0730825   -0.0235163    0.8861402    0.4042138   -0.2266424
  -0.0172479   -0.0738789   -0.0331420    0.1472044    0.9544072   -0.2596877
  -0.0148594   -0.0757525   -0.0320843    0.5610464    0.7619164    0.3235898
  -0.0158671   -0.0751916   -0.0307241    0.7126639    0.6854616   -0.1491729
  -0.0152594   -0.0748237   -0.0282084    0.7242088    0.6484972   -0.2344632
  -0.0148150   -0.0760476   -0.0313791    0.5259687    0.8391834    0.1383043
  -0.0152783   -0.0757488   -0.0314667    0.5684440    0.7912932    0.2252256
  -0.0166962   -0.0739845   -0.0326189    0.4019494    0.9095213    0.1058662
  -0.0154625   -0.0727132   -0.0226368    0.9311697    0.3246681   -0.1658721
  -0.0169944   -0.0702318   -0.0176808    0.6399226   -0.5246216    0.5614902
  -0.0164725   -0.0705291   -0.0186503    0.8073120   -0.3507284    0.4745913
  -0.0160440   -0.0709309   -0.0199112    0.9836956    0.0563750    0.1707771
  -0.0162459   -0.0706653   -0.0191581    0.9159495   -0.1974560    0.3493532
  -0.0185089   -0.0705950   -0.0170375    0.2218644   -0.7538762    0.6184229
  -0.0176637   -0.0695838   -0.0163536    0.4889050   -0.6755056    0.5519638
  -0.0156881   -0.0718598   -0.0213902    0.9760075    0.2130373    0.0449940
  -0.0231006   -0.0692036   -0.0178927   -0.8428724   -0.5316086    0.0834167
  -0.0235863   -0.0680462   -0.0184191   -0.9423084   -0.3049677   -0.1380206
  -0.0233073   -0.0687830   -0.0182930   -0.9121159   -0.4077663   -0.0420864
  -0.0232890   -0.0686418   -0.0163914   -0.7232649   -0.6596888    0.2042023
  -0.0225549   -0.0690865   -0.0158519   -0.5649977   -0.7610703    0.3186684
  -0.0232725   -0.0687730   -0.0169483   -0.8530135   -0.5208814    0.0324112
  -0.0206185   -0.0699202   -0.0160608   -0.0989634   -0.8086029    0.5799721
  -0.0226697   -0.0685854   -0.0149545   -0.4319049   -0.8013973    0.4137880
  -0.0220197   -0.0681767   -0.0138090   -0.2036372   -0.8418021    0.4999011
  -0.0224333   -0.0665944   -0.0219522   -0.6605809    0.4364833   -0.6108316
  -0.0218068   -0.0677045   -0.0235662   -0.4088703    0.6239425   -0.6659736
  -0.0214533   -0.0686593   -0.0247005   -0.3419966    0.6395359   -0.6884999
  -0.0210438   -0.0696547   -0.0257888   -0.4854356    0.5250542   -0.6990496
  -0.0232350   -0.0663267   -0.0203419   -0.9075893    0.0977448   -0.4083229
  -0.0230519   -0.0664818   -0.0208415   -0.8837240    0.1464723   -0.4444972
  -0.0225684   -0.0662684   -0.0215833   -0.6044120    0.4431485   -0.6620465
  -0.0235242   -0.0664303   -0.0196471   -0.9402172   -0.0281177   -0.3394127
  -0.0238040   -0.0671837   -0.0184042   -0.9604710   -0.2141470   -0.1778668
  -0.0239501   -0.0667541   -0.0181270   -0.9456310   -0.2198967   -0.2396403
  -0.0240854   -0.0660724   -0.0180581   -0.9373923   -0.1244872   -0.3252670
  -0.0185430   -0.0705871   -0.0257883    0.4067762    0.7505703   -0.5207470
  -0.0194423   -0.0695513   -0.0248440    0.3119905    0.7483231   -0.5853840
  -0.0197897   -0.0691837   -0.0246020    0.5920099    0.6417435   -0.4875341
  -0.0201574   -0.0695723   -0.0256579    0.5226361    0.6597470   -0.5399865
  -0.0200610   -0.0693485   -0.0252176    0.5499703    0.6451685   -0.5303681
  -0.0204908   -0.0691568   -0.0254112    0.1058284    0.7044134   -0.7018562
  -0.0208729   -0.0688006   -0.0251244   -0.0728950    0.6990171   -0.7113799
  -0.0173238   -0.0728505   -0.0283154    0.5325183    0.7502841   -0.3917883
  -0.0171952   -0.0723862   -0.0273312    0.5444180    0.7446928   -0.3860591
  -0.0176707   -0.0721795   -0.0274497    0.5132108    0.7508902   -0.4156664
  -0.0169433   -0.0741214   -0.0318649    0.5207623    0.8355428    0.1751425
  -0.0156850   -0.0738671   -0.0270918    0.7256592    0.6247612   -0.2882571
  -0.0163674   -0.0746102   -0.0306528    0.6948315    0.7150883   -0.0765370
  -0.0164807   -0.0745643   -0.0313890    0.6826089    0.7136751    0.1572034
  -0.0160403   -0.0748815   -0.0303505    0.6492630    0.7010316   -0.2949784
  -0.0169672   -0.0722901   -0.0266890    0.6103093    0.7110179   -0.3492508
  -0.0163582   -0.0718510   -0.0241075    0.8146164    0.5231823   -0.2503606
  -0.0166140   -0.0719590   -0.0251790    0.7553105    0.5911586   -0.2829090
  -0.0159485   -0.0726037   -0.0241820    0.9034268    0.4036979   -0.1443883
  -0.0162821   -0.0715455   -0.0231309    0.8302934    0.5169844   -0.2081826
  -0.0176990   -0.0708966   -0.0253388    0.6135511    0.6816557   -0.3986234
  -0.0158855   -0.0752255   -0.0313725    0.7052145    0.7054211    0.0710888
  -0.0155473   -0.0754096   -0.0318182    0.6450757    0.7013698    0.3032452
  -0.0156601   -0.0719761   -0.0219560    0.9142059    0.3856329   -0.1245583
  -0.0156889   -0.0721638   -0.0224768    0.7784011    0.5393580   -0.3212237
  -0.0161234   -0.0702607   -0.0194711    0.9803011    0.0378203    0.1938538
  -0.0161949   -0.0699619   -0.0190671    0.9857111    0.1571202    0.0607194
  -0.0183985   -0.0702449   -0.0166344    0.3285533   -0.7266952    0.6032966
  -0.0191985   -0.0694851   -0.0154356    0.1089655   -0.8013456    0.5881936
  -0.0184976   -0.0699340   -0.0162450    0.2860164   -0.7565530    0.5880664
  -0.0168119   -0.0692532   -0.0169671    0.8090876   -0.4242910    0.4066379
  -0.0168807   -0.0687441   -0.0162118    0.7226330   -0.5693195    0.3920164
  -0.0173089   -0.0687525   -0.0156297    0.5247000   -0.6903712    0.4980737
  -0.0183356   -0.0695856   -0.0158307    0.3458720   -0.7608375    0.5490891
  -0.0182900   -0.0692544   -0.0154260    0.4223591   -0.7066742    0.5676480
  -0.0158780   -0.0712653   -0.0212591    0.8761971    0.4453145   -0.1843193
  -0.0159784   -0.0707471   -0.0203739    0.8976475    0.4119037   -0.1567302
  -0.0237157   -0.0680904   -0.0169491   -0.9253187   -0.3630734   -0.1093756
  -0.0230844   -0.0684222   -0.0151854   -0.6248629   -0.7269067    0.2848737
  -0.0237417   -0.0680435   -0.0163355   -0.8529112   -0.5203645    0.0419907
  -0.0204594   -0.0690488   -0.0147414   -0.0434400   -0.8209009    0.5694161
  -0.0228679   -0.0680509   -0.0141051   -0.4069730   -0.8096617    0.4228721
  -0.0203307   -0.0687382   -0.0143028   -0.0189908   -0.8262901    0.5629246
  -0.0205135   -0.0684739   -0.0138945   -0.0225278   -0.8563985    0.5158238
  -0.0212995   -0.0677107   -0.0126953   -0.1414226   -0.8524242    0.5033614
  -0.0222161   -0.0679064   -0.0134078   -0.2529353   -0.8417208    0.4770009
  -0.0214729   -0.0678845   -0.0240111   -0.2152001    0.6704394   -0.7100704
  -0.0214197   -0.0671411   -0.0232817    0.1114840    0.7736648   -0.6237099
  -0.0215443   -0.0668198   -0.0229073   -0.3037119    0.6704195   -0.6769762
  -0.0227018   -0.0659440   -0.0212152   -0.8458448    0.2158834   -0.4877919
  -0.0233462   -0.0641012   -0.0195480   -0.7804977    0.2006118   -0.5920965
  -0.0237213   -0.0654557   -0.0191657   -0.9151562    0.0162308   -0.4027725
  -0.0241908   -0.0663907   -0.0175807   -0.9367688   -0.1873251   -0.2955903
  -0.0243148   -0.0665612   -0.0170251   -0.9251447   -0.2873624   -0.2480526
  -0.0239250   -0.0652275   -0.0187320   -0.8936001   -0.0272109   -0.4480385
  -0.0246426   -0.0650325   -0.0170413   -0.9242040   -0.1404092   -0.3551511
  -0.0187147   -0.0696660   -0.0245843    0.3560151    0.7283811   -0.5854180
  -0.0181434   -0.0701260   -0.0247401    0.5482968    0.6862133   -0.4779978
  -0.0200188   -0.0678113   -0.0230746    0.4680557    0.7039393   -0.5342222
  -0.0201422   -0.0689116   -0.0248669    0.6576202    0.5927176   -0.4649963
  -0.0203619   -0.0682015   -0.0241675    0.4020409    0.7017895   -0.5880940
  -0.0171898   -0.0706380   -0.0240961    0.7105229    0.6133806   -0.3448500
  -0.0167529   -0.0712645   -0.0241433    0.7797238    0.5583731   -0.2832849
  -0.0166650   -0.0708525   -0.0231279    0.8180031    0.5127935   -0.2606027
  -0.0159328   -0.0722803   -0.0231069    0.8351040    0.4896058   -0.2507737
  -0.0163896   -0.0711875   -0.0227832    0.8023954    0.5442948   -0.2447545
  -0.0162325   -0.0711799   -0.0220834    0.8250360    0.5028153   -0.2578610
  -0.0159215   -0.0714707   -0.0217673    0.7865974    0.5361976   -0.3061971
  -0.0159968   -0.0716814   -0.0222323    0.7545742    0.5561639   -0.3482809
  -0.0162762   -0.0696590   -0.0186681    0.9907770    0.0743442    0.1132866
  -0.0165746   -0.0694515   -0.0175643    0.9265618   -0.2240304    0.3021483
  -0.0160719   -0.0703724   -0.0200383    0.9674699    0.2507357    0.0336679
  -0.0186906   -0.0687768   -0.0145730    0.2889673   -0.7682424    0.5712281
  -0.0190963   -0.0685643   -0.0141712    0.1541713   -0.8037560    0.5746368
  -0.0164762   -0.0682287   -0.0165534    0.9704034   -0.2014423    0.1331849
  -0.0179642   -0.0681794   -0.0142413    0.3937580   -0.7584059    0.5193988
  -0.0163409   -0.0708230   -0.0217350    0.8451193    0.4685624   -0.2573377
  -0.0239603   -0.0676782   -0.0160074   -0.7798522   -0.6182036    0.0982590
  -0.0240219   -0.0666384   -0.0128624   -0.5661518   -0.7256227    0.3910803
  -0.0236128   -0.0677212   -0.0145010   -0.6443417   -0.7123612    0.2781461
  -0.0234332   -0.0680246   -0.0149256   -0.6817609   -0.7111117    0.1718202
  -0.0232411   -0.0671783   -0.0129058   -0.4337592   -0.7578787    0.4873119
  -0.0227164   -0.0675761   -0.0131268   -0.3077663   -0.8174323    0.4869131
  -0.0189620   -0.0682464   -0.0137371    0.2005689   -0.8237592    0.5302762
  -0.0198501   -0.0676314   -0.0124371    0.0683255   -0.8596829    0.5062380
  -0.0218872   -0.0671557   -0.0119509   -0.2965518   -0.8033834    0.5163644
  -0.0213317   -0.0666203   -0.0109305   -0.1191439   -0.8324775    0.5410970
  -0.0207729   -0.0671644   -0.0116935   -0.0481934   -0.8467080    0.5298706
  -0.0218756   -0.0668765   -0.0115090   -0.2532382   -0.8183895    0.5158576
  -0.0216621   -0.0665013   -0.0225294   -0.0464549    0.7432835   -0.6673616
  -0.0213007   -0.0674600   -0.0236590    0.1646254    0.7567572   -0.6326270
  -0.0225053   -0.0653009   -0.0210390   -0.4801636    0.4953793   -0.7239077
  -0.0238617   -0.0643013   -0.0188248   -0.8445070    0.0400347   -0.5340460
  -0.0238437   -0.0635833   -0.0187510   -0.8144877    0.0743540   -0.5753966
  -0.0217955   -0.0661772   -0.0221611   -0.0376666    0.7342389   -0.6778454
  -0.0219811   -0.0650633   -0.0211209   -0.1469487    0.6229961   -0.7682981
  -0.0217293   -0.0657836   -0.0218038    0.1233179    0.7112279   -0.6920603
  -0.0220838   -0.0642600   -0.0204760   -0.1087816    0.5819327   -0.8059286
  -0.0248492   -0.0647368   -0.0166635   -0.9002560   -0.2004964   -0.3864459
  -0.0245432   -0.0666692   -0.0156428   -0.8925260   -0.4430622   -0.0842216
  -0.0246935   -0.0660498   -0.0161981   -0.9202680   -0.3199370   -0.2252713
  -0.0249006   -0.0653395   -0.0161691   -0.9234154   -0.2373801   -0.3015870
  -0.0241331   -0.0641553   -0.0183351   -0.8852482   -0.0301798   -0.4641389
  -0.0185852   -0.0693530   -0.0241449    0.5439677    0.6772666   -0.4953879
  -0.0193792   -0.0675456   -0.0224847    0.4408126    0.6829850   -0.5824222
  -0.0176116   -0.0698538   -0.0235245    0.6723725    0.6432941   -0.3661801
  -0.0204827   -0.0678607   -0.0238093    0.5847878    0.6922113   -0.4229265
  -0.0204216   -0.0676341   -0.0233161    0.5754466    0.6913863   -0.4368595
  -0.0201706   -0.0673427   -0.0226042    0.4177132    0.7012048   -0.5777781
  -0.0169927   -0.0705802   -0.0234286    0.7544317    0.5808623   -0.3056662
  -0.0164876   -0.0708186   -0.0224439    0.8811394    0.4241541   -0.2090134
  -0.0168416   -0.0699372   -0.0219205    0.8165872    0.5080930   -0.2739102
  -0.0163710   -0.0691187   -0.0184712    0.9793199    0.2022736    0.0042312
  -0.0164160   -0.0690212   -0.0178896    0.9952078    0.0218100    0.0953189
  -0.0164579   -0.0687755   -0.0174354    0.9935431   -0.0720447    0.0876455
  -0.0164979   -0.0698843   -0.0205434    0.8493036    0.4679689   -0.2443123
  -0.0164817   -0.0684600   -0.0170324    0.9930213    0.0894496   -0.0768603
  -0.0164797   -0.0679584   -0.0161101    0.8583923   -0.4187878    0.2962760
  -0.0163910   -0.0673682   -0.0165879    0.9807050    0.0611385   -0.1856871
  -0.0169080   -0.0684631   -0.0157810    0.7165282   -0.5686850    0.4039613
  -0.0171352   -0.0683276   -0.0152752    0.6198141   -0.6308533    0.4667489
  -0.0174450   -0.0676187   -0.0139245    0.5316619   -0.7010150    0.4753036
  -0.0182040   -0.0679859   -0.0137861    0.3789033   -0.7681142    0.5161714
  -0.0164344   -0.0704485   -0.0213990    0.8544591    0.4597978   -0.2418380
  -0.0241187   -0.0673681   -0.0149606   -0.7797151   -0.6136754    0.1242857
  -0.0242442   -0.0667287   -0.0135104   -0.6957005   -0.6619931    0.2788655
  -0.0243375   -0.0662012   -0.0126307   -0.6775311   -0.6357260    0.3698703
  -0.0240596   -0.0660426   -0.0120281   -0.5744998   -0.6657572    0.4761484
  -0.0241045   -0.0671973   -0.0144274   -0.7653581   -0.6177565    0.1805653
  -0.0235325   -0.0659147   -0.0113447   -0.4531824   -0.7210762    0.5240943
  -0.0185003   -0.0678207   -0.0133181    0.3520645   -0.7873176    0.5061438
  -0.0191074   -0.0673075   -0.0120991    0.1973517   -0.8232994    0.5321939
  -0.0200252   -0.0671091   -0.0115717    0.0216286   -0.8382892    0.5447967
  -0.0208304   -0.0666013   -0.0108337   -0.0545992   -0.8247493    0.5628566
  -0.0216775   -0.0663272   -0.0105824   -0.2495596   -0.7711354    0.5857219
  -0.0203476   -0.0668438   -0.0111933   -0.0278854   -0.8361764    0.5477512
  -0.0209379   -0.0677481   -0.0240078    0.0505195    0.6870807   -0.7248227
  -0.0228174   -0.0641358   -0.0200737   -0.4975287    0.4274356   -0.7548271
  -0.0236518   -0.0626847   -0.0187270   -0.7035245    0.1809305   -0.6872536
  -0.0246234   -0.0636315   -0.0175413   -0.8607903   -0.1000848   -0.4990221
  -0.0245859   -0.0626945   -0.0176496   -0.7908638    0.0733702   -0.6075782
  -0.0253087   -0.0625383   -0.0165987   -0.8239546   -0.0664181   -0.5627500
  -0.0217619   -0.0646578   -0.0207408    0.2187126    0.6725769   -0.7069690
  -0.0223370   -0.0638796   -0.0201801   -0.0106016    0.5522890   -0.8335853
  -0.0209794   -0.0647788   -0.0205204    0.2660646    0.6189482   -0.7389944
  -0.0221479   -0.0633589   -0.0199042   -0.0177299    0.5306700   -0.8473931
  -0.0260643   -0.0622885   -0.0154344   -0.8806272   -0.2617790   -0.3949273
  -0.0259657   -0.0636649   -0.0144545   -0.9150384   -0.3287983   -0.2336587
  -0.0252643   -0.0647000   -0.0155706   -0.9144721   -0.2416776   -0.3245501
  -0.0252072   -0.0633056   -0.0166027   -0.8582647   -0.1699503   -0.4842506
  -0.0250864   -0.0654481   -0.0154460   -0.9190292   -0.3473837   -0.1863059
  -0.0246508   -0.0665201   -0.0151192   -0.8717639   -0.4899188   -0.0027094
  -0.0176831   -0.0695472   -0.0231074    0.7024952    0.6069457   -0.3716416
  -0.0178419   -0.0691446   -0.0228100    0.6786973    0.6079794   -0.4119843
  -0.0195293   -0.0661079   -0.0210387    0.5667257    0.6170298   -0.5459819
  -0.0202655   -0.0655921   -0.0209637    0.3222257    0.6285423   -0.7078878
  -0.0205134   -0.0669212   -0.0223399    0.4135697    0.6819159   -0.6032834
  -0.0209909   -0.0665274   -0.0223565    0.5065818    0.7130456   -0.4847070
  -0.0170759   -0.0689515   -0.0207839    0.7652128    0.5579191   -0.3212098
  -0.0168954   -0.0693607   -0.0210721    0.8196198    0.5026545   -0.2748851
  -0.0165491   -0.0685106   -0.0183505    0.9309701    0.3281564   -0.1600252
  -0.0164433   -0.0677873   -0.0169184    0.9908432    0.0509265   -0.1250453
  -0.0167578   -0.0692340   -0.0202802    0.8377625    0.4777825   -0.2643442
  -0.0163988   -0.0674952   -0.0158096    0.9490814   -0.2758037    0.1522391
  -0.0168040   -0.0679441   -0.0153586    0.7936381   -0.4893643    0.3614709
  -0.0167296   -0.0671511   -0.0173652    0.8342062    0.3718826   -0.4071896
  -0.0165320   -0.0662233   -0.0162374    0.7985779    0.3250231   -0.5065898
  -0.0168619   -0.0677303   -0.0184040    0.8712401    0.3672760   -0.3256517
  -0.0163776   -0.0657608   -0.0157557    0.8646692    0.2087412   -0.4569183
  -0.0163101   -0.0670354   -0.0155048    0.9551553   -0.2875273    0.0707556
  -0.0162985   -0.0665517   -0.0158273    0.9839121   -0.0336078   -0.1754638
  -0.0170262   -0.0674973   -0.0143317    0.7007517   -0.5966709    0.3910637
  -0.0175304   -0.0665435   -0.0121584    0.4917169   -0.7410388    0.4572483
  -0.0247916   -0.0655954   -0.0125689   -0.7591742   -0.5653171    0.3226005
  -0.0243643   -0.0655913   -0.0118047   -0.6628242   -0.6025867    0.4444699
  -0.0240858   -0.0653369   -0.0111525   -0.5970529   -0.6328694    0.4929546
  -0.0248428   -0.0661152   -0.0141595   -0.8379018   -0.5285064    0.1363873
  -0.0247024   -0.0664326   -0.0145339   -0.8333651   -0.5457726    0.0873785
  -0.0245434   -0.0662688   -0.0132900   -0.7482409   -0.6101991    0.2603702
  -0.0242830   -0.0646959   -0.0105232   -0.5901534   -0.6233194    0.5130223
  -0.0182405   -0.0668936   -0.0120235    0.3866131   -0.7638875    0.5167265
  -0.0188549   -0.0665239   -0.0111285    0.3542635   -0.7653588    0.5373297
  -0.0199665   -0.0665064   -0.0107215    0.1147474   -0.7972550    0.5926361
  -0.0203997   -0.0662840   -0.0103325   -0.0137584   -0.8048402    0.5933320
  -0.0192119   -0.0663648   -0.0106701    0.2568488   -0.7749940    0.5774193
  -0.0233191   -0.0646734   -0.0096527   -0.4844426   -0.6078134    0.6291886
  -0.0223904   -0.0655521   -0.0100508   -0.3780862   -0.7003156    0.6054824
  -0.0216029   -0.0658304   -0.0099659   -0.2244159   -0.7375206    0.6369465
  -0.0221109   -0.0649022   -0.0091910   -0.3258370   -0.6742197    0.6627655
  -0.0222541   -0.0629209   -0.0196255    0.0041899    0.4587240   -0.8885689
  -0.0232610   -0.0629149   -0.0191826   -0.5205630    0.3296324   -0.7876272
  -0.0231204   -0.0622485   -0.0190393   -0.4729399    0.2186570   -0.8535321
  -0.0238558   -0.0616314   -0.0183793   -0.6292117    0.0802774   -0.7730771
  -0.0245941   -0.0619658   -0.0175912   -0.7735045    0.0085713   -0.6337329
  -0.0255725   -0.0612062   -0.0164337   -0.7859611   -0.0677735   -0.6145502
  -0.0264644   -0.0614360   -0.0150977   -0.8844512   -0.1537693   -0.4405690
  -0.0260188   -0.0612112   -0.0158576   -0.8155945   -0.0943604   -0.5708780
  -0.0211470   -0.0650973   -0.0209058    0.3291428    0.6638019   -0.6715892
  -0.0213866   -0.0634317   -0.0196716    0.3076875    0.5435912   -0.7809206
  -0.0265069   -0.0620016   -0.0146318   -0.9200991   -0.2805347   -0.2733458
  -0.0258855   -0.0640897   -0.0134073   -0.9204434   -0.3906314    0.0138196
  -0.0262881   -0.0631036   -0.0136539   -0.9371185   -0.3481180    0.0249543
  -0.0255795   -0.0645336   -0.0145558   -0.9172606   -0.3815668   -0.1141920
  -0.0253297   -0.0652121   -0.0143554   -0.8978881   -0.4395934   -0.0235496
  -0.0250771   -0.0657291   -0.0145372   -0.8594158   -0.5109052    0.0195034
  -0.0181732   -0.0680831   -0.0217610    0.6760753    0.6185052   -0.4004665
  -0.0183153   -0.0674410   -0.0209886    0.6982222    0.5812919   -0.4178342
  -0.0197018   -0.0653194   -0.0203676    0.5698517    0.5780047   -0.5841058
  -0.0190146   -0.0662582   -0.0204842    0.6647733    0.5707307   -0.4820196
  -0.0205065   -0.0643387   -0.0200555    0.3694465    0.5982639   -0.7110483
  -0.0171249   -0.0683932   -0.0199213    0.8134854    0.4836424   -0.3230040
  -0.0165187   -0.0672148   -0.0149281    0.8513561   -0.4648505    0.2431190
  -0.0169268   -0.0651560   -0.0160180    0.7003430    0.4606124   -0.5453034
  -0.0180238   -0.0643804   -0.0167757    0.7353795    0.4845112   -0.4737783
  -0.0165673   -0.0652066   -0.0156468    0.6574622    0.4180783   -0.6268604
  -0.0178298   -0.0656127   -0.0177134    0.7557754    0.4987891   -0.4242793
  -0.0175751   -0.0667683   -0.0186996    0.7699551    0.5091476   -0.3846270
  -0.0162827   -0.0667777   -0.0150438    0.9654496   -0.2600938   -0.0160702
  -0.0160950   -0.0659028   -0.0150646    0.9714992   -0.0284769   -0.2353262
  -0.0166036   -0.0662501   -0.0128699    0.6982903   -0.6192564    0.3590434
  -0.0163525   -0.0667015   -0.0144370    0.8416000   -0.4944122    0.2174074
  -0.0179996   -0.0664976   -0.0116321    0.4329029   -0.7230949    0.5382646
  -0.0170059   -0.0660004   -0.0118273    0.5744350   -0.6568242    0.4884736
  -0.0246675   -0.0659317   -0.0129297   -0.8144196   -0.5347391    0.2253326
  -0.0250397   -0.0653960   -0.0130254   -0.8020574   -0.5696511    0.1794480
  -0.0250617   -0.0651010   -0.0123735   -0.7832165   -0.5414183    0.3056766
  -0.0248269   -0.0649964   -0.0117363   -0.7204456   -0.5633136    0.4045194
  -0.0250381   -0.0642771   -0.0110447   -0.7273873   -0.5642892    0.3904939
  -0.0248401   -0.0659595   -0.0136173   -0.8216767   -0.5360397    0.1936719
  -0.0247734   -0.0641354   -0.0104319   -0.6761378   -0.4989664    0.5420979
  -0.0241768   -0.0641994   -0.0099526   -0.5718456   -0.3752762    0.7294932
  -0.0183908   -0.0660232   -0.0107726    0.3970846   -0.7157177    0.5745189
  -0.0197336   -0.0658371   -0.0098875    0.1813248   -0.7513121    0.6345482
  -0.0192568   -0.0660411   -0.0102820    0.2834580   -0.7239695    0.6289037
  -0.0205522   -0.0656825   -0.0095293    0.0362256   -0.7470888    0.6637364
  -0.0231201   -0.0643062   -0.0092453   -0.4649683   -0.4054612    0.7870233
  -0.0225920   -0.0648199   -0.0093669   -0.3810159   -0.6272100    0.6792897
  -0.0212072   -0.0654628   -0.0094257   -0.1924354   -0.7350831    0.6500934
  -0.0226536   -0.0644058   -0.0090569   -0.4265958   -0.5275266    0.7346644
  -0.0214586   -0.0646189   -0.0086094   -0.2214331   -0.6819038    0.6971188
  -0.0225150   -0.0624946   -0.0193702   -0.0395373    0.3742047   -0.9265029
  -0.0230229   -0.0615641   -0.0189204   -0.3088701    0.2694806   -0.9121291
  -0.0246018   -0.0602849   -0.0176621   -0.6824030    0.0866305   -0.7258245
  -0.0250135   -0.0610247   -0.0171323   -0.7586476   -0.0368464   -0.6504584
  -0.0257528   -0.0606344   -0.0162839   -0.7846087   -0.0332622   -0.6190984
  -0.0261800   -0.0606425   -0.0156995   -0.8342291   -0.0527092   -0.5488931
  -0.0266750   -0.0617183   -0.0142348   -0.9594409   -0.2194228   -0.1769939
  -0.0266036   -0.0608805   -0.0149229   -0.9096086   -0.0781918   -0.4080420
  -0.0208658   -0.0636334   -0.0196173    0.3195049    0.5793880   -0.7498174
  -0.0214498   -0.0625291   -0.0191009    0.4351612    0.4329524   -0.7894220
  -0.0209946   -0.0621529   -0.0186436    0.5339239    0.4551919   -0.7125487
  -0.0219004   -0.0622606   -0.0192227    0.3438775    0.4039221   -0.8477000
  -0.0255337   -0.0646690   -0.0128410   -0.8961623   -0.4218772    0.1375237
  -0.0256560   -0.0645900   -0.0136083   -0.8989575   -0.4378503    0.0127494
  -0.0257616   -0.0641234   -0.0126808   -0.9299468   -0.3447360    0.1278907
  -0.0259986   -0.0636089   -0.0129863   -0.9441228   -0.3219210    0.0707034
  -0.0263033   -0.0629495   -0.0131163   -0.9402488   -0.3304393    0.0821098
  -0.0251372   -0.0655727   -0.0140098   -0.7932010   -0.5987760    0.1109032
  -0.0186815   -0.0662599   -0.0200480    0.7080764    0.5488231   -0.4443209
  -0.0196275   -0.0641712   -0.0189417    0.7056837    0.5272275   -0.4733304
  -0.0202130   -0.0625616   -0.0181554    0.6893813    0.4887025   -0.5347179
  -0.0203382   -0.0639788   -0.0196487    0.4911992    0.5610686   -0.6662772
  -0.0171680   -0.0633905   -0.0147284    0.5663956    0.5080003   -0.6489466
  -0.0174029   -0.0643180   -0.0158017    0.6961495    0.4847212   -0.5295481
  -0.0190540   -0.0639178   -0.0177968    0.7204613    0.4979435   -0.4826881
  -0.0180605   -0.0629450   -0.0154984    0.7163855    0.4488638   -0.5341471
  -0.0162116   -0.0642368   -0.0147293    0.6511446    0.3441503   -0.6764402
  -0.0185940   -0.0653563   -0.0187712    0.7272480    0.5256106   -0.4414112
  -0.0160683   -0.0651839   -0.0149780    0.9101045    0.0746458   -0.4076001
  -0.0159497   -0.0656592   -0.0144776    0.9769002   -0.1847765   -0.1073485
  -0.0160328   -0.0658462   -0.0137543    0.9130417   -0.3868132    0.1293460
  -0.0159963   -0.0655916   -0.0132867    0.8493245   -0.4619788    0.2553890
  -0.0164565   -0.0658143   -0.0125311    0.7719658   -0.5191524    0.3668101
  -0.0166509   -0.0656925   -0.0120064    0.7114755   -0.5526107    0.4340784
  -0.0175658   -0.0659447   -0.0113258    0.4877109   -0.6533271    0.5790524
  -0.0169401   -0.0652616   -0.0110898    0.6433969   -0.5426145    0.5400092
  -0.0251805   -0.0647057   -0.0120606   -0.7830019   -0.5193168    0.3423713
  -0.0256139   -0.0640280   -0.0120556   -0.9110763   -0.3762081    0.1685449
  -0.0255595   -0.0635115   -0.0111321   -0.8301351   -0.3763200    0.4114109
  -0.0252526   -0.0653027   -0.0135903   -0.8492040   -0.5171231    0.1069407
  -0.0247987   -0.0636758   -0.0101513   -0.6933685   -0.1923965    0.6944233
  -0.0177839   -0.0650544   -0.0101076    0.5018961   -0.5856084    0.6365242
  -0.0198471   -0.0655207   -0.0095073    0.2103456   -0.7173072    0.6642477
  -0.0189383   -0.0652151   -0.0095587    0.3373883   -0.6555133    0.6756267
  -0.0197112   -0.0651306   -0.0091317    0.2182856   -0.6575861    0.7210631
  -0.0207176   -0.0653439   -0.0091780    0.0454567   -0.6698517    0.7411021
  -0.0235014   -0.0635944   -0.0092346   -0.4903869    0.0602141    0.8694222
  -0.0230759   -0.0637618   -0.0090223   -0.4799908   -0.1058410    0.8708654
  -0.0241650   -0.0637230   -0.0097180   -0.5376016   -0.0259063    0.8428009
  -0.0219701   -0.0644330   -0.0086859   -0.3774367   -0.5732702    0.7272571
  -0.0224374   -0.0639871   -0.0086897   -0.5187281   -0.1407966    0.8432660
  -0.0226802   -0.0610965   -0.0188506   -0.0963511    0.3587587   -0.9284442
  -0.0221195   -0.0616350   -0.0190329    0.2436182    0.3977977   -0.8845378
  -0.0237130   -0.0607386   -0.0184269   -0.4623870    0.2237887   -0.8579725
  -0.0240424   -0.0598345   -0.0179156   -0.4281959    0.3613523   -0.8282951
  -0.0246604   -0.0597634   -0.0174418   -0.5830950    0.2681493   -0.7668742
  -0.0261225   -0.0597135   -0.0157954   -0.8104194    0.0275427   -0.5852024
  -0.0252043   -0.0597231   -0.0169255   -0.6733038    0.2033174   -0.7108615
  -0.0268042   -0.0613882   -0.0138702   -0.9817022   -0.1903963    0.0031730
  -0.0267821   -0.0606836   -0.0144561   -0.9677805   -0.0700502   -0.2418550
  -0.0266626   -0.0601978   -0.0148376   -0.9127453    0.0097371   -0.4084130
  -0.0216267   -0.0615034   -0.0187605    0.4546796    0.3772263   -0.8068251
  -0.0206624   -0.0614382   -0.0178270    0.6223095    0.4861774   -0.6134839
  -0.0208330   -0.0605303   -0.0172832    0.6937072    0.4121980   -0.5906463
  -0.0216183   -0.0605135   -0.0182485    0.4542619    0.4370120   -0.7763161
  -0.0212396   -0.0601048   -0.0176617    0.6235896    0.4051230   -0.6685891
  -0.0210819   -0.0595710   -0.0171474    0.7608454    0.3318144   -0.5576858
