NORM_ASCII
2925 5846
   0.0286155   -0.0175608   -0.0102857   -0.0214529   -0.5512767    0.8340467
   0.0272035   -0.0158242   -0.0091650    0.0832796   -0.6112247    0.7870635
   0.0270057   -0.0067581   -0.0145849    0.8902621    0.4034814   -0.2112725
   0.0265541   -0.0065227   -0.0144336    0.4113873    0.7969069   -0.4423798
   0.0263899   -0.0063533   -0.0142194    0.2602590    0.8476718   -0.4622962
   0.0261083   -0.0062903   -0.0142659    0.3986042    0.7792418   -0.4836289
   0.0256893   -0.0059655   -0.0142539    0.5227972    0.7634568   -0.3792319
   0.0259236   -0.0055311   -0.0126488    0.4019823    0.9026184   -0.1539164
   0.0254742   -0.0054118   -0.0130104    0.4593768    0.8668807   -0.1936257
   0.0256627   -0.0056245   -0.0097946    0.4800630    0.8321757    0.2775303
   0.0242228   -0.0053841   -0.0094847    0.1505933    0.9423709    0.2987621
   0.0235371   -0.0053278   -0.0093594    0.1369947    0.9299893    0.3411045
   0.0250240   -0.0056728   -0.0091222    0.2406643    0.8943251    0.3771781
   0.0244402   -0.0064697   -0.0077061    0.0845490    0.7454816    0.6611419
   0.0242627   -0.0062416   -0.0079161   -0.0196775    0.7471538    0.6643598
   0.0233296   -0.0055044   -0.0089353    0.1426242    0.8212350    0.5524775
   0.0258092   -0.0056442   -0.0100617    0.8259148    0.5488197    0.1290803
   0.0248777   -0.0050614   -0.0120744    0.3142195    0.9491992   -0.0169400
   0.0252397   -0.0052873   -0.0109089    0.2711317    0.9553804    0.1172003
   0.0244341   -0.0049723   -0.0118548    0.1386101    0.9898731    0.0306351
   0.0250823   -0.0052267   -0.0112180    0.2513069    0.9631428    0.0959203
   0.0254602   -0.0054811   -0.0100657    0.3007364    0.9292436    0.2146252
   0.0310613   -0.0215496   -0.0120874   -0.1952632   -0.4088713    0.8914575
   0.0299948   -0.0199503   -0.0115458   -0.1330379   -0.4358345    0.8901400
   0.0304530   -0.0213302   -0.0122033   -0.3190506   -0.4680092    0.8241202
   0.0295702   -0.0196542   -0.0114812   -0.2212601   -0.5160529    0.8274862
   0.0333404   -0.0245465   -0.0133433    0.4191572   -0.2240405    0.8798370
   0.0330228   -0.0242169   -0.0131457    0.2549646   -0.2868484    0.9234235
   0.0330395   -0.0235999   -0.0129582    0.3280160   -0.2466705    0.9118986
   0.0342393   -0.0248977   -0.0139252    0.4817345   -0.1202804    0.8680233
   0.0334754   -0.0250299   -0.0135412    0.3700275   -0.2785036    0.8862931
   0.0321291   -0.0231459   -0.0126319    0.0396694   -0.3613567    0.9315834
   0.0365745   -0.0231773   -0.0195763    0.8745985    0.4844059   -0.0206984
   0.0379936   -0.0260177   -0.0197290    0.9000372    0.3933673    0.1876038
   0.0372596   -0.0244992   -0.0199256    0.8933726    0.4416107    0.0828576
   0.0376936   -0.0260610   -0.0186504    0.8903451    0.3464752    0.2953651
   0.0368060   -0.0254608   -0.0170486    0.8394467    0.2595163    0.4774731
   0.0369237   -0.0251885   -0.0174405    0.8738552    0.2950353    0.3864339
   0.0362383   -0.0226229   -0.0199291    0.8624124    0.4978766   -0.0914539
   0.0364930   -0.0230931   -0.0198474    0.8892002    0.4522901    0.0689678
   0.0364938   -0.0260475   -0.0163152    0.7781593    0.1848996    0.6002335
   0.0368323   -0.0262928   -0.0166650    0.8115091    0.2412602    0.5322091
   0.0346716   -0.0251023   -0.0141839    0.5509451   -0.0655599    0.8319624
   0.0348457   -0.0268605   -0.0145290    0.3985929   -0.2024067    0.8945140
   0.0350454   -0.0264137   -0.0145934    0.6339834   -0.0410241    0.7722578
   0.0353469   -0.0269838   -0.0148406    0.5125654   -0.0778194    0.8551145
   0.0357764   -0.0271708   -0.0151448    0.6608392    0.0171973    0.7503305
   0.0347779   -0.0259200   -0.0143654    0.5508301   -0.0823553    0.8305443
   0.0327535   -0.0187554   -0.0209593    0.1561812    0.5121603   -0.8445704
   0.0306269   -0.0164003   -0.0199811    0.0697569    0.4088987   -0.9099098
   0.0303980   -0.0154203   -0.0195338    0.1683063    0.4503632   -0.8768386
   0.0306036   -0.0152937   -0.0194226    0.1961675    0.4634200   -0.8641529
   0.0312925   -0.0182295   -0.0207757    0.6739534    0.2851643   -0.6815190
   0.0310690   -0.0178167   -0.0205842    0.0756874    0.3839862   -0.9202315
   0.0315179   -0.0180584   -0.0207295    0.0237043    0.4086548   -0.9123812
   0.0326155   -0.0190073   -0.0211256    0.0399889    0.4614730   -0.8862525
   0.0317377   -0.0190548   -0.0211579   -0.0392260    0.3997971   -0.9157639
   0.0315172   -0.0186399   -0.0209684    0.1390242    0.3623737   -0.9216060
   0.0303843   -0.0148716   -0.0192449    0.7726624    0.2999875   -0.5594643
   0.0334790   -0.0195675   -0.0213023    0.3621950    0.5546041   -0.7491522
   0.0332826   -0.0196731   -0.0214430    0.1399169    0.5088122   -0.8494312
   0.0347660   -0.0215863   -0.0220231    0.6819042    0.5563116   -0.4748938
   0.0354393   -0.0219963   -0.0213457    0.7753195    0.5482741   -0.3134889
   0.0345467   -0.0211641   -0.0218463    0.5917665    0.5707474   -0.5692625
   0.0339275   -0.0203896   -0.0216844    0.5043026    0.5684182   -0.6500613
   0.0358354   -0.0224382   -0.0211333    0.8093652    0.5349185   -0.2424671
   0.0301789   -0.0149977   -0.0193575    0.3890311    0.4159083   -0.8219946
   0.0293323   -0.0149790   -0.0194779    0.0868237    0.3529173   -0.9316174
   0.0284901   -0.0143709   -0.0193703   -0.0038136    0.2462049   -0.9692103
   0.0278446   -0.0142746   -0.0193457   -0.0238922    0.1492595   -0.9885094
   0.0274711   -0.0123633   -0.0191577    0.1320682    0.0879610   -0.9873302
   0.0281391   -0.0127487   -0.0190593    0.3464898    0.2074995   -0.9148162
   0.0280693   -0.0117797   -0.0189082    0.3859531    0.1915354   -0.9024158
   0.0273830   -0.0112250   -0.0190687    0.3544564    0.2032746   -0.9127103
   0.0268166   -0.0110521   -0.0192369    0.3021451    0.2195637   -0.9276314
   0.0266923   -0.0066603   -0.0146191    0.2500764    0.8521337   -0.4597064
   0.0261045   -0.0071047   -0.0155429    0.2827546    0.7784753   -0.5603803
   0.0262939   -0.0070147   -0.0153821    0.1610075    0.8241043   -0.5430734
   0.0260635   -0.0078582   -0.0167597    0.3844740    0.7556733   -0.5302242
   0.0261198   -0.0074856   -0.0162096    0.4265754    0.7824356   -0.4536825
   0.0259243   -0.0071607   -0.0157661    0.4704005    0.7674720   -0.4355572
   0.0262024   -0.0108462   -0.0193329    0.1939714    0.1261392   -0.9728638
   0.0256431   -0.0101643   -0.0192335    0.1164552    0.3261853   -0.9381052
   0.0251356   -0.0109876   -0.0195184    0.0710032    0.2102746   -0.9750606
   0.0257138   -0.0110218   -0.0194509    0.1439927    0.2093738   -0.9671756
   0.0260158   -0.0097709   -0.0190216    0.0991088    0.4845325   -0.8691408
   0.0259843   -0.0092622   -0.0186796    0.1674398    0.6368961   -0.7525472
   0.0254737   -0.0085804   -0.0180947    0.1513717    0.7337615   -0.6623297
   0.0255078   -0.0076815   -0.0169494    0.3322841    0.7336420   -0.5927535
   0.0266574   -0.0111644   -0.0067771    0.3197768   -0.0796626    0.9441381
   0.0254915   -0.0115287   -0.0066409    0.0905366   -0.1056084    0.9902777
   0.0251027   -0.0111995   -0.0065827    0.1057812   -0.0611118    0.9925098
   0.0254983   -0.0105421   -0.0066475    0.0687724    0.0707815    0.9951183
   0.0251692   -0.0104223   -0.0066644    0.0091356    0.1066091    0.9942590
   0.0244639   -0.0089245   -0.0067543    0.0186137    0.1164710    0.9930197
   0.0250552   -0.0076849   -0.0068699    0.1156188    0.2074453    0.9713901
   0.0247279   -0.0076322   -0.0068516   -0.0846467    0.2871262    0.9541454
   0.0244714   -0.0076371   -0.0069332   -0.3041958    0.2323268    0.9238448
   0.0240613   -0.0083380   -0.0068995   -0.1224962    0.2706640    0.9548485
   0.0240885   -0.0085174   -0.0068470   -0.0372591    0.2400364    0.9700486
   0.0247197   -0.0073670   -0.0069871   -0.1115423    0.4988725    0.8594676
   0.0247369   -0.0071512   -0.0071455   -0.1135919    0.5554650    0.8237448
   0.0241932   -0.0066115   -0.0075709   -0.1525056    0.6127738    0.7754033
   0.0269402   -0.0155017   -0.0088498    0.1568342   -0.6484198    0.7449529
   0.0263000   -0.0121405   -0.0068078    0.2144191   -0.1333407    0.9675974
   0.0257998   -0.0158084   -0.0087975    0.1837399   -0.6007688    0.7780208
   0.0258498   -0.0140969   -0.0075746    0.1088467   -0.5550501    0.8246647
   0.0256910   -0.0143152   -0.0077206    0.1058727   -0.5884935    0.8015400
   0.0265553   -0.0125548   -0.0069323    0.2449332   -0.2259135    0.9428525
   0.0260800   -0.0129529   -0.0069455    0.1073546   -0.3331587    0.9367392
   0.0268153   -0.0166052   -0.0097005    0.0702746   -0.5830665    0.8093794
   0.0279580   -0.0200133   -0.0122248   -0.1955614   -0.6085034    0.7690770
   0.0276357   -0.0186644   -0.0112331   -0.0557751   -0.6448867    0.7622403
   0.0260714   -0.0161129   -0.0091393    0.2084107   -0.6121900    0.7627506
   0.0260221   -0.0067111   -0.0150379    0.3907430    0.7634848   -0.5142089
   0.0261119   -0.0065496   -0.0147265    0.4150658    0.7809462   -0.4667370
   0.0249444   -0.0057177   -0.0147020    0.3700504    0.8232492   -0.4304920
   0.0251739   -0.0055491   -0.0140857    0.4027484    0.8488514   -0.3424105
   0.0252092   -0.0060371   -0.0150252    0.4694815    0.7463003   -0.4718293
   0.0253046   -0.0053375   -0.0133060    0.4232654    0.8801862   -0.2147526
   0.0249243   -0.0051287   -0.0127011    0.2347754    0.9657306   -0.1106566
   0.0238941   -0.0051906   -0.0101200    0.1260538    0.9649674    0.2301050
   0.0249206   -0.0054639   -0.0096210    0.2033994    0.9399229    0.2741781
   0.0246205   -0.0053405   -0.0099344    0.1737054    0.9647632    0.1976320
   0.0243416   -0.0050684   -0.0110457    0.2410567    0.9658882    0.0946133
   0.0240340   -0.0049814   -0.0110848    0.0827024    0.9905230    0.1096566
   0.0231479   -0.0053371   -0.0091851   -0.0166690    0.9589670    0.2830272
   0.0235852   -0.0051475   -0.0101296   -0.0828740    0.9854608    0.1483204
   0.0237132   -0.0064358   -0.0079063   -0.1604500    0.6424990    0.7493002
   0.0229349   -0.0056919   -0.0085749    0.0163572    0.7613494    0.6481354
   0.0229879   -0.0055415   -0.0087635   -0.0593754    0.8270116    0.5590406
   0.0230553   -0.0054155   -0.0089634   -0.0788264    0.9040563    0.4200816
   0.0244823   -0.0050403   -0.0124814   -0.0728022    0.9863658   -0.1475887
   0.0241855   -0.0049923   -0.0119433   -0.1027342    0.9946647   -0.0093710
   0.0243135   -0.0049967   -0.0116080    0.0018628    0.9936483    0.1125148
   0.0321418   -0.0236967   -0.0129153   -0.2936048   -0.4879977    0.8219821
   0.0306867   -0.0223000   -0.0126672   -0.4089435   -0.5138343    0.7541482
   0.0304349   -0.0217719   -0.0124887   -0.4119647   -0.4735933    0.7784565
   0.0295291   -0.0222829   -0.0133853   -0.3640563   -0.5366626    0.7612203
   0.0285033   -0.0217765   -0.0134040   -0.2794659   -0.5602557    0.7797515
   0.0332456   -0.0246317   -0.0133319    0.2314307   -0.3183709    0.9192822
   0.0330166   -0.0248111   -0.0133668   -0.0121040   -0.4232639    0.9059256
   0.0334680   -0.0256267   -0.0137609    0.1449640   -0.3561872    0.9231014
   0.0339268   -0.0258457   -0.0139348    0.3362578   -0.2023407    0.9197766
   0.0344566   -0.0253245   -0.0140952    0.4446692   -0.1492765    0.8831681
   0.0344532   -0.0253286   -0.0140931    0.4997778   -0.1066968    0.8595568
   0.0332431   -0.0252176   -0.0135650    0.0297447   -0.4193288    0.9073470
   0.0374656   -0.0248282   -0.0203403    0.8745978    0.4847004    0.0120082
   0.0367268   -0.0235297   -0.0200433    0.8666168    0.4946263   -0.0657280
   0.0365041   -0.0231151   -0.0198562    0.8999768    0.4219115    0.1096925
   0.0384269   -0.0267480   -0.0203540    0.9034058    0.4051326    0.1404474
   0.0381206   -0.0269998   -0.0188101    0.8939607    0.3249443    0.3086185
   0.0384915   -0.0290212   -0.0181707    0.8573992    0.2534146    0.4479371
   0.0373084   -0.0279466   -0.0166602    0.7876406    0.2044877    0.5812118
   0.0371384   -0.0282009   -0.0164112    0.7457961    0.1599358    0.6466905
   0.0347149   -0.0263603   -0.0143613    0.4602244   -0.1438242    0.8760754
   0.0348166   -0.0275063   -0.0146770    0.2615181   -0.2254556    0.9384978
   0.0341551   -0.0274181   -0.0145978    0.0205489   -0.3996109    0.9164545
   0.0344148   -0.0266313   -0.0143241    0.2773605   -0.3156588    0.9074308
   0.0349002   -0.0261579   -0.0144633    0.6624123    0.0187452    0.7489049
   0.0356069   -0.0273692   -0.0150218    0.5761763   -0.0083987    0.8172823
   0.0356732   -0.0279719   -0.0150808    0.5378657   -0.0796732    0.8392572
   0.0371102   -0.0290072   -0.0161895    0.6981027    0.0744993    0.7121113
   0.0359327   -0.0289932   -0.0153790    0.3502699   -0.1828238    0.9186329
   0.0366426   -0.0295626   -0.0158311    0.5244993   -0.0518666    0.8498296
   0.0370279   -0.0293358   -0.0161217    0.6255439    0.0089499    0.7801376
   0.0357157   -0.0285655   -0.0152110    0.4501722   -0.1677148    0.8770500
   0.0346762   -0.0257414   -0.0142840    0.4573343   -0.1330989    0.8792781
   0.0297567   -0.0158554   -0.0197850   -0.0200679    0.3380240   -0.9409235
   0.0312925   -0.0182295   -0.0207757    0.8304995    0.2277646   -0.5083246
   0.0312925   -0.0182295   -0.0207757    0.8105720    0.2112192   -0.5462229
   0.0310743   -0.0183848   -0.0208431   -0.1261586    0.3654686   -0.9222346
   0.0308406   -0.0185747   -0.0208657   -0.1747049    0.3160956   -0.9325030
   0.0300188   -0.0174346   -0.0203664   -0.1285770    0.2910123   -0.9480400
   0.0326448   -0.0206807   -0.0219466   -0.1213536    0.4211685   -0.8988272
   0.0324148   -0.0202881   -0.0217252   -0.1386393    0.3695564   -0.9188075
   0.0317439   -0.0196250   -0.0214084   -0.1198939    0.3470418   -0.9301545
   0.0312958   -0.0188021   -0.0210280    0.0298328    0.3618831   -0.9317460
   0.0315125   -0.0186428   -0.0209682   -0.1357409    0.3551113   -0.9249164
   0.0335123   -0.0200723   -0.0216503    0.1440625    0.5233008   -0.8398823
   0.0357373   -0.0228205   -0.0220162    0.7550540    0.5516954   -0.3542959
   0.0346382   -0.0221168   -0.0226234    0.4951875    0.5712955   -0.6545310
   0.0358086   -0.0232393   -0.0224862    0.7046569    0.5624463   -0.4325653
   0.0339658   -0.0208829   -0.0220516    0.3141752    0.5502804   -0.7736184
   0.0362439   -0.0232690   -0.0215728    0.7988036    0.5422923   -0.2604453
   0.0286790   -0.0148617   -0.0194500   -0.0309667    0.2140889   -0.9763232
   0.0280301   -0.0147339   -0.0194336   -0.0822877    0.2007088   -0.9761889
   0.0282452   -0.0145333   -0.0193859   -0.0883079    0.2770553   -0.9567874
   0.0273563   -0.0146630   -0.0193409   -0.1510025    0.0937184   -0.9840808
   0.0270703   -0.0142521   -0.0192688   -0.1605773    0.0194937   -0.9868307
   0.0269816   -0.0136420   -0.0192122   -0.0738967    0.0258166   -0.9969317
   0.0267826   -0.0130280   -0.0191866    0.0475785   -0.0113922   -0.9988025
   0.0267023   -0.0125367   -0.0192021    0.1044025   -0.0255568   -0.9942067
   0.0273157   -0.0118264   -0.0191677    0.2185449    0.0121550   -0.9757512
   0.0268831   -0.0112606   -0.0192438    0.2288675    0.0736946   -0.9706641
   0.0255946   -0.0068084   -0.0156455    0.5305321    0.6945676   -0.4859131
   0.0253217   -0.0068589   -0.0160597    0.4123095    0.7305824   -0.5442888
   0.0259873   -0.0120212   -0.0193964    0.1491292   -0.0938669   -0.9843523
   0.0255424   -0.0113239   -0.0195239    0.1225359    0.0328901   -0.9919189
   0.0251588   -0.0103553   -0.0193507   -0.0020966    0.4304085   -0.9026318
   0.0248405   -0.0112259   -0.0195462   -0.0721895    0.0995962   -0.9924058
   0.0249046   -0.0105485   -0.0194009   -0.0986408    0.2923300   -0.9512167
   0.0255336   -0.0090244   -0.0185290    0.0364237    0.6054868   -0.7950214
   0.0248687   -0.0089332   -0.0184633   -0.0435492    0.6433963   -0.7642936
   0.0248122   -0.0084811   -0.0180397   -0.0082711    0.7068406   -0.7073245
   0.0253236   -0.0077599   -0.0171303    0.1635278    0.7230281   -0.6711848
   0.0250063   -0.0069788   -0.0163982    0.1817952    0.7593884   -0.6247237
   0.0250723   -0.0074101   -0.0168511    0.2135656    0.7104687   -0.6705401
   0.0254942   -0.0127985   -0.0068683    0.0838233   -0.2388315    0.9674364
   0.0252472   -0.0108078   -0.0065915    0.0970179    0.0688168    0.9929007
   0.0240053   -0.0114849   -0.0064980    0.2035929   -0.0567736    0.9774082
   0.0246699   -0.0101612   -0.0066615    0.1540196    0.0850889    0.9843972
   0.0238883   -0.0092438   -0.0066231    0.2477046    0.2061715    0.9466445
   0.0237031   -0.0072955   -0.0072525   -0.0850235    0.4947452    0.8648689
   0.0241283   -0.0076972   -0.0070755   -0.1507733    0.2619461    0.9532322
   0.0236937   -0.0078902   -0.0070300    0.1549675    0.3035768    0.9401203
   0.0236510   -0.0081721   -0.0069207    0.2075501    0.3081977    0.9284057
   0.0241137   -0.0068598   -0.0074519   -0.2457972    0.5247679    0.8149861
   0.0253716   -0.0165661   -0.0092702    0.2986984   -0.5716717    0.7641798
   0.0251839   -0.0136254   -0.0071508    0.1780170   -0.4950971    0.8504051
   0.0253173   -0.0156431   -0.0085445    0.2639238   -0.5538239    0.7896983
   0.0257171   -0.0173971   -0.0100263    0.2692496   -0.5931167    0.7587603
   0.0262239   -0.0194886   -0.0120929   -0.0342290   -0.6461124    0.7624744
   0.0269808   -0.0205322   -0.0129369   -0.0242839   -0.6442094    0.7644636
   0.0272548   -0.0208725   -0.0131941   -0.0733368   -0.7317546    0.6776111
   0.0276943   -0.0216732   -0.0136437   -0.2897622   -0.5611743    0.7753201
   0.0265988   -0.0187877   -0.0114870    0.0863431   -0.6832511    0.7250606
   0.0263173   -0.0184561   -0.0111392    0.1074493   -0.7066921    0.6993147
   0.0252853   -0.0064445   -0.0155096    0.4586033    0.6778766   -0.5746010
   0.0248112   -0.0055889   -0.0145208    0.1200901    0.9076953   -0.4020791
   0.0247662   -0.0057820   -0.0148996    0.1318555    0.8504940   -0.5091897
   0.0248205   -0.0054170   -0.0140619    0.1869811    0.9294491   -0.3180605
   0.0250383   -0.0060852   -0.0152449    0.2795161    0.7822873   -0.5566843
   0.0246731   -0.0051705   -0.0133465    0.0941539    0.9708238   -0.2205362
   0.0242990   -0.0051641   -0.0132134   -0.1654402    0.9674875   -0.1913047
   0.0240842   -0.0050248   -0.0116953    0.1743813    0.9846259    0.0101464
   0.0241844   -0.0050096   -0.0113560    0.2311144    0.9675834   -0.1018259
   0.0237949   -0.0050188   -0.0111815   -0.2982646    0.9536383   -0.0401521
   0.0228175   -0.0054569   -0.0090618   -0.4215056    0.9000347    0.1107730
   0.0234168   -0.0066167   -0.0078113    0.1310637    0.6666085    0.7337953
   0.0227336   -0.0063149   -0.0078305    0.0542719    0.7216503    0.6901271
   0.0226168   -0.0058318   -0.0084607   -0.2487978    0.8258818    0.5059832
   0.0226788   -0.0056987   -0.0086574   -0.3615472    0.8274116    0.4297366
   0.0227432   -0.0055681   -0.0088549   -0.4461448    0.8320078    0.3297239
   0.0238758   -0.0051298   -0.0124234   -0.3286189    0.9250106   -0.1906960
   0.0239599   -0.0052667   -0.0130821   -0.4000382    0.9002275   -0.1719301
   0.0240666   -0.0050210   -0.0116984    0.0060110    0.9999814    0.0010233
   0.0238307   -0.0050647   -0.0117981   -0.2971599    0.9515003   -0.0796437
   0.0309407   -0.0232235   -0.0131958   -0.4583821   -0.5348224    0.7098246
   0.0324558   -0.0247850   -0.0134638   -0.2494352   -0.4911420    0.8346027
   0.0319964   -0.0248467   -0.0137006   -0.4098084   -0.5191811    0.7500054
   0.0313737   -0.0240805   -0.0135278   -0.4768779   -0.5227432    0.7066307
   0.0298275   -0.0226533   -0.0135265   -0.3612528   -0.5822527    0.7283394
   0.0282370   -0.0240216   -0.0150570   -0.2701633   -0.6371325    0.7218545
   0.0275802   -0.0233325   -0.0147749   -0.3786347   -0.5825206    0.7192396
   0.0341414   -0.0268586   -0.0143375    0.1282648   -0.3857554    0.9136416
   0.0336785   -0.0266109   -0.0142365   -0.0964417   -0.4688414    0.8780016
   0.0332667   -0.0263232   -0.0141262   -0.1357845   -0.4783573    0.8676041
   0.0373981   -0.0247663   -0.0206127    0.8260545    0.5433429   -0.1497079
   0.0376376   -0.0251656   -0.0207991    0.7687757    0.5710366   -0.2879255
   0.0377020   -0.0252329   -0.0205222    0.8817587    0.4716509   -0.0068591
   0.0371707   -0.0246043   -0.0214242    0.8187881    0.5498575   -0.1650537
   0.0365932   -0.0237355   -0.0213967    0.8169923    0.5462180   -0.1848499
   0.0394204   -0.0293929   -0.0202148    0.9025680    0.3076969    0.3011537
   0.0397026   -0.0294634   -0.0210708    0.9033022    0.3866033    0.1859649
   0.0392011   -0.0280339   -0.0221749    0.8737521    0.4847108   -0.0401597
   0.0378482   -0.0255842   -0.0210004    0.8430925    0.5133204   -0.1603038
   0.0390320   -0.0295872   -0.0189594    0.8903916    0.2572106    0.3755604
   0.0390099   -0.0305493   -0.0183730    0.8602383    0.2411455    0.4492648
   0.0385885   -0.0305566   -0.0176085    0.7986414    0.1700609    0.5772791
   0.0384358   -0.0307757   -0.0174069    0.7406062    0.1287468    0.6594897
   0.0374639   -0.0292432   -0.0165291    0.7281807    0.0935811    0.6789664
   0.0347060   -0.0281844   -0.0149107    0.0190664   -0.3529796    0.9354367
   0.0354948   -0.0281473   -0.0150286    0.2851383   -0.2257683    0.9315175
   0.0337414   -0.0282460   -0.0150778   -0.2904987   -0.4589677    0.8396185
   0.0330899   -0.0269641   -0.0145704   -0.3123983   -0.5060056    0.8039687
   0.0363674   -0.0298462   -0.0157163    0.2839070   -0.2184376    0.9336390
   0.0361407   -0.0294265   -0.0155516    0.1875516   -0.2770500    0.9423734
   0.0359008   -0.0296448   -0.0155167    0.2309117   -0.2412952    0.9425796
   0.0366571   -0.0302107   -0.0158866    0.3748556   -0.1529619    0.9143774
   0.0370725   -0.0304267   -0.0161545    0.5095599   -0.0641298    0.8580420
   0.0373758   -0.0300796   -0.0163586    0.6378271    0.0447012    0.7688813
   0.0355658   -0.0293148   -0.0153577    0.1124423   -0.2992054    0.9475404
   0.0290786   -0.0163735   -0.0199164   -0.1572621    0.2537840   -0.9543911
   0.0310587   -0.0189996   -0.0210361   -0.2296137    0.2776008   -0.9328533
   0.0310536   -0.0190043   -0.0210358   -0.1526852    0.3228580   -0.9340503
   0.0308248   -0.0191905   -0.0210560   -0.2631139    0.2245314   -0.9382733
   0.0298866   -0.0187984   -0.0206393   -0.3256359    0.1378192   -0.9353968
   0.0297207   -0.0176760   -0.0203952   -0.2305700    0.1961520   -0.9530802
   0.0333431   -0.0218557   -0.0226051   -0.1435041    0.4035787   -0.9036209
   0.0329369   -0.0216079   -0.0223943   -0.2523014    0.3345048   -0.9079926
   0.0333133   -0.0207634   -0.0220241   -0.0649001    0.4766734   -0.8766815
   0.0326444   -0.0212611   -0.0221882   -0.2782802    0.3081596   -0.9097240
   0.0321394   -0.0209936   -0.0219532   -0.2219467    0.3327751   -0.9165153
   0.0315113   -0.0198228   -0.0214096   -0.2386839    0.2753157   -0.9312525
   0.0311921   -0.0192487   -0.0211471   -0.1691634    0.3298267   -0.9287616
   0.0335498   -0.0211469   -0.0222566   -0.0023178    0.4841075   -0.8750054
   0.0355364   -0.0232701   -0.0229435    0.6221954    0.5775109   -0.5285396
   0.0346766   -0.0226101   -0.0229903    0.2649658    0.5567178   -0.7873109
   0.0339932   -0.0214008   -0.0223803    0.1523631    0.5182834   -0.8415270
   0.0371404   -0.0249146   -0.0223385    0.7538453    0.5706275   -0.3257322
   0.0277363   -0.0156396   -0.0195031   -0.2192950    0.0789458   -0.9724594
   0.0258044   -0.0141348   -0.0189831   -0.2943646   -0.1372603   -0.9457849
   0.0259855   -0.0138884   -0.0190726   -0.1785053   -0.1253473   -0.9759221
   0.0258992   -0.0130836   -0.0191922   -0.0260497   -0.1845650   -0.9824750
   0.0263461   -0.0124537   -0.0192589    0.1271239   -0.1090323   -0.9858760
   0.0252916   -0.0064566   -0.0155170    0.5063646    0.6608165   -0.5540004
   0.0251158   -0.0064895   -0.0157369    0.3047691    0.7501135   -0.5868948
   0.0247340   -0.0066766   -0.0160509    0.0975070    0.7849822   -0.6117969
   0.0247395   -0.0116388   -0.0195370   -0.0575490   -0.1296255   -0.9898916
   0.0246888   -0.0095819   -0.0188974   -0.1016776    0.5164134   -0.8502816
   0.0242936   -0.0112972   -0.0194586   -0.2106119    0.0598411   -0.9757365
   0.0243616   -0.0106963   -0.0193597   -0.1889847    0.2299024   -0.9546883
   0.0244867   -0.0102805   -0.0192623   -0.1757710    0.3759829   -0.9098029
   0.0239146   -0.0085775   -0.0179974   -0.1681144    0.6325176   -0.7560814
   0.0243368   -0.0082995   -0.0178138    0.0571222    0.6817171   -0.7293826
   0.0242801   -0.0078479   -0.0173887   -0.1370377    0.6974970   -0.7033624
   0.0243554   -0.0075833   -0.0171087   -0.0261057    0.7410409   -0.6709522
   0.0247415   -0.0073387   -0.0168372    0.0360279    0.7304387   -0.6820273
   0.0246132   -0.0068712   -0.0162838   -0.1322697    0.7622202   -0.6336601
   0.0238071   -0.0141291   -0.0071080    0.1119992   -0.4216482    0.8998161
   0.0247438   -0.0127846   -0.0067923    0.1090805   -0.2368675    0.9653990
   0.0238008   -0.0103182   -0.0064267    0.3438201    0.0528025    0.9375498
   0.0242547   -0.0123654   -0.0066756    0.2035137   -0.1992474    0.9585837
   0.0235969   -0.0125265   -0.0064779    0.2084226   -0.2588254    0.9431699
   0.0231918   -0.0116064   -0.0062340    0.1003797   -0.1000939    0.9899016
   0.0233834   -0.0120907   -0.0063202    0.1610787   -0.1755127    0.9712100
   0.0233852   -0.0112446   -0.0062373    0.2556320   -0.0531639    0.9653113
   0.0235325   -0.0093139   -0.0064771    0.3111511    0.2764701    0.9092576
   0.0232672   -0.0098036   -0.0062665    0.2034229    0.2039939    0.9576041
   0.0232698   -0.0101820   -0.0062038    0.2257209    0.0826964    0.9706757
   0.0235357   -0.0074931   -0.0071282    0.2104229    0.4233291    0.8812007
   0.0229307   -0.0069457   -0.0072686    0.2105335    0.6280188    0.7491782
   0.0229457   -0.0079668   -0.0067081    0.2169348    0.3360209    0.9165311
   0.0244553   -0.0177685   -0.0097062    0.2866035   -0.5613045    0.7763992
   0.0246234   -0.0166427   -0.0089482    0.2768955   -0.5574660    0.7826625
   0.0240634   -0.0150469   -0.0076464    0.2131586   -0.5176647    0.8286052
   0.0247259   -0.0144395   -0.0075342    0.3028331   -0.5167727    0.8007734
   0.0242874   -0.0143575   -0.0073175    0.2367202   -0.4816246    0.8438017
   0.0245551   -0.0183326   -0.0101459    0.2136921   -0.6488212    0.7303196
   0.0255742   -0.0185413   -0.0108218    0.4003602   -0.5919821    0.6994776
   0.0258309   -0.0183487   -0.0108477    0.3941398   -0.5974112    0.6983936
   0.0262693   -0.0199662   -0.0124812    0.0695753   -0.6025927    0.7950103
   0.0260130   -0.0196276   -0.0121875    0.1774405   -0.6741978    0.7169185
   0.0270264   -0.0210088   -0.0133272    0.0801106   -0.7214138    0.6878550
   0.0257943   -0.0206543   -0.0129046    0.0213606   -0.6616835    0.7494790
   0.0263076   -0.0209703   -0.0132453    0.0274596   -0.6740236    0.7381993
   0.0272663   -0.0213843   -0.0135701   -0.2022203   -0.5908748    0.7810083
   0.0271936   -0.0209073   -0.0132345    0.1370103   -0.8146199    0.5635802
   0.0271378   -0.0224959   -0.0144098   -0.3668630   -0.5350183    0.7610302
   0.0261520   -0.0190711   -0.0116199    0.3069971   -0.6540601    0.6913451
   0.0261050   -0.0185978   -0.0112263    0.3210258   -0.6226517    0.7136157
   0.0252822   -0.0064460   -0.0155133    0.4455440    0.6998851   -0.5582575
   0.0248547   -0.0061616   -0.0154259    0.1589540    0.7788322   -0.6067570
   0.0244097   -0.0053491   -0.0138943   -0.1315374    0.9307149   -0.3412737
   0.0243700   -0.0057347   -0.0147470   -0.2700738    0.8449507   -0.4616475
   0.0245722   -0.0058829   -0.0150474   -0.0994810    0.8161661   -0.5691892
   0.0237008   -0.0054977   -0.0136053   -0.4480803    0.8375976   -0.3124969
   0.0228378   -0.0054763   -0.0096661   -0.6068083    0.7939308   -0.0381778
   0.0232372   -0.0054088   -0.0121949   -0.5045824    0.8529862   -0.1334585
   0.0234852   -0.0051757   -0.0110752   -0.4758393    0.8758357   -0.0805527
   0.0226295   -0.0055898   -0.0092024   -0.6996277    0.7145061    0.0014503
   0.0224435   -0.0062587   -0.0078839   -0.2346474    0.7455711    0.6237502
   0.0223295   -0.0070442   -0.0072148   -0.3301130    0.5783405    0.7460213
   0.0225951   -0.0070549   -0.0071402   -0.0762506    0.5843975    0.8078771
   0.0223926   -0.0058973   -0.0085704   -0.5714204    0.7816348    0.2500516
   0.0223222   -0.0060170   -0.0083678   -0.5665618    0.7511710    0.3387474
   0.0224696   -0.0057906   -0.0087793   -0.6578587    0.7434808    0.1202425
   0.0232836   -0.0057050   -0.0132645   -0.5805860    0.7657509   -0.2766685
   0.0234051   -0.0056790   -0.0135104   -0.6024476    0.7405612   -0.2977012
   0.0301770   -0.0230175   -0.0135810   -0.4617145   -0.5453795    0.6995577
   0.0306172   -0.0238580   -0.0139406   -0.4660894   -0.5608582    0.6842505
   0.0323960   -0.0251803   -0.0137301   -0.3852236   -0.5166148    0.7646646
   0.0321049   -0.0263408   -0.0147755   -0.4776736   -0.5225388    0.7062444
   0.0310860   -0.0252139   -0.0146297   -0.4982957   -0.5210035    0.6930056
   0.0306640   -0.0243319   -0.0143325   -0.4693914   -0.5445782    0.6950585
   0.0286999   -0.0243007   -0.0152040   -0.1931656   -0.6391545    0.7444250
   0.0293126   -0.0244407   -0.0151401   -0.3400909   -0.5849956    0.7362869
   0.0282991   -0.0244612   -0.0154981   -0.5040089   -0.6850793    0.5259671
   0.0284858   -0.0243767   -0.0153276   -0.2457988   -0.6544923    0.7149985
   0.0266939   -0.0225197   -0.0146988   -0.3442660   -0.6744334    0.6531619
   0.0374726   -0.0248951   -0.0206795    0.7598834    0.5773827   -0.2986743
   0.0380757   -0.0262248   -0.0222276    0.8650793    0.4989060   -0.0522558
   0.0374197   -0.0253117   -0.0224537    0.7751938    0.5813912   -0.2471010
   0.0377931   -0.0255135   -0.0212691    0.8624479    0.4973019   -0.0942044
   0.0397136   -0.0315617   -0.0193918    0.8996277    0.2498049    0.3581445
   0.0400374   -0.0306595   -0.0208215    0.9089892    0.2767534    0.3116828
   0.0399049   -0.0299906   -0.0210405    0.9119432    0.3177711    0.2595788
   0.0398962   -0.0292747   -0.0226887    0.8498713    0.5241734   -0.0544158
   0.0405338   -0.0304271   -0.0235165    0.8905097    0.4423045    0.1065791
   0.0401334   -0.0301944   -0.0216972    0.9112647    0.3604472    0.1991845
   0.0384026   -0.0269894   -0.0229796    0.8294204    0.5252822   -0.1901062
   0.0385248   -0.0270509   -0.0226018    0.8639758    0.4967448   -0.0824037
   0.0383866   -0.0266904   -0.0221260    0.8371045    0.5269332   -0.1469608
   0.0380772   -0.0262265   -0.0222204    0.8661647    0.4888407   -0.1038916
   0.0396237   -0.0327669   -0.0183806    0.8573709    0.2517757    0.4489144
   0.0388824   -0.0308261   -0.0179873    0.8270170    0.2035450    0.5240347
   0.0389133   -0.0315525   -0.0178354    0.7911164    0.1671814    0.5883751
   0.0385915   -0.0312988   -0.0174749    0.7671413    0.1339367    0.6273398
   0.0383911   -0.0316174   -0.0171375    0.6901072    0.1105918    0.7152073
   0.0376185   -0.0311818   -0.0165014    0.6119802    0.0229428    0.7905402
   0.0345813   -0.0288592   -0.0151777   -0.1643730   -0.4060619    0.8989412
   0.0335938   -0.0294008   -0.0158558   -0.4750578   -0.4732161    0.7418805
   0.0333608   -0.0284298   -0.0153948   -0.5010907   -0.4645536    0.7301356
   0.0331400   -0.0279892   -0.0152660   -0.4779747   -0.4917477    0.7278216
   0.0358566   -0.0309042   -0.0158606   -0.0012893   -0.3005680    0.9537595
   0.0356317   -0.0303995   -0.0157195   -0.0162882   -0.3099260    0.9506211
   0.0365089   -0.0316041   -0.0161249    0.2638640   -0.1724560    0.9490178
   0.0373670   -0.0307845   -0.0163293    0.4615352   -0.0486455    0.8857872
   0.0351480   -0.0299883   -0.0156090   -0.1110774   -0.3617502    0.9256341
   0.0283877   -0.0163409   -0.0197686   -0.2510184    0.1542453   -0.9556140
   0.0289290   -0.0167684   -0.0199815   -0.0986759    0.3042791   -0.9474584
   0.0288393   -0.0165766   -0.0199196   -0.2169516    0.2030284   -0.9548358
   0.0293540   -0.0173732   -0.0202316   -0.1483681    0.2833602   -0.9474671
   0.0302967   -0.0197078   -0.0209007   -0.4114617    0.0890421   -0.9070671
   0.0302286   -0.0197771   -0.0208749   -0.3658272    0.1134703   -0.9237397
   0.0294903   -0.0187756   -0.0204718   -0.4409324    0.0373253   -0.8967639
   0.0289007   -0.0174415   -0.0201136   -0.3245870    0.1304254   -0.9368204
   0.0333758   -0.0225427   -0.0228472   -0.2462499    0.3645641   -0.8980278
   0.0337235   -0.0219767   -0.0226851   -0.0054375    0.4564918   -0.8897110
   0.0339374   -0.0225556   -0.0229832   -0.0708354    0.4534039   -0.8884859
   0.0328622   -0.0222664   -0.0226006   -0.3623966    0.2717696   -0.8915212
   0.0322789   -0.0212486   -0.0220707   -0.2113466    0.3024283   -0.9294459
   0.0323371   -0.0221506   -0.0223195   -0.4605737    0.1540441   -0.8741523
   0.0321736   -0.0210636   -0.0219866   -0.1647779    0.3438031   -0.9244716
   0.0316763   -0.0209088   -0.0217417   -0.3996646    0.2029571   -0.8939109
   0.0319259   -0.0212909   -0.0219499   -0.4026539    0.1993348   -0.8933843
   0.0309929   -0.0203079   -0.0213082   -0.3513244    0.1990786   -0.9148436
   0.0359310   -0.0241220   -0.0233639    0.6547230    0.5648142   -0.5023173
   0.0355456   -0.0237375   -0.0234235    0.5410282    0.5767250   -0.6121084
   0.0347079   -0.0231190   -0.0233319    0.1756289    0.5574986   -0.8113876
   0.0358099   -0.0246378   -0.0239874    0.4754550    0.5743293   -0.6663996
   0.0375343   -0.0261019   -0.0235579    0.7006313    0.5923660   -0.3977666
   0.0260233   -0.0150356   -0.0188832   -0.4533794   -0.1688607   -0.8751761
   0.0273533   -0.0160146   -0.0193909   -0.4351709   -0.0001419   -0.9003479
   0.0255886   -0.0143178   -0.0188647   -0.4488158   -0.2410846   -0.8604897
   0.0254302   -0.0141722   -0.0188216   -0.4953525   -0.3328710   -0.8023857
   0.0253169   -0.0134669   -0.0190119   -0.3063264   -0.3386642   -0.8896464
   0.0245501   -0.0122352   -0.0193708   -0.1023722   -0.1979239   -0.9748569
   0.0242565   -0.0124532   -0.0192978   -0.1187315   -0.2815299   -0.9521784
   0.0245126   -0.0064555   -0.0157545   -0.0985399    0.7695672   -0.6309170
   0.0240788   -0.0100401   -0.0190345   -0.2337346    0.4634024   -0.8547669
   0.0241374   -0.0118909   -0.0193922   -0.1728807   -0.1491887   -0.9735785
   0.0236395   -0.0116720   -0.0192949   -0.2626156   -0.0595611   -0.9630605
   0.0232442   -0.0113975   -0.0191221   -0.3855681    0.1437811   -0.9114078
   0.0238918   -0.0107867   -0.0192607   -0.3182944    0.2657348   -0.9099855
   0.0237420   -0.0092091   -0.0184558   -0.3042114    0.5166044   -0.8003595
   0.0236319   -0.0082991   -0.0176183   -0.3415473    0.6624447   -0.6667176
   0.0239167   -0.0082106   -0.0176363   -0.0086143    0.7125010   -0.7016182
   0.0240626   -0.0080014   -0.0174604    0.7929701    0.4167379   -0.4444411
   0.0240626   -0.0080014   -0.0174604    0.9447699    0.2305126   -0.2329671
   0.0241900   -0.0077575   -0.0172684   -0.0683604    0.7480429   -0.6601202
   0.0242595   -0.0071764   -0.0165834   -0.2172860    0.7663661   -0.6045410
   0.0241094   -0.0064406   -0.0155688   -0.3684004    0.7122824   -0.5974403
   0.0240138   -0.0067099   -0.0158077   -0.4220682    0.7177778   -0.5537631
   0.0227605   -0.0153831   -0.0078414   -0.1296352   -0.5209696    0.8436737
   0.0233560   -0.0138926   -0.0069594   -0.0449494   -0.4366281    0.8985185
   0.0235781   -0.0137283   -0.0069004    0.1087773   -0.3354798    0.9357461
   0.0232552   -0.0108834   -0.0061957    0.2231732   -0.0126093    0.9746972
   0.0231465   -0.0128680   -0.0065721   -0.0852547   -0.3354815    0.9381811
   0.0231553   -0.0122683   -0.0063598   -0.0658913   -0.2947495    0.9533001
   0.0229607   -0.0117908   -0.0062610   -0.1765720   -0.1892681    0.9659192
   0.0228652   -0.0114933   -0.0062526   -0.2881731   -0.1549652    0.9449561
   0.0229656   -0.0109492   -0.0061801   -0.0353017   -0.0462340    0.9983067
   0.0226558   -0.0098826   -0.0062034   -0.1131453    0.1059886    0.9879092
   0.0226694   -0.0081868   -0.0066310   -0.0965220    0.2836483    0.9540582
   0.0228956   -0.0095973   -0.0062503    0.0220811    0.2173239    0.9758497
   0.0228981   -0.0071332   -0.0070971    0.1622273    0.5245825    0.8357604
   0.0226061   -0.0075712   -0.0068627   -0.1050974    0.4047093    0.9083859
   0.0235223   -0.0169951   -0.0089433    0.0964996   -0.6063702    0.7893054
   0.0237808   -0.0155877   -0.0079450    0.0947569   -0.5522695    0.8282629
   0.0249165   -0.0190138   -0.0110210    0.0286114   -0.8037210    0.5943180
   0.0252958   -0.0190461   -0.0111498    0.2262529   -0.7462596    0.6260241
   0.0240814   -0.0181470   -0.0099255   -0.0633837   -0.7393009    0.6703855
   0.0257718   -0.0187188   -0.0110979    0.4808958   -0.5994799    0.6398149
   0.0256361   -0.0189814   -0.0112615    0.4452358   -0.6506420    0.6151667
   0.0249873   -0.0203741   -0.0126757   -0.0417155   -0.7509003    0.6590967
   0.0255420   -0.0192505   -0.0115022    0.3035360   -0.7222500    0.6214667
   0.0269367   -0.0213023   -0.0135613   -0.0530330   -0.6368166    0.7691892
   0.0259814   -0.0212271   -0.0135064   -0.1242372   -0.7339093    0.6677891
   0.0257770   -0.0212685   -0.0135945   -0.1033109   -0.7497521    0.6536044
   0.0267600   -0.0214549   -0.0137111   -0.0561788   -0.6674666    0.7425175
   0.0258670   -0.0187975   -0.0112332    0.4035954   -0.6094082    0.6824459
   0.0242534   -0.0062289   -0.0153918   -0.2478421    0.7670470   -0.5917882
   0.0240515   -0.0061051   -0.0150767   -0.5093753    0.7282987   -0.4583861
   0.0237120   -0.0059771   -0.0145013   -0.6029228    0.6717175   -0.4304413
   0.0238509   -0.0057548   -0.0143195   -0.5174581    0.7477519   -0.4160580
   0.0236753   -0.0057353   -0.0139947   -0.5775101    0.6648507   -0.4737676
   0.0230546   -0.0053588   -0.0107231   -0.5208847    0.8510277   -0.0665657
   0.0226746   -0.0056354   -0.0104140   -0.6831397    0.7300012   -0.0204543
   0.0218444   -0.0065161   -0.0106222   -0.8068443    0.5899558   -0.0308935
   0.0219144   -0.0064158   -0.0102385   -0.7864993    0.6170428    0.0260194
   0.0222487   -0.0060931   -0.0093355   -0.7926520    0.6077938   -0.0478490
   0.0229089   -0.0055505   -0.0114863   -0.5796196    0.8113173   -0.0761926
   0.0231012   -0.0054245   -0.0113487   -0.3631311    0.9306327   -0.0453721
   0.0228973   -0.0057382   -0.0125057   -0.6257650    0.7542802   -0.1986946
   0.0230238   -0.0054674   -0.0111783   -0.5153137    0.8458795   -0.1376213
   0.0229894   -0.0054680   -0.0111109   -0.3274804    0.9206558   -0.2124840
   0.0221613   -0.0061805   -0.0091178   -0.7977392    0.5992308   -0.0673402
   0.0221711   -0.0064850   -0.0078097   -0.5773881    0.6106630    0.5419537
   0.0221147   -0.0072788   -0.0072460   -0.6579639    0.3393168    0.6722705
   0.0223295   -0.0072925   -0.0070714   -0.4086806    0.3809188    0.8293859
   0.0222189   -0.0060564   -0.0087231   -0.8022514    0.5957949    0.0376977
   0.0220722   -0.0062848   -0.0083126   -0.7499862    0.6214727    0.2264783
   0.0231436   -0.0061540   -0.0138885   -0.6475680    0.6382417   -0.4162970
   0.0228672   -0.0063719   -0.0138104   -0.6612770    0.6513907   -0.3720253
   0.0227204   -0.0061214   -0.0130995   -0.6929636    0.6561985   -0.2986722
   0.0234211   -0.0059382   -0.0139676   -0.5642379    0.5840134   -0.5835785
   0.0307574   -0.0258611   -0.0153568   -0.4862460   -0.5308513    0.6940906
   0.0317717   -0.0269978   -0.0154869   -0.4830545   -0.5264610    0.6996407
   0.0320258   -0.0279214   -0.0160154   -0.5216279   -0.5224869    0.6744715
   0.0328406   -0.0291714   -0.0162762   -0.5398314   -0.4974409    0.6790689
   0.0301345   -0.0250949   -0.0151837   -0.4515765   -0.5339469    0.7148282
   0.0292068   -0.0255013   -0.0160568   -0.4762636   -0.6213130    0.6222082
   0.0282247   -0.0246106   -0.0158430   -0.6102671   -0.6644120    0.4314288
   0.0278318   -0.0245030   -0.0163063   -0.6930824   -0.6616042    0.2862109
   0.0274874   -0.0237841   -0.0154885   -0.6102685   -0.6957871    0.3787515
   0.0267917   -0.0230787   -0.0153186   -0.5156539   -0.7214152    0.4622349
   0.0260905   -0.0220136   -0.0144152   -0.2960366   -0.7736727    0.5601722
   0.0379993   -0.0261646   -0.0225125    0.8181956    0.5410371   -0.1945117
   0.0382978   -0.0266456   -0.0224007    0.8753685    0.4828863   -0.0234682
   0.0376006   -0.0257103   -0.0227589    0.7638257    0.5701954   -0.3024030
   0.0399189   -0.0319844   -0.0195945    0.8888199    0.2615537    0.3762830
   0.0409847   -0.0316834   -0.0229060    0.8971258    0.3729260    0.2368363
   0.0405958   -0.0331134   -0.0203963    0.8798859    0.3089996    0.3609986
   0.0403587   -0.0305024   -0.0221210    0.9080681    0.3679612    0.2000422
   0.0386801   -0.0277280   -0.0238844    0.7651624    0.5700739   -0.2992361
   0.0402428   -0.0299312   -0.0236480    0.8483480    0.5291920   -0.0161708
   0.0394162   -0.0289274   -0.0244126    0.7527990    0.6121075   -0.2421117
   0.0388224   -0.0281180   -0.0242809    0.7526865    0.5941927   -0.2835456
   0.0399053   -0.0294378   -0.0238635    0.8169035    0.5628899   -0.1257924
   0.0405053   -0.0303405   -0.0237701    0.8556996    0.5089496   -0.0935340
   0.0409790   -0.0312524   -0.0238985    0.8861358    0.4627342    0.0253052
   0.0380499   -0.0265307   -0.0231456    0.7757653    0.5654165   -0.2801647
   0.0401722   -0.0332767   -0.0192833    0.8707267    0.3363326    0.3587692
   0.0400022   -0.0338360   -0.0183375    0.7974833    0.3332007    0.5029887
   0.0393066   -0.0325100   -0.0180170    0.7675377    0.2261735    0.5997762
   0.0386988   -0.0329073   -0.0172552    0.6509016    0.2043215    0.7311497
   0.0386487   -0.0340412   -0.0170840    0.4223647    0.0959805    0.9013300
   0.0379045   -0.0321992   -0.0167539    0.5440858   -0.0341826    0.8383330
   0.0381275   -0.0326313   -0.0168991    0.4843944    0.0164325    0.8746954
   0.0374196   -0.0320573   -0.0164537    0.4176879   -0.0732151    0.9056359
   0.0343964   -0.0300985   -0.0158370   -0.3875770   -0.4304696    0.8151564
   0.0331077   -0.0306448   -0.0170907   -0.5724148   -0.4652078    0.6752207
   0.0327810   -0.0297011   -0.0167495   -0.5825961   -0.4810697    0.6550982
   0.0332776   -0.0289869   -0.0158506   -0.5434070   -0.4613061    0.7013597
   0.0362769   -0.0317902   -0.0161524    0.0395899   -0.2786640    0.9595723
   0.0350309   -0.0319977   -0.0165305   -0.3922924   -0.3846535    0.8355527
   0.0356304   -0.0322370   -0.0163883   -0.2656313   -0.3419634    0.9013884
   0.0358410   -0.0320990   -0.0162915   -0.1847326   -0.3143210    0.9311693
   0.0352195   -0.0307502   -0.0158823   -0.1654733   -0.3721542    0.9133016
   0.0371568   -0.0323134   -0.0163804    0.2066223   -0.1617479    0.9649585
   0.0288074   -0.0166054   -0.0199165   -0.1998023    0.2241229   -0.9538595
   0.0282106   -0.0171457   -0.0198396   -0.3841088    0.0447817   -0.9222012
   0.0309660   -0.0203348   -0.0212993   -0.4879105    0.0804035   -0.8691827
   0.0304426   -0.0200504   -0.0209814   -0.3177742    0.1603366   -0.9345115
   0.0307631   -0.0205518   -0.0211982   -0.4030594    0.1384338   -0.9046431
   0.0302984   -0.0203778   -0.0209316   -0.5005219    0.0240648   -0.8653893
   0.0300101   -0.0200167   -0.0207504   -0.5140699    0.0087147   -0.8577040
   0.0296625   -0.0204032   -0.0205432   -0.4623223    0.0577432   -0.8848298
   0.0287383   -0.0179639   -0.0200778   -0.4235768   -0.0103159   -0.9058015
   0.0291885   -0.0188508   -0.0203118   -0.4348656    0.0597950   -0.8985079
   0.0288969   -0.0184102   -0.0201244   -0.3195885    0.1140641   -0.9406660
   0.0285149   -0.0175133   -0.0199772   -0.3999374    0.0435575   -0.9155068
   0.0342038   -0.0246606   -0.0239237   -0.4497249    0.2331082   -0.8622111
   0.0347533   -0.0241755   -0.0239606   -0.0843112    0.4740691   -0.8764417
   0.0347645   -0.0247301   -0.0242393   -0.2950126    0.3782670   -0.8774290
   0.0347317   -0.0236448   -0.0236500    0.0065557    0.5081982   -0.8612152
   0.0333957   -0.0242443   -0.0233108   -0.5848539    0.1022614   -0.8046667
   0.0322133   -0.0236363   -0.0222980   -0.5643478    0.0722822   -0.8223666
   0.0309959   -0.0209585   -0.0213825   -0.5095772    0.0809276   -0.8566107
   0.0297708   -0.0222964   -0.0207084   -0.5374152    0.0456151   -0.8420833
   0.0312581   -0.0208247   -0.0215175   -0.3825376    0.1666550   -0.9087855
   0.0311995   -0.0207416   -0.0214834   -0.3737867    0.1623078   -0.9132030
   0.0365942   -0.0253770   -0.0239059    0.6134689    0.5798008   -0.5361780
   0.0353976   -0.0243134   -0.0239607    0.2984015    0.5764857   -0.7606712
   0.0376034   -0.0279272   -0.0255182    0.5494155    0.6044311   -0.5768931
   0.0356672   -0.0252020   -0.0245394    0.2121586    0.5655772   -0.7969386
   0.0378007   -0.0265062   -0.0236849    0.7198306    0.5855395   -0.3728102
   0.0378290   -0.0269334   -0.0242194    0.6532328    0.5909487   -0.4733567
   0.0267188   -0.0160070   -0.0190753   -0.4995094   -0.1298789   -0.8565173
   0.0255720   -0.0151780   -0.0185122   -0.4995147   -0.2335529   -0.8342291
   0.0262121   -0.0166330   -0.0186313   -0.5807370   -0.1729651   -0.7955046
   0.0272640   -0.0168079   -0.0193179   -0.5602372   -0.0918038   -0.8232292
   0.0270676   -0.0170543   -0.0191397   -0.5187026   -0.0840770   -0.8508106
   0.0249859   -0.0143198   -0.0184643   -0.4442050   -0.3555045   -0.8223737
   0.0246785   -0.0138567   -0.0185538   -0.3523186   -0.4700125   -0.8092959
   0.0253580   -0.0138175   -0.0188895   -0.5100206   -0.2983202   -0.8067739
   0.0245950   -0.0135918   -0.0187122   -0.2674672   -0.5036889   -0.8214370
   0.0236239   -0.0127432   -0.0190744   -0.2288530   -0.3427140   -0.9111385
   0.0237078   -0.0102181   -0.0189601   -0.3856919    0.3554911   -0.8513917
   0.0234590   -0.0119423   -0.0192203   -0.2980747   -0.1050789   -0.9487412
   0.0231553   -0.0121785   -0.0190804   -0.3689104   -0.1965474   -0.9084461
   0.0227090   -0.0120148   -0.0188966   -0.4543937    0.0115717   -0.8907258
   0.0228909   -0.0101686   -0.0185799   -0.3611715    0.3743781   -0.8540470
   0.0226597   -0.0107123   -0.0186923   -0.3487961    0.2718174   -0.8969150
   0.0227592   -0.0112377   -0.0188649   -0.4231288    0.1451838   -0.8943621
   0.0231793   -0.0094937   -0.0183675   -0.3882621    0.5083328   -0.7686679
   0.0238488   -0.0081468   -0.0175438   -0.2632135    0.7211125   -0.6408708
   0.0224697   -0.0084554   -0.0170348   -0.4545761    0.7290167   -0.5117570
   0.0239813   -0.0076052   -0.0169572   -0.3705151    0.7327506   -0.5707847
   0.0228152   -0.0095523   -0.0182159   -0.3430589    0.4733697   -0.8113148
   0.0225389   -0.0088126   -0.0175370   -0.4023690    0.6594264   -0.6350244
   0.0240626   -0.0080014   -0.0174604    0.5945209    0.6027331   -0.5322196
   0.0237822   -0.0065667   -0.0154486   -0.6108601    0.6897772   -0.3886611
   0.0229327   -0.0076431   -0.0160841   -0.4898424    0.7569517   -0.4325257
   0.0230905   -0.0074488   -0.0159140   -0.5327558    0.7079737   -0.4636211
   0.0232017   -0.0071812   -0.0157123   -0.5705024    0.6602795   -0.4884239
   0.0230220   -0.0162901   -0.0083929   -0.1537872   -0.5863920    0.7952949
   0.0223377   -0.0150832   -0.0077821   -0.3370262   -0.5086211    0.7922865
   0.0213800   -0.0155572   -0.0085601   -0.4199406   -0.5162162    0.7464387
   0.0223174   -0.0145489   -0.0074758   -0.3017517   -0.4184772    0.8566346
   0.0231000   -0.0133765   -0.0067652   -0.1207339   -0.3706153    0.9209059
   0.0227257   -0.0131431   -0.0067630   -0.3346958   -0.3222547    0.8855115
   0.0227355   -0.0125413   -0.0065516   -0.3416853   -0.2900216    0.8939455
