NORM_ASCII
2662 5320
3 193 258 263 
3 263 208 193 
3 256 194 264 
3 265 264 194 
3 266 194 196 
3 265 194 266 
3 195 267 196 
3 268 267 195 
3 269 195 270 
3 197 270 195 
3 268 195 269 
3 196 267 266 
3 197 198 271 
3 272 270 197 
3 272 197 271 
3 273 271 198 
3 200 273 198 
3 200 199 274 
3 274 199 204 
3 274 275 200 
3 276 277 200 
3 276 200 275 
3 277 273 200 
3 205 202 201 
3 278 201 207 
3 205 201 206 
3 201 278 206 
3 204 203 279 
3 206 280 203 
3 279 203 280 
3 281 274 204 
3 281 204 279 
3 282 280 206 
3 282 206 278 
3 283 207 210 
3 207 283 278 
3 263 284 208 
3 208 285 209 
3 285 208 284 
3 286 212 209 
3 209 287 286 
3 209 285 288 
3 287 209 288 
3 283 210 211 
3 213 289 211 
3 290 211 289 
3 211 291 292 
3 283 211 292 
3 290 291 211 
3 286 213 212 
3 213 293 289 
3 293 213 286 
3 294 216 214 
3 214 295 294 
3 214 296 295 
3 215 297 214 
3 296 214 297 
3 215 257 297 
3 217 216 294 
3 225 217 298 
3 295 299 217 
3 299 298 217 
3 217 294 295 
3 221 235 219 
3 220 235 221 
3 233 236 220 
3 220 236 235 
3 224 230 222 
3 300 224 223 
3 300 223 226 
3 224 301 230 
3 300 302 224 
3 302 301 224 
3 226 225 298 
3 303 300 226 
3 298 303 226 
3 304 228 227 
3 227 229 305 
3 227 305 304 
3 228 304 231 
3 229 306 307 
3 229 308 309 
3 306 229 309 
3 229 307 305 
3 230 308 229 
3 308 230 301 
3 232 231 304 
3 236 232 234 
3 232 310 234 
3 311 232 304 
3 236 233 232 
3 232 311 310 
3 310 237 234 
3 312 313 237 
3 237 310 312 
3 239 237 313 
3 314 239 315 
3 239 316 317 
3 239 318 316 
3 319 318 239 
3 313 319 239 
3 314 240 239 
3 317 315 239 
3 320 240 314 
3 242 240 320 
3 321 245 241 
3 244 241 245 
3 241 243 321 
3 243 242 320 
3 243 320 322 
3 321 243 322 
3 323 249 245 
3 321 323 245 
3 254 246 247 
3 254 247 248 
3 248 249 324 
3 248 324 254 
3 323 325 249 
3 326 324 249 
3 326 249 325 
3 255 327 250 
3 328 251 250 
3 329 250 327 
3 330 328 250 
3 330 250 329 
3 328 252 251 
3 252 331 253 
3 332 331 252 
3 328 332 252 
3 331 260 253 
3 255 254 324 
3 324 333 255 
3 327 255 333 
3 334 257 256 
3 264 335 256 
3 256 335 334 
3 257 334 297 
3 262 336 258 
3 258 337 263 
3 336 337 258 
3 260 338 261 
3 338 260 331 
3 339 262 261 
3 261 338 339 
3 339 336 262 
3 340 284 263 
3 337 340 263 
3 264 265 341 
3 335 264 341 
3 342 341 265 
3 266 342 265 
3 266 267 268 
3 266 343 342 
3 344 343 266 
3 266 268 344 
3 345 268 346 
3 268 269 346 
3 344 268 345 
3 269 270 272 
3 347 269 271 
3 271 269 272 
3 269 347 346 
3 271 348 347 
3 348 271 273 
3 273 349 348 
3 273 277 349 
3 274 281 275 
3 276 275 281 
3 350 277 276 
3 276 281 351 
3 350 276 351 
3 352 277 350 
3 352 349 277 
3 278 283 282 
3 280 353 279 
3 354 281 279 
3 355 279 353 
3 354 279 355 
3 282 353 280 
3 351 281 354 
3 283 292 282 
3 356 282 292 
3 353 282 356 
3 284 357 285 
3 284 358 357 
3 358 284 340 
3 357 288 285 
3 286 359 293 
3 359 286 287 
3 288 360 287 
3 361 287 360 
3 287 361 359 
3 362 288 363 
3 363 288 357 
3 288 362 360 
3 290 289 293 
3 293 364 290 
3 290 365 366 
3 365 290 367 
3 364 367 290 
3 366 291 290 
3 291 368 292 
3 369 368 291 
3 369 291 366 
3 292 368 370 
3 292 370 356 
3 371 293 359 
3 293 371 364 
3 372 299 295 
3 372 295 296 
3 296 334 335 
3 296 297 334 
3 341 342 296 
3 342 372 296 
3 335 341 296 
3 298 373 374 
3 298 375 373 
3 299 375 298 
3 374 303 298 
3 375 299 372 
3 300 376 377 
3 300 378 379 
3 302 300 379 
3 377 378 300 
3 376 300 303 
3 301 380 381 
3 381 382 301 
3 301 302 380 
3 301 383 308 
3 301 382 383 
3 380 302 384 
3 379 384 302 
3 385 303 386 
3 303 374 386 
3 385 376 303 
3 305 387 304 
3 388 389 304 
3 388 304 387 
3 304 389 311 
3 307 387 305 
3 390 307 306 
3 390 306 391 
3 306 309 391 
3 307 390 392 
3 307 392 387 
3 383 309 308 
3 391 309 383 
3 312 310 311 
3 393 311 389 
3 312 311 393 
3 312 393 313 
3 313 393 319 
3 315 394 314 
3 314 394 395 
3 396 320 314 
3 314 395 396 
3 397 315 317 
3 397 398 315 
3 398 394 315 
3 316 399 317 
3 316 400 399 
3 400 316 318 
3 401 317 399 
3 317 401 397 
3 402 318 319 
3 402 403 318 
3 403 404 318 
3 318 404 400 
3 319 393 402 
3 405 320 396 
3 322 320 406 
3 406 320 405 
3 321 322 407 
3 323 321 408 
3 407 408 321 
3 407 322 409 
3 322 406 410 
3 409 322 410 
3 323 411 412 
3 413 411 323 
3 323 408 413 
3 325 323 414 
3 412 414 323 
3 333 324 326 
3 414 326 325 
3 333 326 414 
3 415 327 416 
3 416 327 333 
3 327 415 329 
3 330 332 328 
3 329 417 418 
3 330 329 418 
3 329 415 417 
3 419 332 330 
3 419 330 418 
3 338 331 332 
3 338 332 419 
3 416 333 414 
3 420 336 339 
3 337 336 420 
3 421 340 337 
3 420 421 337 
3 338 419 339 
3 339 422 423 
3 339 419 422 
3 339 423 424 
3 424 420 339 
3 425 340 421 
3 358 340 425 
3 372 342 375 
3 375 342 426 
3 342 343 427 
3 427 426 342 
3 428 427 343 
3 343 429 428 
3 430 343 344 
3 429 343 430 
3 430 344 431 
3 432 431 344 
3 344 345 432 
3 346 433 345 
3 432 345 433 
3 346 347 348 
3 434 433 346 
3 346 435 434 
3 346 349 435 
3 346 348 349 
3 349 352 435 
3 351 436 350 
3 352 350 436 
3 437 438 351 
3 436 351 439 
3 440 441 351 
3 437 351 354 
3 351 438 440 
3 442 439 351 
3 351 441 442 
3 443 435 352 
3 352 436 443 
3 444 355 353 
3 353 356 445 
3 445 444 353 
3 355 437 354 
3 437 355 444 
3 446 445 356 
3 446 356 370 
3 447 363 357 
3 447 357 358 
3 448 358 425 
3 448 447 358 
3 359 361 371 
3 360 449 361 
3 450 360 362 
3 360 450 449 
3 449 451 361 
3 371 361 451 
3 362 363 452 
3 453 454 362 
3 362 452 455 
3 454 450 362 
3 362 455 453 
3 452 363 447 
3 456 364 371 
3 364 456 367 
3 366 365 457 
3 367 458 365 
3 458 459 365 
3 365 459 457 
3 369 366 446 
3 457 446 366 
3 367 460 461 
3 367 456 460 
3 461 458 367 
3 369 370 368 
3 370 369 446 
3 371 451 456 
3 374 373 462 
3 462 373 375 
3 462 386 374 
3 375 463 462 
3 375 426 463 
3 376 464 377 
3 385 465 376 
3 376 465 464 
3 466 467 377 
3 377 467 378 
3 466 377 464 
3 379 378 468 
3 468 378 467 
3 384 379 468 
3 469 381 380 
3 380 384 470 
3 471 380 470 
3 380 471 469 
3 381 469 472 
3 381 472 473 
3 382 381 473 
3 392 390 382 
3 390 474 382 
3 382 474 383 
3 473 475 382 
3 475 392 382 
3 474 391 383 
3 468 470 384 
3 386 476 385 
3 476 477 385 
3 477 465 385 
3 476 386 478 
3 479 478 386 
3 463 479 386 
3 386 462 463 
3 387 392 480 
3 387 480 388 
3 402 389 388 
3 388 480 481 
3 402 388 482 
3 388 481 482 
3 402 393 389 
3 474 390 391 
3 483 392 484 
3 485 484 392 
3 483 480 392 
3 475 485 392 
3 394 486 395 
3 394 398 486 
3 487 395 486 
3 487 488 395 
3 395 488 489 
3 490 395 489 
3 396 395 490 
3 405 396 490 
3 398 397 401 
3 486 398 401 
3 399 400 491 
3 399 492 493 
3 491 492 399 
3 401 399 493 
3 400 404 491 
3 401 493 494 
3 494 495 401 
3 401 496 486 
3 496 401 495 
3 482 404 402 
3 403 402 404 
3 404 482 497 
3 497 491 404 
3 498 410 405 
3 405 490 498 
3 406 405 410 
3 408 407 499 
3 499 407 409 
3 500 501 408 
3 408 501 413 
3 499 502 408 
3 503 408 502 
3 500 408 503 
3 499 409 502 
3 410 504 409 
3 409 505 506 
3 507 409 504 
3 505 409 507 
3 506 502 409 
3 508 410 498 
3 410 508 504 
3 411 509 412 
3 411 510 509 
3 411 413 511 
3 510 411 511 
3 414 412 416 
3 416 412 509 
3 413 501 511 
3 417 415 416 
3 416 509 512 
3 512 513 416 
3 513 417 416 
3 418 417 514 
3 513 514 417 
3 515 422 418 
3 418 514 515 
3 418 422 419 
3 424 516 420 
3 516 421 420 
3 516 425 421 
3 422 515 423 
3 515 514 423 
3 423 514 517 
3 517 518 423 
3 423 518 424 
3 516 424 519 
3 519 424 520 
3 518 520 424 
3 425 516 519 
3 519 520 425 
3 455 448 425 
3 455 425 520 
3 427 463 426 
3 479 463 427 
3 427 428 479 
3 429 521 428 
3 478 479 428 
3 428 521 478 
3 521 429 522 
3 522 429 430 
3 523 522 430 
3 430 431 523 
3 524 523 431 
3 525 526 431 
3 432 527 431 
3 524 431 526 
3 528 525 431 
3 528 431 434 
3 434 431 527 
3 527 432 433 
3 434 527 433 
3 529 528 434 
3 530 434 435 
3 529 434 530 
3 531 435 443 
3 435 532 530 
3 435 531 532 
3 443 436 533 
3 436 439 534 
3 534 533 436 
3 438 437 535 
3 444 535 437 
3 438 535 536 
3 536 537 438 
3 440 438 537 
3 534 439 538 
3 538 439 442 
3 539 441 440 
3 537 536 440 
3 540 440 536 
3 539 440 540 
3 442 441 538 
3 538 441 539 
3 533 541 443 
3 542 443 541 
3 443 542 531 
3 535 444 543 
3 543 444 445 
3 446 544 445 
3 544 543 445 
3 446 545 544 
3 546 446 457 
3 446 547 545 
3 548 547 446 
3 446 546 548 
3 455 452 447 
3 455 447 448 
3 549 449 450 
3 451 449 550 
3 449 549 550 
3 450 551 552 
3 450 454 553 
3 553 551 450 
3 450 552 549 
3 550 554 451 
3 555 456 451 
3 451 554 555 
3 454 453 556 
3 520 556 453 
3 520 453 455 
3 556 557 454 
3 557 553 454 
3 555 460 456 
3 558 457 459 
3 558 559 457 
3 546 457 559 
3 458 461 459 
3 459 560 561 
3 461 560 459 
3 561 558 459 
3 461 460 560 
3 460 555 560 
3 562 466 464 
3 563 562 464 
3 564 565 464 
3 565 563 464 
3 464 465 564 
3 564 465 477 
3 466 566 467 
3 466 567 566 
3 562 567 466 
3 566 468 467 
3 566 470 468 
3 471 568 469 
3 569 472 469 
3 568 569 469 
3 566 471 470 
3 471 566 568 
3 569 570 472 
3 571 472 570 
3 473 472 571 
3 473 571 475 
3 475 571 572 
3 475 572 485 
3 521 476 478 
3 477 476 521 
3 477 521 564 
3 483 481 480 
3 481 483 497 
3 497 482 481 
3 483 484 573 
3 574 575 483 
3 573 574 483 
3 575 497 483 
3 485 576 484 
3 484 576 577 
3 484 577 573 
3 485 572 576 
3 486 496 487 
3 578 579 487 
3 580 578 487 
3 487 495 580 
3 496 495 487 
3 488 487 579 
3 489 488 581 
3 488 579 582 
3 581 488 582 
3 583 490 489 
3 583 489 581 
3 498 490 583 
3 491 497 584 
3 584 585 491 
3 491 585 586 
3 491 586 492 
3 492 587 493 
3 492 586 587 
3 493 587 494 
3 494 587 588 
3 494 588 495 
3 588 580 495 
3 497 575 589 
3 589 584 497 
3 590 508 498 
3 591 590 498 
3 498 583 591 
3 511 501 500 
3 592 500 503 
3 500 592 511 
3 502 506 503 
3 503 506 592 
3 504 508 593 
3 593 507 504 
3 505 594 506 
3 595 505 596 
3 507 596 505 
3 505 595 597 
3 594 505 597 
3 592 506 594 
3 596 507 593 
3 508 590 593 
3 512 509 510 
3 598 510 511 
3 510 599 512 
3 510 598 599 
3 592 600 511 
3 511 601 598 
3 511 600 601 
3 512 602 513 
3 602 512 599 
3 517 514 513 
3 513 602 517 
3 602 603 517 
3 517 603 518 
3 520 518 603 
3 520 603 604 
3 604 556 520 
3 521 522 564 
3 524 522 523 
3 524 564 522 
3 526 605 524 
3 565 564 524 
3 565 524 606 
3 605 607 524 
3 607 606 524 
3 526 525 605 
3 605 525 608 
3 608 525 528 
3 608 528 529 
3 529 609 610 
3 610 608 529 
3 530 611 529 
3 609 529 611 
3 532 611 530 
3 532 531 542 
3 542 612 532 
3 612 611 532 
3 541 533 534 
3 534 538 613 
3 613 614 534 
3 615 541 534 
3 534 614 616 
3 616 615 534 
3 535 544 545 
3 545 617 535 
3 543 544 535 
3 535 618 536 
3 618 535 619 
3 619 535 617 
3 620 536 618 
3 621 540 536 
3 620 621 536 
3 613 538 539 
3 622 539 623 
3 624 613 539 
3 540 623 539 
3 624 539 622 
3 625 626 540 
3 623 540 626 
3 627 540 621 
3 628 625 540 
3 540 627 628 
3 541 615 542 
3 542 629 630 
3 616 631 542 
3 542 615 616 
3 631 632 542 
3 542 632 629 
3 630 612 542 
3 617 545 547 
3 559 633 546 
3 634 548 546 
3 546 633 634 
3 548 635 547 
3 547 635 636 
3 547 636 637 
3 637 617 547 
3 638 635 548 
3 548 634 638 
3 549 552 639 
3 550 549 639 
3 550 640 554 
3 640 550 641 
3 641 550 639 
3 552 551 642 
3 557 643 551 
3 551 553 557 
3 643 642 551 
3 639 552 644 
3 552 642 645 
3 552 645 646 
3 647 552 646 
3 644 552 647 
3 560 554 640 
3 555 554 560 
3 604 648 556 
3 557 556 648 
3 649 650 557 
3 643 557 650 
3 557 648 649 
3 558 561 651 
3 559 558 651 
3 651 652 559 
3 652 633 559 
3 640 561 560 
3 653 561 640 
3 651 561 653 
3 654 562 655 
3 654 567 562 
3 655 562 563 
3 656 655 563 
3 657 656 563 
3 658 563 565 
3 658 657 563 
3 606 658 565 
3 566 567 659 
3 660 568 566 
3 660 566 659 
3 654 659 567 
3 568 660 569 
3 661 570 569 
3 569 660 661 
3 662 571 570 
3 662 570 661 
3 572 571 662 
3 576 572 663 
3 663 572 662 
3 574 573 577 
3 574 577 664 
3 575 574 665 
3 664 665 574 
3 665 666 575 
3 667 589 575 
3 575 666 667 
3 577 576 668 
3 668 576 663 
3 664 577 668 
3 579 578 669 
3 670 671 578 
3 580 672 578 
3 669 578 671 
3 578 672 670 
3 579 669 673 
3 674 582 579 
3 674 579 673 
3 588 672 580 
3 675 676 581 
3 582 675 581 
3 591 581 676 
3 581 591 583 
3 582 674 675 
3 584 589 677 
3 677 585 584 
3 585 677 678 
3 585 678 586 
3 586 678 679 
3 586 679 587 
3 587 679 680 
3 680 681 587 
3 682 588 587 
3 682 587 681 
3 672 588 682 
3 677 589 667 
3 590 591 683 
3 683 684 590 
3 593 590 684 
3 591 676 683 
3 600 592 594 
3 593 685 686 
3 593 687 685 
3 686 688 593 
3 688 596 593 
3 593 684 687 
3 597 601 594 
3 600 594 601 
3 595 596 688 
3 689 597 595 
3 688 689 595 
3 597 648 601 
3 597 689 650 
3 648 597 649 
3 650 649 597 
3 690 691 598 
3 599 598 691 
3 690 598 601 
3 599 691 602 
3 601 648 604 
3 601 604 690 
3 692 602 691 
3 602 692 603 
3 604 603 692 
3 692 693 604 
3 690 604 693 
3 607 605 608 
3 694 658 606 
3 606 607 694 
3 694 607 610 
3 610 607 608 
3 609 695 610 
3 696 695 609 
3 697 696 609 
3 611 698 609 
3 697 609 698 
3 694 610 699 
3 695 699 610 
3 611 700 698 
3 612 701 611 
3 701 700 611 
3 701 612 630 
3 702 613 624 
3 702 614 613 
3 703 616 614 
3 703 614 702 
3 616 703 631 
3 619 617 637 
3 619 620 618 
3 620 619 637 
3 637 704 620 
3 621 620 627 
3 705 627 620 
3 705 620 704 
3 706 622 623 
3 707 624 622 
3 708 707 622 
3 708 622 706 
3 706 623 626 
3 707 702 624 
3 626 625 706 
3 709 625 628 
3 625 709 706 
3 710 627 705 
3 710 628 627 
3 709 628 710 
3 711 630 629 
3 629 632 712 
3 629 712 711 
3 713 701 630 
3 630 714 713 
3 630 711 714 
3 715 631 707 
3 631 703 707 
3 631 716 632 
3 631 715 716 
3 712 632 716 
3 634 633 717 
3 717 633 652 
3 634 717 718 
3 718 638 634 
3 638 719 635 
3 635 719 636 
3 636 719 720 
3 721 636 722 
3 636 721 637 
3 720 722 636 
3 723 637 721 
3 637 723 704 
3 724 719 638 
3 718 724 638 
3 639 644 641 
3 640 641 653 
3 725 726 641 
3 641 647 725 
3 644 647 641 
3 653 641 726 
3 645 642 727 
3 642 643 727 
3 643 650 728 
3 728 729 643 
3 643 730 727 
3 729 730 643 
3 645 727 646 
3 731 647 646 
3 732 733 646 
3 734 735 646 
3 646 735 732 
3 733 731 646 
3 646 727 734 
3 647 736 725 
3 647 731 737 
3 736 647 737 
3 650 689 738 
3 650 738 728 
3 651 739 740 
3 726 651 653 
3 651 726 739 
3 651 740 741 
3 742 652 651 
3 651 743 742 
3 743 651 741 
3 652 742 743 
3 652 743 717 
3 656 654 655 
3 744 659 654 
3 654 656 745 
3 744 654 745 
3 656 657 745 
3 745 657 694 
3 657 658 694 
3 659 744 746 
3 659 747 661 
3 746 747 659 
3 661 660 659 
3 663 662 661 
3 663 661 747 
3 747 668 663 
3 747 664 668 
3 748 665 664 
3 748 664 747 
3 665 748 749 
3 665 749 666 
3 667 666 750 
3 751 666 749 
3 750 666 751 
3 752 667 750 
3 667 752 678 
3 667 678 677 
3 671 753 669 
3 754 669 753 
3 673 669 754 
3 671 670 753 
3 682 755 670 
3 670 756 757 
3 757 753 670 
3 672 682 670 
3 670 755 756 
3 673 758 759 
3 760 758 673 
3 759 674 673 
3 673 754 760 
3 759 675 674 
3 676 675 761 
3 675 759 761 
3 761 762 676 
3 683 676 762 
3 678 752 679 
3 679 752 680 
3 750 763 680 
3 680 752 750 
3 681 680 763 
3 681 764 682 
3 765 764 681 
3 681 763 765 
3 755 682 764 
3 683 766 684 
3 683 762 766 
3 767 687 684 
3 684 768 767 
3 768 684 766 
3 686 685 769 
3 769 685 687 
3 686 770 688 
3 769 771 686 
3 686 771 770 
3 772 687 767 
3 769 687 773 
3 774 687 772 
3 687 774 773 
3 775 688 770 
3 688 775 776 
3 689 688 776 
3 776 777 689 
3 738 689 777 
3 690 693 691 
3 692 691 693 
3 694 699 778 
3 778 779 694 
3 694 779 780 
3 781 745 694 
3 780 781 694 
3 699 695 782 
3 696 783 695 
3 783 782 695 
3 784 783 696 
3 784 696 697 
3 697 785 784 
3 786 697 713 
3 785 697 786 
3 697 698 713 
3 713 698 700 
3 787 788 699 
3 699 782 787 
3 699 788 778 
3 713 700 701 
3 703 702 707 
3 704 789 705 
3 790 704 723 
3 704 790 789 
3 789 791 705 
3 705 791 792 
3 792 793 705 
3 793 710 705 
3 706 709 708 
3 794 715 707 
3 708 794 707 
3 708 795 796 
3 796 797 708 
3 798 794 708 
3 708 709 795 
3 798 708 797 
3 795 709 710 
3 710 799 795 
3 799 710 793 
3 800 711 801 
3 801 711 712 
3 800 714 711 
3 802 801 712 
3 802 712 716 
3 714 786 713 
3 714 803 786 
3 804 714 805 
3 804 803 714 
3 800 805 714 
3 806 715 794 
3 716 715 806 
3 716 806 807 
3 716 807 808 
3 808 802 716 
3 809 717 743 
3 809 718 717 
3 810 724 718 
3 809 810 718 
3 724 720 719 
3 811 720 724 
3 812 720 811 
3 813 722 720 
3 814 813 720 
3 814 720 812 
3 723 721 722 
3 813 723 722 
3 723 815 790 
3 815 723 813 
3 810 811 724 
3 739 726 725 
3 739 725 736 
3 727 730 734 
3 728 816 729 
3 816 728 738 
3 729 817 818 
3 816 817 729 
3 729 818 730 
3 730 819 734 
3 818 820 730 
3 730 820 819 
3 733 821 731 
3 731 821 822 
3 822 737 731 
3 733 732 823 
3 735 823 732 
3 733 823 824 
3 825 826 733 
3 733 826 827 
3 821 733 827 
3 824 825 733 
3 734 828 735 
3 829 734 819 
3 734 829 828 
3 828 830 735 
3 735 831 832 
3 830 831 735 
3 833 823 735 
3 735 832 833 
3 736 737 834 
3 739 736 834 
3 822 834 737 
3 816 738 777 
3 834 740 739 
3 834 835 740 
3 836 741 740 
3 836 740 837 
3 740 835 837 
3 741 836 743 
3 836 809 743 
3 838 839 744 
3 839 746 744 
3 838 744 745 
3 838 745 781 
3 746 840 747 
3 840 746 839 
3 841 748 747 
3 840 841 747 
3 749 748 841 
3 751 749 841 
3 750 751 842 
3 843 750 842 
3 750 843 763 
3 841 840 751 
3 842 751 840 
3 753 757 844 
3 753 845 754 
3 844 845 753 
3 760 754 845 
3 755 764 846 
3 756 755 847 
3 847 755 846 
3 756 848 757 
3 848 756 849 
3 756 847 849 
3 848 850 757 
3 844 757 850 
3 759 758 851 
3 852 758 853 
3 852 851 758 
3 758 760 853 
3 854 761 759 
3 851 854 759 
3 760 855 856 
3 857 855 760 
3 853 760 858 
3 845 857 760 
3 760 856 858 
3 762 761 854 
3 766 762 859 
3 859 762 854 
3 765 763 843 
3 764 765 846 
3 860 846 765 
3 843 860 765 
3 768 766 861 
3 859 861 766 
3 767 862 772 
3 767 863 862 
3 861 767 768 
3 861 864 767 
3 863 767 865 
3 864 865 767 
3 773 866 769 
3 867 771 769 
3 867 769 866 
3 868 770 771 
3 775 770 868 
3 868 771 867 
3 774 772 862 
3 773 869 870 
3 869 773 774 
3 773 870 866 
3 871 774 872 
3 862 872 774 
3 871 869 774 
3 873 776 775 
3 874 819 775 
3 775 819 873 
3 775 868 874 
3 873 777 776 
3 817 777 873 
3 816 777 817 
3 788 779 778 
3 780 779 875 
3 876 875 779 
3 779 788 876 
3 781 780 838 
3 838 780 875 
3 877 787 782 
3 877 782 878 
3 784 878 782 
3 784 782 783 
3 784 879 878 
3 880 879 784 
3 784 881 880 
3 882 883 784 
3 784 785 882 
3 881 784 883 
3 882 785 803 
3 803 785 786 
3 787 884 788 
3 885 787 877 
3 885 884 787 
3 884 876 788 
3 791 789 790 
3 791 790 815 
3 815 886 791 
3 791 886 887 
3 791 888 792 
3 887 889 791 
3 890 888 791 
3 890 791 889 
3 891 793 792 
3 892 891 792 
3 892 792 888 
3 793 893 799 
3 891 893 793 
3 806 794 798 
3 796 795 799 
3 894 797 796 
3 894 796 799 
3 797 895 896 
3 797 897 895 
3 897 797 894 
3 896 798 797 
3 798 896 806 
3 893 894 799 
3 801 898 800 
3 805 800 899 
3 899 800 900 
3 900 800 898 
3 898 801 802 
3 901 902 802 
3 802 808 901 
3 802 902 898 
3 903 882 803 
3 903 803 904 
3 803 804 904 
3 899 804 805 
3 804 905 904 
3 906 804 899 
3 906 905 804 
3 806 896 807 
3 807 907 908 
3 807 908 808 
3 807 896 909 
3 807 910 911 
3 911 907 807 
3 910 807 909 
3 808 908 901 
3 836 912 809 
3 912 810 809 
3 913 811 810 
3 912 913 810 
3 811 914 812 
3 811 913 915 
3 915 914 811 
3 812 914 814 
3 813 916 815 
3 916 813 814 
3 917 814 914 
3 918 916 814 
3 917 919 814 
3 814 919 918 
3 920 886 815 
3 815 916 920 
3 817 820 818 
3 873 820 817 
3 873 819 820 
3 819 874 829 
3 821 921 822 
3 922 923 821 
3 827 922 821 
3 921 821 923 
3 822 921 835 
3 835 834 822 
3 924 824 823 
3 823 833 924 
3 924 925 824 
3 824 926 825 
3 824 925 926 
3 826 825 927 
3 927 825 926 
3 928 827 826 
3 929 928 826 
3 929 826 927 
3 922 827 929 
3 827 928 929 
3 828 829 930 
3 828 930 830 
3 829 874 870 
3 870 930 829 
3 830 871 831 
3 930 871 830 
3 832 831 931 
3 932 931 831 
3 932 831 871 
3 832 931 933 
3 933 934 832 
3 832 934 935 
3 832 935 833 
3 936 937 833 
3 936 833 935 
3 924 833 937 
3 837 835 921 
3 836 938 912 
3 939 836 940 
3 939 941 836 
3 938 836 941 
3 940 836 837 
3 837 942 940 
3 942 837 943 
3 921 943 837 
3 944 839 838 
3 875 876 838 
3 945 944 838 
3 945 838 876 
3 946 840 839 
3 946 839 944 
3 842 840 947 
3 946 947 840 
3 842 948 843 
3 842 947 948 
3 948 860 843 
3 850 949 844 
3 949 950 844 
3 844 950 951 
3 845 844 951 
3 845 951 857 
3 846 860 952 
3 846 953 847 
3 953 846 952 
3 953 849 847 
3 954 848 849 
3 954 850 848 
3 849 953 954 
3 955 850 954 
3 955 949 850 
3 851 852 956 
3 956 854 851 
3 853 957 852 
3 852 958 959 
3 957 960 852 
3 959 956 852 
3 958 852 960 
3 858 957 853 
3 854 956 859 
3 856 855 961 
3 962 963 855 
3 855 964 962 
3 857 964 855 
3 963 961 855 
3 961 965 856 
3 966 858 856 
3 966 856 967 
3 967 856 965 
3 968 857 969 
3 969 857 950 
3 950 857 951 
3 964 857 968 
3 970 957 858 
3 858 966 970 
3 956 861 859 
3 948 952 860 
3 864 861 956 
3 863 872 862 
3 863 865 932 
3 863 932 871 
3 871 872 863 
3 956 959 864 
3 865 864 959 
3 865 971 931 
3 959 971 865 
3 932 865 931 
3 874 867 866 
3 866 870 874 
3 868 867 874 
3 869 930 870 
3 871 930 869 
3 945 876 972 
3 876 884 972 
3 885 877 973 
3 974 877 878 
3 973 877 974 
3 974 878 879 
3 879 975 976 
3 976 974 879 
3 880 975 879 
3 880 977 975 
3 880 978 979 
3 980 978 880 
3 980 880 881 
3 979 977 880 
3 881 883 980 
3 883 882 903 
3 904 883 903 
3 981 980 883 
3 904 981 883 
3 982 884 885 
3 884 982 983 
3 983 972 884 
3 984 985 885 
3 885 973 984 
3 986 982 885 
3 986 885 985 
3 887 886 920 
3 887 987 889 
3 920 987 887 
3 988 888 890 
3 892 888 988 
3 889 987 989 
3 889 989 990 
3 889 991 992 
3 992 890 889 
3 993 889 990 
3 993 991 889 
3 890 994 995 
3 992 994 890 
3 890 995 988 
3 996 997 891 
3 891 997 893 
3 996 891 998 
3 998 891 892 
3 999 998 892 
3 988 999 892 
3 893 997 894 
3 1000 894 997 
3 894 1000 897 
3 1001 896 895 
3 895 897 1002 
3 1001 895 1002 
3 909 896 1001 
3 1002 897 1000 
3 900 898 902 
3 906 899 1003 
3 1003 899 1004 
3 900 1004 899 
3 1005 1004 900 
3 1005 900 902 
3 1005 902 901 
3 1005 901 1006 
3 901 908 907 
3 1006 901 907 
3 904 1007 981 
3 1007 904 905 
3 905 906 1008 
3 1008 1007 905 
3 906 1009 1008 
3 1003 1010 906 
3 1010 1009 906 
3 907 1011 1006 
3 907 911 1011 
3 909 1012 910 
3 1012 909 1001 
3 911 910 1013 
3 1012 1014 910 
3 1013 910 1014 
3 1015 1011 911 
3 1013 1015 911 
3 938 913 912 
3 913 941 915 
3 941 913 938 
3 914 1016 917 
3 915 1017 914 
3 1016 914 1017 
3 915 941 1017 
3 918 920 916 
3 1018 917 1016 
3 1019 919 917 
3 1018 1019 917 
3 919 1020 918 
3 918 1020 1021 
3 920 918 1021 
3 1019 1020 919 
3 920 1021 987 
3 943 921 923 
3 923 922 1022 
3 922 1023 1022 
3 1024 922 929 
3 922 1024 1023 
3 923 1025 943 
3 1025 923 1022 
3 924 937 1026 
3 1027 924 1026 
3 925 924 1028 
3 1027 1029 924 
3 924 1029 1028 
3 925 1028 926 
3 926 1030 927 
3 1030 926 1031 
3 926 1028 1031 
3 1032 927 1030 
3 1033 929 927 
3 1032 1033 927 
3 929 1033 1024 
3 971 1034 931 
3 1034 1035 931 
3 931 1035 933 
3 1036 933 1035 
3 933 1036 934 
3 1036 935 934 
3 1037 1038 935 
3 1038 936 935 
3 935 1039 1037 
3 1036 1039 935 
3 1038 937 936 
3 937 1040 1026 
3 1040 937 1038 
3 940 1041 939 
3 1042 939 1041 
3 1016 941 939 
3 939 1042 1016 
3 1041 940 942 
3 1016 1017 941 
3 942 943 1025 
3 1025 1043 942 
3 1044 942 1045 
3 1041 942 1044 
3 1045 942 1046 
3 942 1043 1046 
3 1047 944 945 
3 1048 946 944 
3 944 1047 1048 
3 1049 1047 945 
3 945 972 1049 
3 1048 947 946 
3 1048 948 947 
3 1048 952 948 
3 1050 949 955 
3 1050 950 949 
3 969 950 1050 
3 1051 952 1048 
3 952 1051 953 
3 953 1051 954 
3 954 1051 1052 
3 1053 955 954 
3 1053 954 1052 
3 955 1053 1050 
3 957 970 960 
3 971 959 958 
3 958 1034 971 
3 970 1054 958 
3 1034 958 1055 
3 1054 1055 958 
3 960 970 958 
3 1056 961 963 
3 1056 1057 961 
3 1057 965 961 
3 962 1058 963 
3 1059 962 964 
3 1058 962 1059 
3 1060 963 1058 
3 963 1060 1056 
3 968 1061 964 
3 964 1061 1059 
3 965 1057 967 
3 966 967 1062 
3 1062 970 966 
3 1063 967 1057 
3 1064 1062 967 
3 1065 967 1063 
3 967 1065 1064 
3 969 1061 968 
3 1050 1066 969 
3 1066 1061 969 
3 970 1062 1054 
3 1049 972 983 
3 976 984 973 
3 973 974 976 
3 1067 976 975 
3 1067 975 977 
3 984 976 1068 
3 1067 1068 976 
3 977 1069 1070 
3 1070 1067 977 
3 1071 1069 977 
3 1072 1071 977 
3 977 979 1040 
3 1040 1072 977 
3 1026 979 978 
3 1073 1026 978 
3 978 980 1073 
3 1026 1040 979 
3 1073 980 981 
3 981 1007 1073 
3 983 982 986 
3 985 983 986 
3 985 1074 983 
3 983 1074 1049 
3 1075 985 984 
3 1068 1075 984 
3 985 1076 1074 
3 1075 1060 985 
3 1076 985 1060 
3 989 987 1021 
3 1077 988 1078 
3 1079 999 988 
3 1077 1079 988 
3 988 995 1080 
3 988 1080 991 
3 988 991 1081 
3 1081 1082 988 
3 1078 988 1083 
3 988 1082 1083 
3 1021 990 989 
3 990 1021 1084 
3 1084 1085 990 
3 990 1085 993 
3 991 1080 992 
3 991 1086 1081 
3 1086 991 993 
3 992 995 994 
3 992 1080 995 
3 993 1087 1086 
3 993 1085 1088 
3 993 1088 1087 
3 1000 997 996 
3 998 1089 996 
3 1090 1000 996 
3 1090 996 1089 
3 1091 1089 998 
3 1091 998 999 
3 1091 999 1079 
3 1000 1090 1002 
3 1002 1092 1001 
3 1093 1094 1001 
3 1094 1012 1001 
3 1001 1092 1093 
3 1095 1002 1090 
3 1002 1095 1092 
3 1010 1003 1096 
3 1096 1003 1004 
3 1097 1004 1005 
3 1004 1097 1096 
3 1098 1005 1006 
3 1098 1097 1005 
3 1099 1006 1100 
3 1006 1099 1098 
3 1101 1100 1006 
3 1101 1006 1011 
3 1007 1008 1102 
3 1073 1007 1102 
3 1008 1009 1102 
3 1103 1009 1010 
3 1104 1009 1105 
3 1102 1009 1106 
3 1104 1106 1009 
3 1105 1009 1103 
3 1099 1010 1096 
3 1010 1099 1103 
3 1101 1011 1015 
3 1012 1094 1014 
3 1014 1107 1013 
3 1108 1013 1109 
3 1109 1013 1107 
3 1108 1015 1013 
3 1110 1107 1014 
3 1110 1014 1094 
3 1111 1101 1015 
3 1108 1111 1015 
3 1018 1016 1042 
3 1042 1112 1018 
3 1113 1019 1018 
3 1113 1018 1112 
3 1114 1020 1019 
3 1113 1114 1019 
3 1084 1021 1020 
3 1020 1114 1084 
3 1025 1022 1115 
3 1022 1023 1115 
3 1115 1023 1024 
3 1024 1032 1116 
3 1024 1116 1117 
3 1115 1024 1117 
3 1032 1024 1033 
3 1115 1043 1025 
3 1073 1118 1026 
3 1026 1118 1027 
3 1027 1118 1119 
3 1120 1027 1121 
3 1029 1027 1120 
3 1119 1121 1027 
3 1028 1029 1031 
3 1029 1120 1031 
3 1122 1030 1031 
3 1030 1123 1032 
3 1123 1030 1122 
3 1031 1120 1124 
3 1124 1125 1031 
3 1126 1031 1127 
3 1125 1127 1031 
3 1122 1031 1126 
3 1032 1128 1129 
3 1032 1123 1130 
3 1032 1130 1128 
3 1116 1032 1131 
3 1131 1032 1129 
3 1034 1055 1035 
3 1035 1054 1132 
3 1054 1035 1055 
3 1133 1036 1035 
3 1035 1132 1133 
3 1036 1133 1134 
3 1134 1039 1036 
3 1135 1038 1037 
3 1037 1039 1135 
3 1071 1038 1135 
3 1071 1072 1038 
3 1038 1072 1040 
3 1134 1135 1039 
3 1042 1041 1136 
3 1044 1136 1041 
3 1136 1137 1042 
3 1112 1042 1137 
3 1138 1043 1115 
3 1043 1138 1139 
3 1140 1046 1043 
3 1139 1140 1043 
3 1044 1045 1141 
3 1141 1136 1044 
3 1045 1046 1142 
3 1141 1045 1142 
3 1142 1046 1143 
3 1046 1140 1143 
3 1052 1047 1049 
3 1048 1047 1051 
3 1047 1052 1051 
3 1049 1144 1052 
3 1049 1145 1144 
3 1074 1145 1049 
3 1053 1066 1050 
3 1144 1053 1052 
3 1053 1144 1066 
3 1132 1054 1064 
3 1064 1054 1062 
3 1056 1060 1075 
3 1075 1146 1056 
3 1057 1056 1146 
3 1146 1063 1057 
3 1058 1059 1076 
3 1060 1058 1076 
3 1059 1074 1076 
3 1074 1059 1145 
3 1145 1059 1061 
3 1066 1145 1061 
3 1147 1063 1146 
3 1063 1147 1065 
3 1132 1064 1065 
3 1065 1147 1148 
3 1065 1148 1132 
3 1144 1145 1066 
3 1068 1067 1146 
3 1067 1149 1147 
3 1067 1070 1149 
3 1147 1146 1067 
3 1068 1146 1075 
3 1135 1070 1069 
3 1069 1071 1135 
3 1135 1149 1070 
3 1073 1119 1118 
3 1102 1119 1073 
3 1078 1150 1077 
3 1150 1151 1077 
3 1151 1152 1077 
3 1079 1077 1152 
3 1083 1153 1078 
3 1154 1155 1078 
3 1078 1155 1150 
3 1153 1154 1078 
3 1156 1091 1079 
3 1152 1156 1079 
3 1087 1082 1081 
3 1087 1081 1086 
3 1082 1087 1157 
3 1157 1083 1082 
3 1157 1153 1083 
3 1158 1159 1084 
3 1084 1114 1158 
3 1084 1159 1085 
3 1160 1085 1159 
3 1161 1085 1160 
3 1088 1085 1161 
3 1087 1088 1162 
3 1157 1087 1163 
3 1164 1163 1087 
3 1087 1162 1165 
3 1087 1166 1164 
3 1165 1166 1087 
3 1162 1088 1161 
3 1167 1090 1089 
3 1168 1089 1169 
3 1168 1167 1089 
3 1169 1089 1091 
3 1095 1090 1167 
3 1169 1091 1170 
3 1170 1091 1156 
3 1093 1092 1171 
3 1092 1095 1172 
3 1171 1092 1172 
3 1093 1110 1094 
3 1110 1093 1171 
3 1095 1167 1173 
3 1095 1173 1172 
3 1099 1096 1097 
3 1099 1097 1098 
3 1100 1103 1099 
3 1100 1105 1103 
3 1105 1100 1174 
3 1100 1101 1174 
3 1175 1174 1101 
3 1111 1175 1101 
3 1119 1102 1106 
3 1105 1176 1104 
3 1104 1177 1106 
3 1177 1104 1178 
3 1104 1176 1178 
3 1176 1105 1179 
3 1105 1174 1179 
3 1121 1119 1106 
3 1106 1177 1121 
3 1107 1180 1109 
3 1180 1107 1110 
3 1108 1109 1181 
3 1175 1111 1108 
3 1181 1182 1108 
3 1183 1108 1184 
3 1183 1175 1108 
3 1185 1108 1182 
3 1186 1184 1108 
3 1185 1186 1108 
3 1180 1181 1109 
3 1110 1171 1187 
3 1180 1110 1187 
3 1137 1188 1112 
3 1189 1190 1112 
3 1112 1190 1113 
3 1189 1112 1188 
3 1190 1114 1113 
3 1158 1114 1191 
3 1114 1190 1191 
3 1192 1138 1115 
3 1115 1117 1192 
3 1131 1117 1116 
3 1192 1117 1131 
3 1120 1121 1193 
3 1120 1193 1124 
3 1193 1121 1177 
3 1126 1123 1122 
3 1123 1126 1194 
3 1123 1194 1130 
3 1125 1124 1193 
3 1193 1195 1125 
3 1195 1196 1125 
3 1125 1196 1197 
3 1125 1197 1127 
3 1126 1127 1197 
3 1198 1126 1197 
3 1199 1194 1126 
3 1198 1200 1126 
3 1199 1126 1200 
3 1128 1201 1129 
3 1201 1128 1130 
3 1202 1129 1201 
3 1129 1202 1131 
3 1203 1204 1130 
3 1130 1204 1201 
3 1199 1203 1130 
3 1130 1194 1199 
3 1205 1192 1131 
3 1131 1206 1205 
3 1131 1207 1206 
3 1131 1202 1207 
3 1132 1148 1133 
3 1134 1133 1148 
3 1135 1134 1148 
3 1149 1135 1147 
3 1135 1148 1147 
3 1141 1208 1136 
3 1137 1136 1208 
3 1188 1137 1208 
3 1139 1138 1192 
3 1209 1140 1139 
3 1209 1139 1192 
3 1143 1140 1210 
3 1209 1210 1140 
3 1142 1211 1141 
3 1141 1212 1208 
3 1141 1211 1212 
3 1211 1142 1143 
3 1143 1212 1211 
3 1143 1213 1212 
3 1143 1210 1213 
3 1150 1214 1151 
3 1150 1155 1214 
3 1151 1215 1156 
3 1214 1215 1151 
3 1152 1151 1156 
3 1216 1153 1157 
3 1216 1154 1153 
3 1154 1217 1155 
3 1217 1154 1216 
3 1218 1155 1217 
3 1218 1214 1155 
3 1219 1156 1215 
3 1156 1219 1170 
3 1157 1163 1216 
3 1159 1158 1220 
3 1191 1221 1158 
3 1222 1158 1221 
3 1223 1220 1158 
3 1158 1222 1224 
3 1158 1224 1225 
3 1223 1158 1225 
3 1159 1220 1160 
3 1161 1160 1223 
3 1223 1160 1220 
3 1223 1225 1161 
3 1225 1226 1161 
3 1161 1226 1227 
3 1162 1161 1228 
3 1161 1227 1228 
3 1228 1165 1162 
3 1164 1229 1163 
3 1163 1230 1216 
3 1229 1230 1163 
3 1231 1232 1164 
3 1164 1166 1231 
3 1164 1232 1229 
3 1228 1233 1165 
3 1234 1165 1233 
3 1166 1165 1234 
3 1166 1234 1231 
3 1173 1167 1168 
3 1173 1168 1169 
3 1235 1173 1169 
3 1170 1235 1169 
3 1235 1170 1236 
3 1219 1237 1170 
3 1170 1238 1239 
3 1239 1240 1170 
3 1240 1236 1170 
3 1237 1238 1170 
3 1187 1171 1172 
3 1241 1172 1242 
3 1172 1241 1187 
3 1242 1172 1243 
3 1172 1173 1235 
3 1172 1235 1243 
3 1244 1179 1174 
3 1174 1245 1244 
3 1174 1175 1245 
3 1175 1246 1247 
3 1175 1248 1249 
3 1247 1248 1175 
3 1175 1249 1245 
3 1183 1246 1175 
3 1178 1176 1250 
3 1176 1179 1251 
3 1251 1250 1176 
3 1178 1193 1177 
3 1195 1178 1250 
3 1193 1178 1195 
3 1244 1251 1179 
3 1180 1182 1181 
3 1252 1180 1187 
3 1182 1180 1252 
3 1182 1253 1185 
3 1253 1182 1252 
3 1254 1183 1184 
3 1246 1183 1254 
3 1254 1184 1255 
3 1256 1255 1184 
3 1256 1184 1186 
3 1253 1257 1185 
3 1258 1186 1185 
3 1185 1257 1258 
3 1259 1260 1186 
3 1186 1260 1256 
3 1259 1186 1258 
3 1187 1241 1252 
3 1188 1208 1261 
3 1189 1188 1262 
3 1262 1188 1261 
3 1191 1190 1189 
3 1189 1262 1263 
3 1189 1263 1191 
3 1263 1221 1191 
3 1264 1209 1192 
3 1264 1192 1205 
3 1250 1196 1195 
3 1250 1251 1196 
3 1196 1251 1265 
3 1196 1265 1197 
3 1266 1197 1265 
3 1266 1198 1197 
3 1198 1266 1200 
3 1267 1199 1200 
3 1199 1267 1268 
3 1268 1203 1199 
3 1267 1200 1269 
3 1266 1269 1200 
3 1270 1202 1201 
3 1270 1201 1204 
3 1207 1202 1270 
3 1203 1271 1204 
3 1203 1268 1271 
3 1204 1271 1270 
3 1272 1273 1205 
3 1273 1274 1205 
3 1205 1206 1272 
3 1264 1205 1274 
3 1275 1206 1207 
3 1206 1276 1277 
3 1206 1275 1276 
3 1206 1277 1272 
3 1278 1279 1207 
3 1278 1207 1270 
3 1280 1207 1281 
3 1207 1280 1282 
3 1275 1207 1282 
3 1207 1279 1281 
3 1208 1283 1284 
3 1284 1261 1208 
3 1283 1208 1212 
3 1213 1210 1209 
3 1213 1209 1264 
3 1285 1286 1212 
3 1286 1287 1212 
3 1212 1287 1283 
3 1212 1213 1285 
3 1213 1264 1285 
3 1288 1214 1218 
3 1214 1288 1289 
3 1215 1214 1289 
3 1219 1215 1290 
3 1289 1291 1215 
3 1290 1215 1291 
3 1292 1216 1288 
3 1216 1293 1288 
3 1216 1294 1293 
3 1292 1217 1216 
3 1230 1294 1216 
3 1218 1217 1292 
3 1288 1218 1292 
3 1295 1219 1290 
3 1237 1219 1295 
3 1296 1221 1263 
3 1296 1222 1221 
3 1297 1222 1296 
3 1297 1224 1222 
3 1298 1224 1297 
3 1298 1225 1224 
3 1299 1225 1298 
3 1299 1226 1225 
3 1300 1226 1299 
3 1300 1227 1226 
3 1301 1227 1300 
3 1302 1228 1227 
3 1301 1302 1227 
3 1228 1302 1233 
3 1303 1304 1229 
3 1229 1232 1303 
3 1305 1229 1304 
3 1230 1229 1305 
3 1294 1230 1305 
3 1306 1232 1231 
3 1234 1233 1231 
3 1231 1307 1308 
3 1231 1233 1307 
3 1231 1308 1306 
3 1232 1306 1303 
3 1309 1310 1233 
3 1233 1302 1309 
3 1233 1310 1307 
3 1236 1243 1235 
3 1311 1243 1236 
3 1311 1236 1240 
3 1312 1237 1313 
3 1314 1238 1237 
3 1295 1313 1237 
3 1312 1314 1237 
3 1315 1239 1238 
3 1315 1238 1314 
3 1239 1316 1317 
3 1317 1240 1239 
3 1239 1315 1316 
3 1240 1317 1318 
3 1318 1311 1240 
3 1319 1241 1242 
3 1319 1252 1241 
3 1319 1242 1320 
3 1311 1320 1242 
3 1243 1311 1242 
3 1245 1249 1244 
3 1244 1265 1251 
3 1265 1244 1321 
3 1244 1249 1321 
3 1247 1246 1322 
3 1322 1246 1254 
3 1248 1247 1323 
3 1324 1323 1247 
3 1247 1322 1324 
3 1325 1249 1248 
3 1326 1325 1248 
3 1323 1326 1248 
3 1249 1325 1321 
3 1253 1252 1319 
3 1319 1257 1253 
3 1254 1327 1322 
3 1328 1329 1254 
3 1254 1255 1328 
3 1329 1327 1254 
3 1255 1330 1328 
3 1331 1255 1256 
3 1331 1330 1255 
3 1256 1332 1331 
3 1256 1333 1332 
3 1334 1256 1260 
3 1334 1333 1256 
3 1335 1257 1319 
3 1258 1257 1335 
3 1336 1337 1258 
3 1258 1335 1338 
3 1336 1258 1338 
3 1339 1259 1258 
3 1258 1340 1339 
3 1258 1341 1342 
3 1341 1258 1343 
3 1344 1340 1258 
3 1258 1337 1343 
3 1258 1342 1344 
3 1260 1259 1334 
3 1259 1339 1334 
3 1345 1346 1261 
3 1345 1261 1284 
3 1261 1346 1262 
3 1347 1263 1262 
3 1347 1262 1346 
3 1347 1296 1263 
3 1264 1348 1349 
3 1350 1285 1264 
3 1264 1349 1350 
3 1264 1274 1348 
3 1265 1321 1266 
3 1269 1266 1321 
3 1269 1351 1267 
3 1267 1352 1353 
3 1352 1267 1351 
3 1354 1268 1267 
3 1355 1354 1267 
3 1353 1355 1267 
3 1354 1356 1268 
3 1357 1271 1268 
3 1356 1357 1268 
3 1321 1325 1269 
3 1269 1325 1351 
3 1278 1270 1271 
3 1271 1357 1278 
3 1272 1277 1273 
3 1348 1274 1273 
3 1273 1358 1359 
3 1277 1358 1273 
3 1348 1273 1359 
3 1282 1360 1275 
3 1360 1276 1275 
3 1358 1277 1276 
3 1358 1276 1361 
3 1361 1276 1360 
3 1278 1362 1279 
3 1357 1363 1278 
3 1363 1364 1278 
3 1362 1278 1365 
3 1365 1278 1364 
3 1279 1362 1366 
3 1279 1366 1281 
3 1281 1367 1280 
3 1367 1368 1280 
3 1280 1369 1282 
3 1368 1370 1280 
3 1369 1280 1370 
3 1281 1366 1371 
3 1367 1281 1372 
3 1372 1281 1371 
3 1282 1369 1360 
3 1284 1283 1373 
3 1374 1283 1287 
3 1374 1373 1283 
3 1373 1375 1284 
3 1376 1345 1284 
3 1284 1375 1377 
3 1377 1376 1284 
3 1285 1378 1286 
3 1350 1374 1285 
3 1374 1378 1285 
3 1287 1286 1378 
3 1287 1378 1374 
3 1288 1379 1380 
3 1288 1381 1289 
3 1288 1382 1381 
3 1382 1288 1380 
3 1379 1288 1293 
3 1289 1381 1383 
3 1289 1383 1291 
3 1295 1290 1291 
3 1384 1291 1383 
3 1385 1295 1291 
3 1386 1291 1384 
3 1291 1386 1385 
3 1379 1293 1294 
3 1294 1387 1388 
3 1294 1388 1389 
3 1294 1390 1391 
3 1389 1379 1294 
3 1391 1387 1294 
3 1390 1294 1305 
3 1385 1313 1295 
3 1392 1296 1347 
3 1392 1297 1296 
3 1393 1297 1392 
3 1393 1298 1297 
3 1394 1298 1393 
3 1394 1299 1298 
3 1395 1299 1394 
3 1395 1300 1299 
3 1396 1300 1395 
3 1396 1301 1300 
3 1397 1301 1396 
3 1398 1302 1301 
3 1397 1398 1301 
3 1302 1398 1309 
3 1303 1399 1304 
3 1303 1306 1400 
3 1400 1401 1303 
3 1303 1401 1399 
3 1305 1304 1402 
3 1304 1399 1403 
3 1404 1304 1405 
3 1304 1403 1405 
3 1304 1404 1402 
3 1402 1390 1305 
3 1308 1400 1306 
3 1406 1308 1307 
3 1310 1407 1307 
3 1406 1307 1407 
3 1408 1308 1406 
3 1408 1400 1308 
3 1409 1310 1309 
3 1409 1309 1410 
3 1410 1309 1398 
3 1411 1310 1409 
3 1310 1411 1407 
3 1311 1412 1320 
3 1413 1311 1318 
3 1413 1412 1311 
3 1414 1312 1313 
3 1312 1315 1314 
3 1315 1312 1415 
3 1416 1415 1312 
3 1312 1414 1416 
3 1313 1417 1414 
3 1313 1385 1417 
3 1415 1316 1315 
3 1316 1418 1317 
3 1419 1418 1316 
3 1420 1316 1415 
3 1420 1419 1316 
3 1413 1317 1421 
3 1418 1421 1317 
3 1413 1318 1317 
3 1320 1422 1319 
3 1319 1423 1335 
3 1423 1319 1422 
3 1422 1320 1412 
3 1424 1322 1327 
3 1322 1424 1324 
3 1323 1352 1326 
3 1352 1323 1425 
3 1324 1425 1323 
3 1324 1426 1425 
3 1426 1324 1427 
3 1424 1427 1324 
3 1325 1326 1351 
3 1351 1326 1352 
3 1327 1428 1424 
3 1329 1428 1327 
3 1329 1328 1429 
3 1429 1328 1430 
3 1328 1330 1430 
3 1428 1329 1429 
3 1430 1330 1431 
3 1330 1331 1431 
3 1431 1331 1432 
3 1332 1432 1331 
3 1432 1332 1433 
3 1332 1434 1433 
3 1434 1332 1333 
3 1333 1435 1436 
3 1436 1434 1333 
3 1435 1333 1334 
3 1437 1435 1334 
3 1437 1334 1339 
3 1438 1335 1423 
3 1335 1438 1338 
3 1337 1336 1439 
3 1336 1338 1439 
3 1337 1439 1440 
3 1343 1337 1440 
3 1439 1338 1438 
3 1339 1441 1437 
3 1339 1340 1442 
3 1441 1339 1442 
3 1340 1443 1444 
3 1444 1442 1340 
3 1340 1344 1443 
3 1342 1341 1445 
3 1341 1446 1445 
3 1447 1446 1341 
3 1341 1343 1447 
3 1445 1344 1342 
3 1448 1343 1440 
3 1447 1343 1449 
3 1449 1343 1448 
3 1344 1445 1443 
3 1450 1346 1345 
3 1345 1376 1451 
3 1451 1450 1345 
3 1346 1450 1347 
3 1392 1347 1450 
3 1348 1452 1349 
3 1359 1453 1348 
3 1348 1453 1452 
3 1349 1454 1455 
3 1456 1454 1349 
3 1349 1455 1350 
3 1349 1452 1456 
3 1457 1350 1455 
3 1373 1350 1457 
3 1373 1374 1350 
3 1425 1353 1352 
3 1425 1355 1353 
3 1355 1356 1354 
3 1458 1355 1425 
3 1355 1363 1356 
3 1458 1363 1355 
3 1357 1356 1363 
3 1358 1361 1359 
3 1453 1359 1361 
3 1459 1361 1360 
3 1459 1360 1369 
3 1361 1459 1453 
3 1366 1362 1460 
3 1460 1362 1365 
3 1458 1364 1363 
3 1458 1426 1364 
3 1426 1427 1364 
3 1364 1427 1365 
3 1427 1424 1365 
3 1365 1424 1460 
3 1371 1366 1460 
3 1367 1461 1462 
3 1461 1367 1372 
3 1462 1368 1367 
3 1368 1462 1463 
3 1463 1370 1368 
3 1464 1459 1369 
3 1369 1465 1466 
3 1467 1369 1370 
3 1464 1369 1466 
3 1465 1369 1467 
3 1467 1370 1468 
3 1468 1370 1463 
3 1460 1469 1371 
3 1469 1470 1371 
3 1371 1470 1372 
3 1470 1471 1372 
3 1372 1471 1461 
3 1472 1373 1457 
3 1375 1373 1473 
3 1473 1373 1472 
3 1474 1377 1375 
3 1473 1474 1375 
3 1376 1475 1451 
3 1475 1376 1377 
3 1377 1474 1476 
3 1377 1476 1475 
3 1477 1380 1379 
3 1379 1389 1477 
3 1380 1383 1382 
3 1383 1380 1384 
3 1380 1478 1384 
3 1478 1380 1477 
3 1382 1383 1381 
3 1384 1479 1386 
3 1478 1480 1384 
3 1384 1480 1479 
3 1417 1385 1481 
3 1481 1385 1386 
3 1479 1481 1386 
3 1482 1388 1387 
3 1483 1387 1391 
3 1484 1482 1387 
3 1484 1387 1483 
3 1389 1388 1482 
3 1482 1477 1389 
3 1402 1391 1390 
3 1485 1391 1402 
3 1486 1483 1391 
3 1485 1486 1391 
3 1450 1487 1392 
3 1488 1393 1392 
3 1392 1487 1488 
3 1488 1489 1393 
3 1394 1393 1489 
3 1395 1394 1489 
3 1395 1490 1491 
3 1489 1490 1395 
3 1492 1396 1395 
3 1395 1491 1492 
3 1492 1493 1396 
3 1397 1396 1493 
3 1410 1398 1397 
3 1410 1397 1494 
3 1494 1397 1493 
3 1495 1399 1401 
3 1399 1495 1403 
3 1496 1400 1408 
3 1496 1401 1400 
3 1495 1401 1496 
3 1404 1497 1402 
3 1402 1497 1485 
3 1403 1498 1499 
3 1500 1403 1495 
3 1403 1500 1498 
3 1405 1403 1499 
3 1501 1404 1405 
3 1497 1404 1501 
3 1405 1502 1501 
3 1503 1405 1499 
3 1405 1504 1502 
3 1503 1504 1405 
3 1505 1406 1407 
3 1506 1406 1505 
3 1506 1408 1406 
3 1411 1507 1407 
3 1505 1407 1507 
3 1508 1408 1506 
3 1508 1496 1408 
3 1409 1410 1509 
3 1411 1409 1510 
3 1510 1409 1509 
3 1509 1410 1494 
3 1507 1411 1510 
3 1413 1422 1412 
3 1511 1422 1413 
3 1511 1413 1439 
3 1439 1413 1421 
3 1414 1512 1513 
3 1513 1416 1414 
3 1512 1414 1514 
3 1417 1514 1414 
3 1420 1415 1416 
3 1416 1513 1515 
3 1416 1515 1420 
3 1417 1481 1516 
3 1417 1516 1514 
3 1419 1517 1418 
3 1517 1421 1418 
3 1440 1517 1419 
3 1518 1440 1419 
3 1519 1520 1419 
3 1419 1420 1519 
3 1419 1520 1518 
3 1420 1521 1519 
3 1420 1515 1521 
3 1439 1421 1517 
3 1511 1423 1422 
3 1438 1423 1511 
3 1428 1469 1424 
3 1424 1469 1460 
3 1425 1426 1458 
3 1469 1428 1470 
3 1429 1522 1428 
3 1428 1522 1470 
3 1430 1523 1429 
3 1429 1523 1522 
3 1431 1524 1430 
3 1430 1524 1523 
3 1432 1525 1431 
3 1431 1525 1524 
3 1433 1525 1432 
3 1433 1526 1525 
3 1527 1526 1433 
3 1433 1434 1527 
3 1527 1434 1528 
3 1434 1436 1529 
3 1434 1529 1528 
3 1436 1435 1529 
3 1529 1435 1530 
3 1435 1437 1530 
3 1530 1437 1531 
3 1437 1441 1531 
3 1439 1438 1511 
3 1440 1439 1517 
3 1518 1448 1440 
3 1442 1532 1441 
3 1531 1441 1533 
3 1533 1441 1532 
3 1444 1532 1442 
3 1534 1444 1443 
3 1535 1443 1445 
3 1443 1535 1534 
3 1534 1536 1444 
3 1532 1444 1536 
3 1535 1445 1446 
3 1535 1446 1537 
3 1537 1446 1447 
3 1447 1538 1537 
3 1538 1447 1449 
3 1448 1518 1539 
3 1448 1539 1449 
3 1540 1538 1449 
3 1449 1541 1540 
3 1541 1449 1542 
3 1539 1542 1449 
3 1487 1450 1451 
3 1451 1475 1543 
3 1543 1487 1451 
3 1464 1544 1452 
3 1544 1456 1452 
3 1452 1453 1459 
3 1464 1452 1459 
3 1455 1454 1544 
3 1456 1544 1454 
3 1457 1455 1472 
3 1472 1455 1544 
3 1461 1545 1462 
3 1471 1545 1461 
3 1545 1546 1462 
3 1462 1546 1463 
3 1463 1547 1468 
3 1526 1463 1546 
3 1526 1527 1463 
3 1547 1463 1527 
3 1464 1548 1544 
3 1549 1548 1464 
3 1466 1550 1464 
3 1550 1549 1464 
3 1466 1465 1551 
3 1552 1553 1465 
3 1465 1467 1554 
3 1554 1552 1465 
3 1551 1465 1553 
3 1550 1466 1551 
3 1467 1468 1554 
3 1547 1555 1468 
3 1554 1468 1556 
3 1468 1555 1556 
3 1470 1522 1471 
3 1522 1523 1471 
3 1471 1523 1545 
3 1473 1472 1557 
3 1472 1558 1557 
3 1472 1544 1559 
3 1559 1558 1472 
3 1557 1474 1473 
3 1474 1557 1476 
3 1475 1560 1543 
3 1476 1560 1475 
3 1476 1561 1560 
3 1561 1476 1562 
3 1562 1476 1557 
3 1477 1563 1564 
3 1565 1477 1482 
3 1566 1563 1477 
3 1564 1478 1477 
3 1477 1567 1566 
3 1477 1565 1567 
3 1478 1568 1480 
3 1564 1568 1478 
3 1569 1479 1568 
3 1570 1481 1479 
3 1479 1571 1572 
3 1480 1568 1479 
3 1479 1572 1570 
3 1573 1571 1479 
3 1573 1479 1569 
3 1481 1574 1516 
3 1570 1574 1481 
3 1482 1575 1576 
3 1482 1484 1575 
3 1576 1565 1482 
3 1483 1486 1577 
3 1484 1483 1577 
3 1578 1579 1484 
3 1484 1580 1578 
3 1581 1575 1484 
3 1484 1579 1581 
3 1580 1484 1577 
3 1497 1486 1485 
3 1497 1577 1486 
3 1488 1487 1543 
3 1489 1488 1490 
3 1490 1488 1582 
3 1582 1488 1543 
3 1491 1490 1583 
3 1583 1490 1582 
3 1492 1491 1584 
3 1584 1491 1583 
3 1493 1492 1585 
3 1585 1492 1586 
3 1586 1492 1584 
3 1493 1585 1494 
3 1587 1509 1494 
3 1494 1585 1588 
3 1587 1494 1588 
3 1500 1495 1589 
3 1589 1495 1496 
3 1589 1496 1508 
3 1577 1497 1501 
3 1499 1498 1590 
3 1498 1591 1590 
3 1500 1591 1498 
3 1590 1592 1499 
3 1499 1592 1503 
3 1591 1500 1589 
3 1502 1577 1501 
3 1502 1504 1593 
3 1577 1502 1593 
3 1504 1503 1593 
3 1594 1503 1592 
3 1503 1594 1593 
3 1505 1507 1595 
3 1506 1505 1596 
3 1596 1505 1595 
3 1508 1506 1596 
3 1595 1507 1597 
3 1507 1510 1598 
3 1507 1598 1599 
3 1507 1599 1597 
3 1589 1508 1600 
3 1508 1596 1600 
3 1509 1587 1510 
3 1599 1598 1510 
3 1510 1587 1599 
3 1513 1512 1601 
3 1602 1512 1514 
3 1603 1601 1512 
3 1604 1603 1512 
3 1604 1512 1602 
3 1601 1515 1513 
3 1602 1514 1516 
3 1515 1601 1605 
3 1605 1521 1515 
3 1516 1606 1602 
3 1606 1516 1574 
3 1539 1518 1520 
3 1607 1520 1519 
3 1608 1519 1521 
3 1608 1607 1519 
3 1539 1520 1607 
3 1521 1605 1608 
3 1523 1524 1545 
3 1545 1524 1546 
3 1524 1525 1546 
3 1546 1525 1526 
3 1527 1528 1547 
3 1609 1528 1529 
3 1609 1547 1528 
3 1529 1530 1609 
3 1530 1531 1609 
3 1609 1531 1610 
3 1531 1533 1610 
3 1532 1611 1533 
3 1532 1536 1612 
3 1532 1612 1613 
3 1613 1611 1532 
3 1611 1610 1533 
3 1534 1535 1614 
3 1534 1615 1536 
3 1614 1615 1534 
3 1540 1614 1535 
3 1535 1537 1540 
3 1616 1536 1617 
3 1616 1612 1536 
3 1617 1536 1615 
3 1540 1537 1538 
3 1542 1539 1607 
3 1618 1540 1619 
3 1541 1619 1540 
3 1618 1614 1540 
3 1619 1541 1542 
3 1620 1621 1542 
3 1542 1607 1608 
3 1542 1622 1623 
3 1542 1608 1620 
3 1621 1624 1542 
3 1542 1623 1619 
3 1622 1542 1624 
3 1543 1560 1582 
3 1544 1548 1559 
3 1547 1609 1555 
3 1625 1548 1626 
3 1548 1625 1627 
3 1559 1548 1627 
3 1548 1549 1626 
3 1549 1628 1629 
3 1626 1549 1629 
3 1630 1628 1549 
3 1549 1550 1631 
3 1630 1549 1631 
3 1631 1550 1551 
3 1553 1632 1551 
3 1631 1551 1633 
3 1551 1632 1633 
3 1632 1553 1552 
3 1554 1556 1552 
3 1552 1634 1632 
3 1552 1635 1636 
3 1556 1637 1552 
3 1552 1637 1635 
3 1636 1634 1552 
3 1609 1610 1555 
3 1555 1638 1556 
3 1638 1555 1610 
3 1556 1638 1639 
3 1637 1556 1639 
3 1562 1557 1640 
3 1641 1557 1558 
3 1640 1557 1641 
3 1559 1642 1558 
3 1643 1641 1558 
3 1644 1558 1642 
3 1558 1644 1643 
3 1559 1627 1642 
3 1560 1561 1645 
3 1560 1645 1582 
3 1640 1646 1561 
3 1640 1561 1562 
3 1561 1646 1645 
3 1564 1563 1647 
3 1648 1647 1563 
3 1566 1649 1563 
3 1563 1649 1648 
3 1650 1564 1647 
3 1651 1564 1650 
3 1568 1564 1651 
3 1652 1565 1653 
3 1652 1654 1565 
3 1567 1565 1654 
3 1655 1653 1565 
3 1656 1655 1565 
3 1656 1565 1576 
3 1566 1654 1657 
3 1654 1566 1567 
3 1649 1566 1657 
3 1651 1569 1568 
3 1650 1569 1651 
3 1569 1650 1658 
3 1658 1573 1569 
3 1570 1572 1659 
3 1659 1574 1570 
3 1572 1571 1660 
3 1661 1660 1571 
3 1661 1571 1573 
3 1662 1659 1572 
3 1572 1660 1662 
3 1661 1573 1663 
3 1658 1663 1573 
3 1659 1606 1574 
3 1576 1575 1664 
3 1664 1575 1665 
3 1666 1575 1581 
3 1575 1666 1665 
3 1664 1656 1576 
3 1593 1580 1577 
3 1579 1578 1667 
3 1667 1578 1580 
3 1581 1579 1667 
3 1593 1668 1580 
3 1580 1668 1669 
3 1667 1580 1669 
3 1666 1581 1670 
3 1670 1581 1667 
3 1582 1645 1583 
3 1645 1646 1583 
3 1583 1646 1584 
3 1646 1586 1584 
3 1588 1585 1586 
3 1640 1586 1646 
3 1640 1588 1586 
3 1588 1599 1587 
3 1588 1640 1671 
3 1671 1599 1588 
3 1600 1672 1589 
3 1589 1673 1591 
3 1673 1589 1672 
3 1590 1591 1673 
3 1674 1675 1590 
3 1676 1590 1673 
3 1590 1676 1674 
3 1592 1590 1675 
3 1677 1592 1675 
3 1677 1594 1592 
3 1678 1593 1594 
3 1593 1679 1668 
3 1679 1593 1678 
3 1594 1677 1680 
3 1594 1681 1682 
3 1681 1594 1680 
3 1682 1678 1594 
3 1683 1595 1597 
3 1683 1596 1595 
3 1600 1596 1683 
3 1671 1684 1597 
3 1597 1599 1671 
3 1683 1597 1684 
3 1683 1672 1600 
3 1601 1685 1686 
3 1687 1601 1603 
3 1687 1685 1601 
3 1686 1605 1601 
3 1602 1606 1604 
3 1603 1688 1687 
3 1688 1603 1604 
3 1689 1690 1604 
3 1604 1606 1659 
3 1604 1659 1662 
3 1690 1688 1604 
3 1604 1662 1689 
3 1621 1620 1605 
3 1605 1691 1621 
3 1620 1608 1605 
3 1605 1686 1691 
3 1692 1638 1610 
3 1611 1692 1610 
3 1692 1611 1693 
3 1613 1693 1611 
3 1616 1613 1612 
3 1613 1694 1693 
3 1613 1616 1694 
3 1615 1614 1695 
3 1695 1614 1618 
3 1615 1696 1697 
3 1615 1697 1698 
3 1698 1617 1615 
3 1696 1615 1695 
3 1616 1617 1698 
3 1699 1700 1616 
3 1701 1699 1616 
3 1694 1616 1700 
3 1698 1701 1616 
3 1619 1702 1618 
3 1695 1618 1702 
3 1703 1619 1704 
3 1619 1703 1702 
3 1623 1704 1619 
3 1624 1621 1691 
3 1623 1622 1705 
3 1705 1622 1624 
3 1623 1706 1704 
3 1707 1706 1623 
3 1623 1705 1707 
3 1705 1624 1691 
3 1626 1642 1625 
3 1642 1627 1625 
3 1626 1708 1642 
3 1626 1709 1708 
3 1709 1626 1710 
3 1626 1629 1710 
3 1710 1629 1628 
3 1710 1628 1630 
3 1630 1711 1710 
3 1711 1630 1712 
3 1712 1630 1713 
3 1630 1714 1713 
3 1631 1714 1630 
3 1633 1715 1631 
3 1716 1717 1631 
3 1714 1631 1717 
3 1631 1715 1716 
3 1634 1633 1632 
3 1633 1634 1718 
3 1718 1715 1633 
3 1719 1720 1634 
3 1634 1720 1718 
3 1719 1634 1636 
3 1721 1636 1635 
3 1639 1722 1635 
3 1637 1639 1635 
3 1635 1722 1721 
3 1723 1636 1721 
3 1724 1725 1636 
3 1725 1719 1636 
3 1723 1724 1636 
3 1693 1638 1692 
3 1639 1638 1693 
3 1639 1693 1722 
3 1671 1640 1641 
3 1641 1643 1671 
3 1642 1708 1644 
3 1671 1643 1644 
3 1684 1671 1644 
3 1684 1644 1708 
3 1647 1648 1650 
3 1648 1726 1650 
3 1648 1649 1726 
3 1726 1649 1657 
3 1727 1650 1726 
