NORM_ASCII
1562 3170
   0.0084857   -0.0858480   -0.0067600    0.2986984   -0.7219038    0.6242069
   0.0094890   -0.0856779   -0.0072534    0.4979060   -0.6306688    0.5952701
   0.0108707   -0.0854033   -0.0083168    0.6572671   -0.4948689    0.5684230
   0.0096617   -0.0862707   -0.0160163    0.1011581    0.7923964   -0.6015605
   0.0106236   -0.0874464   -0.0173530    0.1822014    0.7860270   -0.5907320
   0.0096834   -0.0856893   -0.0152476    0.1056315    0.7978544   -0.5935237
   0.0130437   -0.0896416   -0.0203845    0.0076941    0.9308655   -0.3652810
   0.0128048   -0.0880070   -0.0171369    0.3873612    0.8090920   -0.4419519
   0.0132819   -0.0885768   -0.0178171    0.3578992    0.8454558   -0.3963745
   0.0107618   -0.0871640   -0.0169373    0.1747006    0.7900766   -0.5875871
   0.0120083   -0.0878105   -0.0174189    0.3183994    0.7883461   -0.5264335
   0.0110449   -0.0866282   -0.0160886    0.2838367    0.8019968   -0.5255833
   0.0136483   -0.0897979   -0.0209600   -0.1117910    0.9626310   -0.2466665
   0.0074032   -0.0851227   -0.0143365   -0.1037028    0.7937411   -0.5993504
   0.0093152   -0.0853844   -0.0149451    0.0748063    0.7864337   -0.6131281
   0.0089568   -0.0851238   -0.0146120   -0.0104629    0.8032575   -0.5955401
   0.0074433   -0.0852110   -0.0056595    0.1240972   -0.7701298    0.6256996
   0.0056186   -0.0844411   -0.0047950   -0.2756684   -0.8009509    0.5314928
   0.0054138   -0.0846324   -0.0052836   -0.4239796   -0.7807994    0.4589048
   0.0067928   -0.0850058   -0.0053458   -0.0207660   -0.7951567    0.6060483
   0.0068662   -0.0844144   -0.0045728    0.0298874   -0.7896101    0.6128806
   0.0042724   -0.0837452   -0.0049391   -0.5326057   -0.7488200    0.3944613
   0.0049739   -0.0840224   -0.0046225   -0.4053920   -0.7829206    0.4719032
   0.0034105   -0.0830819   -0.0049678   -0.6168297   -0.7099042    0.3399371
   0.0033440   -0.0826306   -0.0110209   -0.5678873    0.5339859   -0.6263890
   0.0066098   -0.0844526   -0.0132787   -0.0936247    0.7915287   -0.6039178
   0.0055489   -0.0830798   -0.0114478   -0.0805725    0.7551505   -0.6505811
   0.0056743   -0.0827405   -0.0110737   -0.0570695    0.7450776   -0.6645317
   0.0039938   -0.0817143   -0.0097774    0.1390616    0.7610590   -0.6336017
   0.0052018   -0.0815115   -0.0096783   -0.0473643    0.7318457   -0.6798224
   0.0034593   -0.0822471   -0.0106776   -0.1205240    0.7481569   -0.6524839
   0.0025676   -0.0822459   -0.0097022   -0.9101539    0.0954639   -0.4031209
   0.0026590   -0.0815714   -0.0095553   -0.6874586    0.4244543   -0.5892701
   0.0030556   -0.0820562   -0.0103061   -0.3601198    0.6235329   -0.6939168
   0.0020054   -0.0816093   -0.0079339   -0.9716463   -0.0392288   -0.2331622
   0.0019309   -0.0817146   -0.0073033   -0.9591513   -0.2702206   -0.0837230
   0.0021579   -0.0814876   -0.0085587   -0.9372333    0.0728428   -0.3410098
   0.0017333   -0.0811938   -0.0065360   -0.9715535   -0.1958264   -0.1331757
   0.0017278   -0.0811913   -0.0053913   -0.9104407   -0.4124531    0.0313081
   0.0029052   -0.0821579   -0.0039533   -0.6236741   -0.7030506    0.3416877
   0.0024378   -0.0816434   -0.0038089   -0.6918065   -0.6577576    0.2979239
   0.0017051   -0.0810065   -0.0043701   -0.8390715   -0.5263659    0.1374703
   0.0153983   -0.0896543   -0.0224415    0.2465244    0.9320550   -0.2655167
   0.0149531   -0.0895361   -0.0221793    0.0145954    0.9963547   -0.0840496
   0.0130972   -0.0873036   -0.0152483    0.6392412    0.7193501   -0.2718567
   0.0131225   -0.0871617   -0.0147614    0.6980518    0.6755336   -0.2374406
   0.0128459   -0.0867931   -0.0144832    0.6432502    0.6460375   -0.4109315
   0.0124957   -0.0877085   -0.0168180    0.4301335    0.8090343   -0.4005605
   0.0128445   -0.0854834   -0.0119039    0.9719325    0.0709770    0.2242979
   0.0129690   -0.0858329   -0.0127965    0.8788274    0.4483805   -0.1631485
   0.0124671   -0.0849036   -0.0106345    0.9349104   -0.0079371    0.3547952
   0.0124392   -0.0843529   -0.0110036    0.9553466    0.2830312    0.0848896
   0.0128663   -0.0859488   -0.0133155    0.7907918    0.5166700   -0.3281775
   0.0117508   -0.0849004   -0.0093322    0.8577587   -0.2299132    0.4597716
   0.0114394   -0.0847322   -0.0086505    0.8246509   -0.3034579    0.4773513
   0.0121446   -0.0844082   -0.0098758    0.8861323   -0.1352175    0.4432671
   0.0091684   -0.0855393   -0.0068320    0.4255891   -0.6526687    0.6268153
   0.0082893   -0.0853471   -0.0061499    0.3548720   -0.6755595    0.6462857
   0.0094966   -0.0849874   -0.0065582    0.5120931   -0.5995359    0.6150751
   0.0110947   -0.0847540   -0.0081281    0.7441886   -0.4163376    0.5223469
   0.0102561   -0.0848038   -0.0071072    0.6359120   -0.5203191    0.5699859
   0.0101638   -0.0862740   -0.0159180    0.1667868    0.8052141   -0.5690452
   0.0103952   -0.0868671   -0.0166300    0.1659794    0.7881482   -0.5926831
   0.0095231   -0.0851386   -0.0144935    0.1920386    0.8161058   -0.5450619
   0.0107558   -0.0853175   -0.0141372    0.3044043    0.8029535   -0.5124487
   0.0120172   -0.0873395   -0.0165804    0.3805333    0.8073996   -0.4508883
   0.0106709   -0.0862980   -0.0158041    0.2683032    0.8045276   -0.5298573
   0.0117346   -0.0865676   -0.0154216    0.4535313    0.7936067   -0.4055833
   0.0113540   -0.0862081   -0.0151581    0.4074416    0.7923373   -0.4540847
   0.0108351   -0.0860855   -0.0153377    0.3622453    0.7971056   -0.4831159
   0.0082517   -0.0846531   -0.0139086   -0.1028580    0.7865684   -0.6088763
   0.0086266   -0.0843093   -0.0134897    0.0663195    0.8099829   -0.5826916
   0.0081545   -0.0843502   -0.0049416    0.2999430   -0.7020270    0.6459043
   0.0057937   -0.0836429   -0.0035656   -0.1570213   -0.8094318    0.5658308
   0.0064226   -0.0833134   -0.0030888    0.1670453   -0.7525062    0.6370481
   0.0047479   -0.0834535   -0.0038914   -0.4505897   -0.7629169    0.4636018
   0.0040898   -0.0829755   -0.0037593   -0.5054685   -0.7409717    0.4421115
   0.0050946   -0.0832955   -0.0033560   -0.3604332   -0.7793057    0.5126116
   0.0076074   -0.0824176   -0.0109146   -0.0442233    0.7659304   -0.6414007
   0.0084881   -0.0827133   -0.0112763    0.0070231    0.7820915   -0.6231240
   0.0065426   -0.0823271   -0.0106905   -0.0588755    0.7535506   -0.6547482
   0.0035756   -0.0819515   -0.0102748    0.0918428    0.7548822   -0.6493981
   0.0032227   -0.0816310   -0.0099805   -0.0756077    0.7436232   -0.6643102
   0.0033637   -0.0813603   -0.0095582    0.0818872    0.8225634   -0.5627467
   0.0035031   -0.0804049   -0.0084386   -0.0099010    0.7071077   -0.7070365
   0.0046807   -0.0808077   -0.0089301   -0.0480167    0.7116189   -0.7009229
   0.0071427   -0.0812221   -0.0094945   -0.0412316    0.7428743   -0.6681600
   0.0069281   -0.0806676   -0.0088503    0.0245472    0.7832360   -0.6212397
   0.0056866   -0.0800794   -0.0082321   -0.0224832    0.7105847   -0.7032524
   0.0024292   -0.0809861   -0.0088366   -0.5276833    0.6070761   -0.5941456
   0.0027612   -0.0811298   -0.0092521   -0.1776640    0.8209782   -0.5426143
   0.0018724   -0.0800532   -0.0072629   -0.9105644    0.1795337   -0.3723441
   0.0020918   -0.0801390   -0.0077387   -0.7814352    0.3721945   -0.5008297
   0.0015106   -0.0804928   -0.0058930   -0.9650195   -0.2281152   -0.1292319
   0.0016980   -0.0799372   -0.0067984   -0.9273892    0.0749886   -0.3665050
   0.0015534   -0.0807605   -0.0051345   -0.9365470   -0.3492526   -0.0300404
   0.0026769   -0.0811289   -0.0023796   -0.5807985   -0.7159848    0.3873485
   0.0019064   -0.0808318   -0.0032964   -0.7121353   -0.6408077    0.2867557
   0.0012603   -0.0800738   -0.0044963   -0.9264199   -0.3716661   -0.0600878
   0.0009659   -0.0793831   -0.0027122   -0.8357861   -0.5301111    0.1429822
   0.0118702   -0.0863428   -0.0147831    0.4738538    0.7587194   -0.4469982
   0.0123333   -0.0863201   -0.0143209    0.4514560    0.7165495   -0.5317370
   0.0127473   -0.0861486   -0.0137806    0.5289654    0.6633163   -0.5293459
   0.0126700   -0.0855223   -0.0130591    0.6800735    0.6097508   -0.4070675
   0.0124618   -0.0844431   -0.0115142    0.8328471    0.5197835   -0.1902390
   0.0120530   -0.0839614   -0.0096149    0.9544628    0.0722587    0.2894468
   0.0121530   -0.0836645   -0.0103642    0.8855931    0.4610531    0.0561680
   0.0116355   -0.0838558   -0.0086162    0.8939614   -0.1694722    0.4148641
   0.0113199   -0.0840106   -0.0080013    0.8343793   -0.2841091    0.4723274
   0.0086057   -0.0841274   -0.0050014    0.4266916   -0.6446638    0.6343050
   0.0091786   -0.0834870   -0.0049016    0.5576421   -0.5639273    0.6091152
   0.0108142   -0.0846689   -0.0076642    0.7378603   -0.4273387    0.5224402
   0.0105442   -0.0841625   -0.0069015    0.6911053   -0.4599820    0.5574855
   0.0094681   -0.0845319   -0.0136378    0.2224468    0.7971675   -0.5612855
   0.0111341   -0.0856667   -0.0144085    0.4129424    0.7702149   -0.4860531
   0.0109082   -0.0850981   -0.0136774    0.3535310    0.7882667   -0.5036382
   0.0105208   -0.0847252   -0.0133787    0.3113968    0.7817049   -0.5403420
   0.0116994   -0.0852704   -0.0134126    0.3208813    0.7617964   -0.5627623
   0.0095475   -0.0834828   -0.0121356    0.2429648    0.7839865   -0.5712558
   0.0093156   -0.0828877   -0.0114245    0.1516658    0.7921388   -0.5911967
   0.0053161   -0.0830703   -0.0028863   -0.2965074   -0.7857839    0.5427956
   0.0059519   -0.0827611   -0.0024220    0.0187336   -0.7760453    0.6303989
   0.0079311   -0.0831147   -0.0035022    0.4109433   -0.6645196    0.6241309
   0.0067847   -0.0829113   -0.0027079    0.2300086   -0.7280580    0.6457767
   0.0039534   -0.0826319   -0.0033229   -0.4620612   -0.7410812    0.4871324
   0.0087168   -0.0819933   -0.0104070    0.0569843    0.7690898   -0.6365954
   0.0072532   -0.0821748   -0.0105687   -0.0312190    0.7674198   -0.6403845
   0.0093383   -0.0823089   -0.0106526    0.2015109    0.7783000   -0.5946784
   0.0028551   -0.0807111   -0.0087734   -0.1631099    0.6956920   -0.6995769
   0.0025293   -0.0798549   -0.0078396   -0.2749824    0.6583512   -0.7006842
   0.0032232   -0.0789296   -0.0071402   -0.0606568    0.6388746   -0.7669159
   0.0053191   -0.0797785   -0.0079283   -0.0261871    0.7114658   -0.7022326
   0.0060427   -0.0782882   -0.0064899   -0.0327211    0.6829059   -0.7297731
   0.0056617   -0.0793308   -0.0074743   -0.0304507    0.7080254   -0.7055301
   0.0043258   -0.0784640   -0.0066882    0.0394733    0.6653250   -0.7455096
   0.0075063   -0.0815069   -0.0098123   -0.0236319    0.7379024   -0.6744935
   0.0075083   -0.0808359   -0.0091057    0.0750294    0.8468522   -0.5265091
   0.0063943   -0.0799258   -0.0080826   -0.0336649    0.7015738   -0.7118011
   0.0087292   -0.0813695   -0.0096662    0.2593277    0.8113537   -0.5238839
   0.0086926   -0.0806164   -0.0087878    0.1898805    0.7096421   -0.6784935
   0.0073750   -0.0791042   -0.0074017   -0.0202853    0.6903134   -0.7232260
   0.0024133   -0.0802363   -0.0081858   -0.4305164    0.6274294   -0.6488358
   0.0021864   -0.0796630   -0.0074584   -0.6394627    0.4702608   -0.6082288
   0.0011561   -0.0794430   -0.0051171   -0.9502841   -0.1374788   -0.2793917
   0.0017458   -0.0792539   -0.0066651   -0.7938166    0.2651380   -0.5473180
   0.0020747   -0.0805529   -0.0023006   -0.6874959   -0.6659628    0.2895565
   0.0026218   -0.0804225   -0.0011336   -0.6035908   -0.7115302    0.3597261
   0.0033041   -0.0810069   -0.0011890   -0.4750085   -0.7714874    0.4232897
   0.0007687   -0.0786843   -0.0043574   -0.9406626   -0.1967148   -0.2765088
   0.0004118   -0.0782868   -0.0029668   -0.9177118   -0.3884582   -0.0830980
   0.0007019   -0.0787974   -0.0019995   -0.8170148   -0.5676954    0.1010387
   0.0119445   -0.0859242   -0.0140832    0.4081357    0.7266926   -0.5525787
   0.0120807   -0.0856330   -0.0136749    0.3900737    0.6996255   -0.5986374
   0.0123588   -0.0850748   -0.0128409    0.4561376    0.7034881   -0.5450165
   0.0124072   -0.0846111   -0.0119892    0.7107092    0.6154494   -0.3407556
   0.0121539   -0.0837595   -0.0108768    0.4075496    0.8671416   -0.2863019
   0.0120951   -0.0841464   -0.0117815    0.5359537    0.7417509   -0.4031864
   0.0114398   -0.0826832   -0.0077036    0.9370247   -0.0778856    0.3404682
   0.0116283   -0.0821837   -0.0085717    0.9504496    0.3032870    0.0682832
   0.0119549   -0.0832388   -0.0101094    0.8319811    0.5153115   -0.2055763
   0.0110745   -0.0834990   -0.0072364    0.8461770   -0.2672007    0.4610730
   0.0092556   -0.0829949   -0.0044747    0.5664476   -0.5630589    0.6017489
   0.0105373   -0.0833649   -0.0062808    0.7711405   -0.3658647    0.5210426
   0.0101092   -0.0830113   -0.0054484    0.7217666   -0.4144144    0.5543588
   0.0100102   -0.0843845   -0.0131726    0.2842242    0.7783447   -0.5598180
   0.0108851   -0.0844308   -0.0126699    0.2635113    0.7763654   -0.5725544
   0.0099210   -0.0838100   -0.0124213    0.3156814    0.7775645   -0.5438186
   0.0114962   -0.0846422   -0.0127180    0.2411768    0.7359331   -0.6326423
   0.0105950   -0.0836798   -0.0118029    0.3418521    0.7718763   -0.5360449
   0.0098285   -0.0829376   -0.0112925    0.3150237    0.7652039   -0.5614474
   0.0055901   -0.0824949   -0.0020648   -0.0408539   -0.7872579    0.6152691
   0.0050321   -0.0823415   -0.0020169   -0.2632032   -0.8046390    0.5322406
   0.0065563   -0.0823310   -0.0019873    0.2095486   -0.7353289    0.6445005
   0.0074781   -0.0826503   -0.0027478    0.4093181   -0.6527693    0.6374566
   0.0085365   -0.0816698   -0.0026153    0.5113554   -0.6012426    0.6140220
   0.0074739   -0.0819533   -0.0020590    0.3836209   -0.6533733    0.6526395
   0.0097362   -0.0820657   -0.0101614    0.3175559    0.7571109   -0.5709127
   0.0100152   -0.0824222   -0.0104484    0.3671542    0.7456968   -0.5559983
   0.0025162   -0.0791179   -0.0071801   -0.2763040    0.6092617   -0.7432741
   0.0027299   -0.0782750   -0.0065462   -0.1925489    0.6126563   -0.7665358
   0.0027909   -0.0777240   -0.0061296   -0.1101764    0.5855565   -0.8031094
   0.0034588   -0.0781622   -0.0065058    0.0470399    0.6450560   -0.7626860
   0.0051322   -0.0778915   -0.0061183    0.0102008    0.6734396   -0.7391719
   0.0067504   -0.0774178   -0.0057634   -0.0431255    0.6474293   -0.7609044
   0.0060094   -0.0774998   -0.0057673   -0.0406823    0.6567971   -0.7529692
   0.0042489   -0.0768525   -0.0052402    0.1029114    0.6617444   -0.7426329
   0.0100253   -0.0815565   -0.0092929    0.3389751    0.7227803   -0.6022330
   0.0096444   -0.0805187   -0.0083293    0.3016062    0.7231169   -0.6213982
   0.0096258   -0.0798131   -0.0074972    0.3969800    0.7061579   -0.5863002
   0.0082371   -0.0793754   -0.0076319    0.1246062    0.6966346   -0.7065221
   0.0089985   -0.0794157   -0.0074592    0.3231085    0.6716099   -0.6667391
   0.0096636   -0.0785697   -0.0061588    0.4866080    0.6203488   -0.6151261
   0.0074961   -0.0787456   -0.0070409    0.0274301    0.7009882   -0.7126452
   0.0021633   -0.0788820   -0.0068296   -0.5044812    0.5041060   -0.7009821
   0.0010280   -0.0783557   -0.0050984   -0.8945978   -0.0351068   -0.4454910
   0.0013684   -0.0782311   -0.0056900   -0.7976421    0.1478194   -0.5847362
   0.0019060   -0.0781781   -0.0061858   -0.4452639    0.4875364   -0.7510315
   0.0018386   -0.0797593   -0.0011461   -0.6392237   -0.6944913    0.3302648
   0.0006237   -0.0785167   -0.0010527   -0.7247441   -0.6567165    0.2084932
   0.0027515   -0.0801959   -0.0004333   -0.5766591   -0.7317158    0.3633954
   0.0014674   -0.0792019   -0.0006700   -0.6325003   -0.7102764    0.3089513
   0.0042278   -0.0815512   -0.0012275   -0.3994318   -0.7966601    0.4536374
   0.0043790   -0.0813260   -0.0007718   -0.2780774   -0.7984922    0.5339318
   0.0041556   -0.0807689   -0.0000344   -0.2570701   -0.8131527    0.5222046
   0.0032465   -0.0802893    0.0000485   -0.4573467   -0.7768797    0.4327724
   0.0007176   -0.0776724   -0.0044611   -0.9079029   -0.0662990   -0.4139044
   0.0006049   -0.0782518   -0.0041012   -0.9425025   -0.1778876   -0.2829223
   0.0000404   -0.0776158   -0.0023328   -0.9136017   -0.3829888   -0.1365702
   0.0001940   -0.0779518   -0.0009333   -0.8313460   -0.5547312    0.0337209
   0.0001896   -0.0775761   -0.0030712   -0.9312554   -0.2497864   -0.2652737
   0.0118458   -0.0843452   -0.0122713    0.2985308    0.7469690   -0.5940679
   0.0116799   -0.0834835   -0.0111486    0.3659516    0.7874486   -0.4959881
   0.0111941   -0.0821726   -0.0069405    0.9406756    0.0133198    0.3390457
   0.0113737   -0.0822309   -0.0074407    0.9408456    0.2069100    0.2683239
   0.0116412   -0.0822754   -0.0090817    0.7780202    0.5796067   -0.2423647
   0.0114765   -0.0817488   -0.0083144    0.9102365    0.4014750   -0.1014271
   0.0114160   -0.0816656   -0.0078052    0.9705949    0.1684243    0.1719850
   0.0111576   -0.0814417   -0.0085776    0.5179960    0.7567280   -0.3988018
   0.0115234   -0.0823943   -0.0096014    0.4969887    0.7284579   -0.4715414
   0.0113811   -0.0831504   -0.0108529    0.3309030    0.7661577   -0.5509134
   0.0115985   -0.0829397   -0.0103757    0.5241237    0.6912698   -0.4974338
   0.0106159   -0.0828187   -0.0060515    0.8363394   -0.2703494    0.4769146
   0.0085781   -0.0812902   -0.0022847    0.6138173   -0.5204146    0.5936302
   0.0096793   -0.0814434   -0.0036928    0.7928657   -0.3344058    0.5094474
   0.0104083   -0.0817666   -0.0050630    0.8503217   -0.2304854    0.4731062
   0.0114718   -0.0840149   -0.0119866    0.1503658    0.8028174   -0.5769527
   0.0109736   -0.0840304   -0.0120738    0.2226066    0.7941356   -0.5655042
   0.0105120   -0.0828497   -0.0106439    0.3294389    0.7663453   -0.5515295
   0.0051089   -0.0813306   -0.0006289   -0.0345232   -0.8033217    0.5945439
   0.0069402   -0.0815218   -0.0012983    0.3953994   -0.6586474    0.6401898
   0.0066201   -0.0811561   -0.0007196    0.4170847   -0.6662617    0.6181713
   0.0062280   -0.0808466   -0.0001578    0.2058472   -0.7622047    0.6137353
   0.0081435   -0.0815870   -0.0021729    0.5013915   -0.6023089    0.6211525
   0.0078055   -0.0814162   -0.0017756    0.4357059   -0.6279613    0.6448449
   0.0105373   -0.0822827   -0.0098657    0.2816917    0.7581009   -0.5881605
   0.0104017   -0.0819285   -0.0094673    0.2092237    0.8070610   -0.5521575
   0.0017690   -0.0777832   -0.0059092   -0.4657522    0.3712701   -0.8032642
   0.0021188   -0.0772758   -0.0057393   -0.2012308    0.5362623   -0.8197127
   0.0032530   -0.0768768   -0.0054349    0.0632330    0.6385316   -0.7669935
   0.0024304   -0.0767015   -0.0053453   -0.1069613    0.5949982   -0.7965779
   0.0046477   -0.0765603   -0.0049224    0.0491312    0.6631940   -0.7468332
   0.0046395   -0.0751242   -0.0036853    0.0313764    0.6277164   -0.7778095
   0.0074213   -0.0771443   -0.0055849    0.0233315    0.6175443   -0.7861900
   0.0083468   -0.0776090   -0.0059047    0.1481892    0.6566755   -0.7394710
   0.0064697   -0.0759275   -0.0045049   -0.0798977    0.6297804   -0.7726532
   0.0068169   -0.0754598   -0.0041712   -0.0898444    0.6268582   -0.7739359
   0.0074570   -0.0758140   -0.0045047    0.0420081    0.6179913   -0.7850619
   0.0074055   -0.0749496   -0.0038189   -0.0743837    0.5977837   -0.7981990
   0.0026552   -0.0758998   -0.0047059    0.0881358    0.6606610   -0.7454925
   0.0042879   -0.0762593   -0.0047051    0.1234381    0.6547478   -0.7456999
   0.0104403   -0.0807117   -0.0080486    0.3496231    0.7279254   -0.5898206
   0.0108197   -0.0810660   -0.0083161    0.4095628    0.7311293   -0.5456265
   0.0104613   -0.0801252   -0.0072819    0.4663767    0.7270354   -0.5038971
   0.0098433   -0.0790840   -0.0065327    0.5522551    0.6359823   -0.5390185
   0.0106876   -0.0799497   -0.0067812    0.6940807    0.6219739   -0.3624920
   0.0088394   -0.0783000   -0.0063622    0.3088017    0.6830467   -0.6618827
   0.0103468   -0.0787121   -0.0053669    0.8800201    0.4147014   -0.2314894
   0.0103643   -0.0792487   -0.0061163    0.7192015    0.5876168   -0.3707501
   0.0099527   -0.0780579   -0.0052991    0.7404441    0.5045271   -0.4440663
   0.0087219   -0.0772644   -0.0054861    0.2527558    0.6273357   -0.7365898
   0.0092401   -0.0773389   -0.0053369    0.4253533    0.6104913   -0.6681130
   0.0012300   -0.0778333   -0.0054044   -0.7866873    0.1310542   -0.6032809
   0.0005272   -0.0779943    0.0003070   -0.6779688   -0.7037354    0.2124023
   0.0023617   -0.0792397    0.0009087   -0.5191312   -0.7697956    0.3713725
   0.0048020   -0.0805151    0.0004973   -0.0755161   -0.8095936    0.5821130
   0.0035631   -0.0799028    0.0010019   -0.3446271   -0.7982565    0.4939825
   0.0041100   -0.0800353    0.0010104   -0.1478083   -0.8149309    0.5603931
   0.0001145   -0.0769532   -0.0033289   -0.9037475   -0.1789291   -0.3888764
   0.0006838   -0.0771099   -0.0044328   -0.8447597   -0.0287483   -0.5343731
  -0.0004126   -0.0767489   -0.0017889   -0.9024867   -0.3889518   -0.1850248
  -0.0002716   -0.0766561   -0.0024510   -0.9141109   -0.2691307   -0.3032654
  -0.0002380   -0.0772929   -0.0003028   -0.7918486   -0.6073451    0.0640919
  -0.0007528   -0.0764690   -0.0009448   -0.8600292   -0.4898891   -0.1426832
   0.0108474   -0.0818672   -0.0060596    0.9291967   -0.0891986    0.3586603
   0.0111090   -0.0817239   -0.0066783    0.9514282    0.0565643    0.3026300
   0.0111673   -0.0809701   -0.0071643    0.9596432    0.2689965    0.0820115
   0.0111609   -0.0819601   -0.0092979    0.4009682    0.7384092   -0.5421959
   0.0112160   -0.0810550   -0.0076728    0.7642143    0.5912536   -0.2576737
   0.0108039   -0.0816747   -0.0090665    0.0295999    0.8585790   -0.5118261
   0.0109783   -0.0825989   -0.0101456    0.2031825    0.8039261   -0.5589451
   0.0108626   -0.0834627   -0.0113199    0.1623019    0.7950344   -0.5844471
   0.0093178   -0.0810180   -0.0028955    0.6871439   -0.4530729    0.5679421
   0.0091103   -0.0804891   -0.0022417    0.6962722   -0.4396341    0.5673860
   0.0087720   -0.0803583   -0.0017128    0.6994464   -0.4581892    0.5484864
   0.0084056   -0.0799237   -0.0009209    0.6136768   -0.5293849    0.5857921
   0.0082458   -0.0811449   -0.0018698    0.5541981   -0.5544615    0.6208356
   0.0094591   -0.0804613   -0.0026599    0.8042574   -0.3496999    0.4804998
   0.0106803   -0.0805040   -0.0052693    0.9474922   -0.0514421    0.3156140
   0.0103386   -0.0797316   -0.0041209    0.9241742   -0.1505013    0.3510719
   0.0054028   -0.0807395    0.0001868    0.0827243   -0.8015165    0.5922229
   0.0079165   -0.0810125   -0.0014460    0.4948640   -0.5999653    0.6286106
   0.0079009   -0.0795863   -0.0000926    0.5402325   -0.5827632    0.6070717
   0.0075972   -0.0794316    0.0003209    0.5372865   -0.6128872    0.5793898
   0.0062402   -0.0802226    0.0005808    0.3553627   -0.7058004    0.6128320
   0.0071389   -0.0790805    0.0011503    0.5157691   -0.6286175    0.5820844
   0.0056603   -0.0800912    0.0009566    0.1792343   -0.7657325    0.6176801
   0.0016251   -0.0773618   -0.0056388   -0.4352658    0.4426809   -0.7839498
   0.0011838   -0.0760547   -0.0048637   -0.1955422    0.4647752   -0.8635666
   0.0013168   -0.0770898   -0.0053039   -0.5711625    0.2862534   -0.7693065
   0.0058316   -0.0748656   -0.0035889   -0.0856181    0.6101979   -0.7876091
   0.0035660   -0.0751447   -0.0038574    0.1403341    0.6246115   -0.7682232
   0.0032523   -0.0747416   -0.0036083    0.1376016    0.6068514   -0.7828136
   0.0036873   -0.0738378   -0.0028285    0.0902733    0.5697522   -0.8168434
   0.0033620   -0.0743486   -0.0032724    0.1403308    0.6094762   -0.7802859
   0.0049555   -0.0738429   -0.0027348   -0.0036409    0.5718905   -0.8203219
   0.0078417   -0.0769043   -0.0053438    0.0815947    0.6384709   -0.7653086
   0.0080189   -0.0761102   -0.0046595    0.1157144    0.6185864   -0.7771493
   0.0078960   -0.0756193   -0.0043308    0.0196883    0.5736906   -0.8188355
   0.0077576   -0.0735534   -0.0029503   -0.1050863    0.5202982   -0.8474943
   0.0071067   -0.0740988   -0.0031846   -0.1376878    0.5560726   -0.8196495
   0.0030187   -0.0755121   -0.0042936    0.1372011    0.6396492   -0.7563232
   0.0110126   -0.0805357   -0.0069069    0.9421878    0.3350248   -0.0063606
   0.0107479   -0.0798425   -0.0062651    0.8764826    0.4655784   -0.1225354
   0.0104767   -0.0791509   -0.0056246    0.9169650    0.3887388   -0.0897633
   0.0104303   -0.0791568   -0.0044830    0.9833229    0.1064899    0.1474310
   0.0103290   -0.0785259   -0.0043441    0.9792828    0.2002079    0.0303650
   0.0101342   -0.0779849   -0.0046896    0.9176086    0.3629808   -0.1619856
   0.0100062   -0.0772880   -0.0040731    0.9031708    0.3463127   -0.2536731
   0.0094611   -0.0765836   -0.0044951    0.6224988    0.4999256   -0.6021376
   0.0084420   -0.0764711   -0.0048741    0.2072729    0.5751266   -0.7913706
   0.0012009   -0.0780777    0.0016414   -0.5487603   -0.7702761    0.3248645
   0.0005305   -0.0775456    0.0017348   -0.6136940   -0.7439205    0.2645032
  -0.0002344   -0.0771973    0.0002095   -0.7451557   -0.6596024    0.0983249
   0.0000297   -0.0773323    0.0009242   -0.6887007   -0.7035355    0.1752971
   0.0033410   -0.0793517    0.0017438   -0.2977275   -0.8155124    0.4962841
   0.0023204   -0.0785948    0.0021978   -0.4807545   -0.7846750    0.3913570
   0.0029694   -0.0790314    0.0020361   -0.3786386   -0.8121842    0.4438352
   0.0049600   -0.0796424    0.0016743    0.0374648   -0.7977617    0.6018078
   0.0042181   -0.0796880    0.0015603   -0.1168706   -0.8211449    0.5586253
   0.0001978   -0.0761944   -0.0038129   -0.8558325   -0.0761292   -0.5116201
  -0.0000420   -0.0759626   -0.0034387   -0.8548668   -0.1395358   -0.4997324
   0.0011245   -0.0766866   -0.0050326   -0.7086589    0.1133416   -0.6963880
   0.0007528   -0.0764065   -0.0046105   -0.7340280    0.0395388   -0.6779672
  -0.0005914   -0.0760753   -0.0019536   -0.8891053   -0.3500717   -0.2948587
  -0.0005035   -0.0754951   -0.0026876   -0.8861817   -0.2495127   -0.3904171
  -0.0002792   -0.0755445   -0.0031853   -0.8866454   -0.2411920   -0.3945710
  -0.0007555   -0.0765604   -0.0003112   -0.8114325   -0.5844461    0.0002235
  -0.0018212   -0.0750972    0.0008162   -0.8500182   -0.5090111   -0.1355607
  -0.0012772   -0.0756430   -0.0004417   -0.8684737   -0.4421567   -0.2241672
  -0.0014139   -0.0756663    0.0006963   -0.8098695   -0.5841966   -0.0531572
   0.0106924   -0.0797594   -0.0057580    0.9730308    0.1794354    0.1449624
   0.0095524   -0.0782992   -0.0011969    0.8279520   -0.3679871    0.4231796
   0.0088049   -0.0791923   -0.0007532    0.7163805   -0.4687987    0.5167463
   0.0083313   -0.0792705   -0.0002176    0.6200534   -0.5434070    0.5658999
   0.0099083   -0.0788829   -0.0024670    0.9365997   -0.1526806    0.3153881
   0.0076816   -0.0790461    0.0006575    0.5747579   -0.5919429    0.5650283
   0.0080046   -0.0791513    0.0002133    0.5722237   -0.5750308    0.5847219
   0.0068392   -0.0789293    0.0015651    0.5058954   -0.6388451    0.5796091
   0.0064902   -0.0781821    0.0027290    0.4208040   -0.6942281    0.5839275
   0.0056752   -0.0794782    0.0017034    0.2215388   -0.7355053    0.6402754
   0.0059106   -0.0787311    0.0024055    0.2961873   -0.6993880    0.6504840
   0.0072583   -0.0786587    0.0014692    0.5488053   -0.6174169    0.5635681
   0.0008046   -0.0757020   -0.0045957   -0.4747477    0.2265573   -0.8504625
   0.0008698   -0.0751109   -0.0043569   -0.1745488    0.4362374   -0.8827399
   0.0013843   -0.0743897   -0.0038477    0.1527870    0.5705901   -0.8068972
   0.0065248   -0.0739192   -0.0029477   -0.1472679    0.5651298   -0.8117515
   0.0026687   -0.0745157   -0.0035457    0.1984612    0.6062875   -0.7700835
   0.0031986   -0.0735408   -0.0026879    0.1315328    0.5757246   -0.8069946
   0.0041341   -0.0736621   -0.0026835    0.0726800    0.5515248   -0.8309861
   0.0055723   -0.0726614   -0.0019896   -0.0233964    0.5085373   -0.8607220
   0.0042615   -0.0730462   -0.0022352    0.0594966    0.5506401   -0.8326198
   0.0072841   -0.0731109   -0.0026117   -0.1856688    0.5056461   -0.8425254
   0.0086991   -0.0742319   -0.0034704    0.1756535    0.4553603   -0.8728074
   0.0076515   -0.0726616   -0.0024478   -0.1794904    0.4745027   -0.8617600
   0.0086076   -0.0747213   -0.0037394    0.1342175    0.4958503   -0.8579733
   0.0101680   -0.0785498   -0.0032097    0.9828755    0.0076110    0.1841137
   0.0101651   -0.0778129   -0.0036975    0.9837789    0.1793851    0.0001625
   0.0099628   -0.0767364   -0.0032971    0.9678334    0.2047404   -0.1462188
   0.0095839   -0.0762532   -0.0040633    0.8224592    0.3756580   -0.4271323
   0.0092271   -0.0758567   -0.0041935    0.5686873    0.4772707   -0.6699310
   0.0092199   -0.0753072   -0.0038086    0.5111961    0.4576729   -0.7274710
   0.0008875   -0.0773382    0.0028143   -0.5428335   -0.7659790    0.3443952
   0.0021727   -0.0780972    0.0029901   -0.4270387   -0.7929286    0.4346288
   0.0014463   -0.0775920    0.0030898   -0.4949267   -0.7764709    0.3900519
  -0.0000805   -0.0771046    0.0014449   -0.6700280   -0.7182303    0.1876373
  -0.0006053   -0.0766171    0.0014768   -0.6707572   -0.7161245    0.1930036
  -0.0000340   -0.0766830    0.0027806   -0.5847367   -0.7454720    0.3199288
  -0.0006748   -0.0766348    0.0003280   -0.7908264   -0.6120330    0.0030325
  -0.0009441   -0.0763140    0.0012132   -0.7604133   -0.6478821    0.0449487
   0.0032679   -0.0785643    0.0029349   -0.2357948   -0.8118985    0.5340614
   0.0024851   -0.0784292    0.0026940   -0.3733620   -0.7967302    0.4752071
   0.0042709   -0.0785649    0.0031270    0.0046007   -0.7901981    0.6128342
   0.0004411   -0.0754189   -0.0042790   -0.6420657    0.1216552   -0.7569357
   0.0000952   -0.0752132   -0.0039070   -0.6659731    0.0147037   -0.7458308
  -0.0004831   -0.0747486   -0.0031751   -0.8473115   -0.2245504   -0.4812903
  -0.0014920   -0.0750751   -0.0007453   -0.8673636   -0.4115079   -0.2798958
  -0.0012700   -0.0749944   -0.0014428   -0.8505418   -0.3297990   -0.4096478
  -0.0007301   -0.0750753   -0.0024346   -0.8712217   -0.2390568   -0.4287477
  -0.0018283   -0.0748227    0.0000593   -0.8684786   -0.4510885   -0.2055824
  -0.0022240   -0.0746180    0.0015710   -0.8688564   -0.4868440   -0.0898417
  -0.0018521   -0.0751946    0.0014479   -0.8096980   -0.5867284    0.0117900
   0.0100876   -0.0776388   -0.0026783    0.9911261   -0.0388004    0.1271364
   0.0098514   -0.0774025   -0.0011582    0.9327370   -0.2786425    0.2288231
   0.0092430   -0.0779711   -0.0003248    0.7593276   -0.4772124    0.4423685
   0.0084320   -0.0781433    0.0007808    0.6621930   -0.5540811    0.5044746
   0.0093166   -0.0774474    0.0000381    0.8079153   -0.4442359    0.3872045
   0.0096559   -0.0770669   -0.0002685    0.8475426   -0.3801871    0.3703097
   0.0079937   -0.0781399    0.0012674    0.5686399   -0.6276338    0.5317184
   0.0078501   -0.0770474    0.0028172    0.5423245   -0.6741827    0.5013600
   0.0054562   -0.0785526    0.0027737    0.2357505   -0.7369894    0.6334575
   0.0076129   -0.0769225    0.0032622    0.5180110   -0.6935275    0.5006837
   0.0058287   -0.0772269    0.0042680    0.2764384   -0.7276141    0.6278213
   0.0069881   -0.0761299    0.0049151    0.4304878   -0.7064937    0.5617356
   0.0061774   -0.0767665    0.0046045    0.3072770   -0.7124540    0.6308646
   0.0004404   -0.0742868   -0.0038775   -0.1229902    0.4337727   -0.8925888
   0.0017805   -0.0740921   -0.0035219    0.2216461    0.5824575   -0.7820590
   0.0070420   -0.0724141   -0.0021159   -0.2872932    0.4987519   -0.8177464
   0.0064659   -0.0730178   -0.0023022   -0.1904468    0.5317138   -0.8252336
   0.0021387   -0.0737025   -0.0030599    0.2573259    0.5644728   -0.7843175
   0.0029585   -0.0731236   -0.0024363    0.1728613    0.5174244   -0.8380877
   0.0064862   -0.0708164   -0.0009807   -0.2375417    0.4664245   -0.8520693
   0.0040558   -0.0726224   -0.0019817    0.0641498    0.4567055   -0.8873020
   0.0033755   -0.0721551   -0.0018457    0.1120848    0.4570389   -0.8823562
   0.0039564   -0.0708666   -0.0010406    0.0907066    0.5609185   -0.8228868
   0.0056379   -0.0706057   -0.0007096   -0.0814599    0.5465702   -0.8334418
   0.0087929   -0.0737518   -0.0031937    0.2488185    0.4481205   -0.8586486
   0.0094131   -0.0749704   -0.0033832    0.7376668    0.3339527   -0.5867907
   0.0091533   -0.0741010   -0.0032583    0.5758219    0.3887380   -0.7192440
   0.0086414   -0.0732972   -0.0029479    0.0882072    0.5125765   -0.8540988
   0.0071276   -0.0718994   -0.0018666   -0.3763520    0.4336833   -0.8187051
   0.0067834   -0.0701266   -0.0008054   -0.3331147    0.4337404   -0.8372000
   0.0088437   -0.0724038   -0.0023513    0.3382501    0.4522817   -0.8252443
   0.0077383   -0.0713745   -0.0018193   -0.1470966    0.4581235   -0.8766330
   0.0100354   -0.0768128   -0.0026594    0.9924039    0.1167177   -0.0388767
   0.0099615   -0.0763137   -0.0023297    0.9923520    0.1038054   -0.0667975
   0.0098374   -0.0756445   -0.0028927    0.9478461    0.2028734   -0.2458254
   0.0096169   -0.0756444   -0.0035098    0.8304634    0.3329258   -0.4466441
   0.0010455   -0.0772076    0.0033338   -0.5204218   -0.7603286    0.3886664
   0.0021556   -0.0776173    0.0038174   -0.3449769   -0.7710913    0.5351720
   0.0024831   -0.0779400    0.0035199   -0.2986002   -0.8085122    0.5070956
   0.0017729   -0.0772493    0.0040758   -0.4489498   -0.7401284    0.5006536
  -0.0010719   -0.0758699    0.0026186   -0.6695508   -0.7075971    0.2258496
   0.0006728   -0.0768173    0.0035776   -0.5163033   -0.7442095    0.4237725
   0.0000254   -0.0762958    0.0036851   -0.5799628   -0.7288506    0.3638956
  -0.0015760   -0.0755263    0.0017204   -0.7576809   -0.6435518    0.1084466
   0.0031871   -0.0777442    0.0040996   -0.1935062   -0.7842350    0.5895175
   0.0045416   -0.0779397    0.0038272    0.1440922   -0.7441291    0.6523107
   0.0033226   -0.0774487    0.0045064   -0.0822702   -0.7564794    0.6488224
   0.0040207   -0.0779376    0.0039444   -0.0492015   -0.7775306    0.6269173
   0.0033267   -0.0767883    0.0052190   -0.0107919   -0.7101689    0.7039486
  -0.0000467   -0.0739112   -0.0036282   -0.2950204    0.2878668   -0.9110959
  -0.0001235   -0.0745146   -0.0036892   -0.6557816    0.0120483   -0.7548545
  -0.0010461   -0.0744121   -0.0022037   -0.8158495   -0.3833393   -0.4329440
  -0.0008014   -0.0741332   -0.0030103   -0.7847416   -0.2107521   -0.5828930
  -0.0021684   -0.0734068   -0.0009392   -0.8963299   -0.3516677   -0.2700417
  -0.0016560   -0.0740496   -0.0015656   -0.8262081   -0.4053770   -0.3912157
  -0.0023293   -0.0741778    0.0006849   -0.8965319   -0.3894726   -0.2110488
  -0.0024557   -0.0740847    0.0012222   -0.9150231   -0.3863158   -0.1161586
  -0.0024217   -0.0742833    0.0024589   -0.8531966   -0.5187493    0.0543581
  -0.0027295   -0.0736939    0.0025853   -0.9127822   -0.4083841   -0.0071554
  -0.0014401   -0.0754502    0.0028454   -0.7087395   -0.6747633    0.2058711
  -0.0020413   -0.0747627    0.0028498   -0.7695344   -0.6220255    0.1445720
  -0.0023023   -0.0743496    0.0031012   -0.8229972   -0.5580286    0.1062056
   0.0100051   -0.0767421   -0.0014140    0.9973603   -0.0456629    0.0564557
   0.0099305   -0.0763603   -0.0001075    0.9544300   -0.2703577    0.1263726
   0.0088455   -0.0777529    0.0006032    0.7579315   -0.5028732    0.4155218
   0.0084893   -0.0763614    0.0030608    0.6485967   -0.6170960    0.4455500
   0.0094557   -0.0764451    0.0010053    0.7719684   -0.5260240    0.3568802
   0.0091655   -0.0764853    0.0015508    0.7597477   -0.5308839    0.3754274
   0.0100380   -0.0757776    0.0006790    0.8961304   -0.3895478    0.2126093
   0.0079575   -0.0764429    0.0035875    0.5428064   -0.6816701    0.4905988
   0.0051245   -0.0774400    0.0042717    0.1781213   -0.7394278    0.6492452
   0.0053435   -0.0766580    0.0050510    0.1954906   -0.6993201    0.6875572
   0.0083200   -0.0753641    0.0046688    0.5307084   -0.6939399    0.4866169
   0.0088507   -0.0745128    0.0053579    0.5757258   -0.6745534    0.4620796
   0.0071577   -0.0752306    0.0058733    0.3366140   -0.6807612    0.6505807
   0.0061841   -0.0761165    0.0053273    0.2255178   -0.6785964    0.6990341
   0.0077959   -0.0748021    0.0059186    0.4122039   -0.6885461    0.5966509
   0.0003378   -0.0735036   -0.0035268    0.0008620    0.4127815   -0.9108297
   0.0012528   -0.0733766   -0.0031720    0.2702998    0.4945651   -0.8260408
   0.0013964   -0.0729546   -0.0028494    0.2909538    0.5207635   -0.8025904
   0.0068626   -0.0715902   -0.0015457   -0.3728604    0.4471816   -0.8130214
   0.0024065   -0.0730132   -0.0025408    0.2662194    0.5147370   -0.8149682
   0.0023047   -0.0716725   -0.0017961    0.1762089    0.5135488   -0.8397726
   0.0063391   -0.0703801   -0.0007220   -0.2735565    0.4322901   -0.8592393
   0.0029321   -0.0708220   -0.0011327    0.0757206    0.6047147   -0.7928345
   0.0050216   -0.0703143   -0.0004466   -0.0155546    0.6215799   -0.7831963
   0.0039995   -0.0703048   -0.0006501   -0.0079788    0.7674201   -0.6410949
   0.0057188   -0.0696773   -0.0001564   -0.2270923    0.4942383   -0.8391410
   0.0095519   -0.0738896   -0.0026726    0.8153074    0.2449202   -0.5246789
   0.0092237   -0.0735632   -0.0029071    0.6378128    0.3511594   -0.6854793
   0.0095669   -0.0747443   -0.0029642    0.8683021    0.2286489   -0.4401945
   0.0068720   -0.0696241   -0.0005454   -0.2386136    0.5326061   -0.8120310
   0.0083705   -0.0709547   -0.0016762    0.0373008    0.5310280   -0.8465329
   0.0091317   -0.0717632   -0.0019062    0.4539352    0.4095391   -0.7913410
   0.0098818   -0.0719344   -0.0011694    0.8609577    0.1768887   -0.4769299
   0.0095887   -0.0724808   -0.0018632    0.7520849    0.3213744   -0.5754014
   0.0092956   -0.0729630   -0.0024689    0.5385229    0.4791435   -0.6931195
   0.0095733   -0.0716556   -0.0014743    0.6947308    0.3095376   -0.6492577
   0.0100476   -0.0760561   -0.0012313    0.9986516   -0.0112997   -0.0506679
   0.0099245   -0.0754379   -0.0018655    0.9865239    0.0871862   -0.1384529
   0.0097494   -0.0746579   -0.0024118    0.9573762    0.1211019   -0.2622312
   0.0019116   -0.0769690    0.0044922   -0.3456146   -0.7150816    0.6076257
   0.0027714   -0.0766428    0.0052579   -0.2272132   -0.7222884    0.6532026
   0.0012891   -0.0767836    0.0042487   -0.4486871   -0.7087485    0.5443854
   0.0002396   -0.0761586    0.0042082   -0.5159749   -0.7348229    0.4402331
  -0.0016488   -0.0749572    0.0036272   -0.6603751   -0.6869946    0.3032212
   0.0044101   -0.0769296    0.0049460    0.1062243   -0.7097887    0.6963594
   0.0040631   -0.0752885    0.0064750    0.0929492   -0.5427956    0.8347055
   0.0028051   -0.0753425    0.0064620   -0.1342085   -0.5724619    0.8088729
   0.0047562   -0.0757776    0.0059775    0.1474783   -0.6335887    0.7594837
   0.0027877   -0.0757314    0.0061410   -0.1850864   -0.6572031    0.7306347
  -0.0005896   -0.0730432   -0.0031713   -0.4464514    0.1553661   -0.8812165
  -0.0005213   -0.0737341   -0.0032776   -0.6184192    0.1036750   -0.7789796
  -0.0000295   -0.0731633   -0.0033525   -0.2242100    0.3371258   -0.9143719
  -0.0011502   -0.0739178   -0.0026339   -0.7636848   -0.2194211   -0.6071573
  -0.0019904   -0.0734659   -0.0014411   -0.8980347   -0.2475522   -0.3636641
  -0.0024461   -0.0726724   -0.0006184   -0.9271617   -0.1907096   -0.3224920
  -0.0015946   -0.0733921   -0.0021862   -0.8166539   -0.1275210   -0.5628630
  -0.0026323   -0.0732537    0.0005159   -0.9248159   -0.3119202   -0.2177646
  -0.0028300   -0.0732523    0.0017008   -0.9585515   -0.2677348   -0.0974535
  -0.0026314   -0.0736698    0.0037380   -0.8708657   -0.4530680    0.1905844
  -0.0028891   -0.0732602    0.0028433   -0.9553815   -0.2945307   -0.0223145
  -0.0022831   -0.0742507    0.0036145   -0.7763303   -0.5911251    0.2188204
   0.0100736   -0.0758651    0.0001694    0.9737601   -0.2272334    0.0124965
   0.0100878   -0.0754010   -0.0007096    0.9943787   -0.0736540   -0.0760662
   0.0102509   -0.0748075    0.0000789    0.9938089   -0.0695603   -0.0866324
   0.0094925   -0.0759294    0.0018210    0.7574514   -0.5630914    0.3304473
   0.0086460   -0.0759558    0.0033979    0.6594542   -0.6266398    0.4152622
   0.0102208   -0.0749950    0.0013456    0.9237729   -0.3517293    0.1514272
   0.0095066   -0.0743848    0.0042511    0.7088296   -0.6001913    0.3705820
   0.0094050   -0.0737505    0.0055343    0.7200787   -0.5394114    0.4364882
   0.0083945   -0.0745107    0.0058410    0.4934007   -0.6446332    0.5839553
   0.0064224   -0.0753831    0.0060368    0.2035060   -0.6657250    0.7179105
   0.0069945   -0.0748000    0.0063370    0.1199452   -0.5908807    0.7977927
   0.0057912   -0.0750686    0.0063994    0.1418608   -0.5255145    0.8388743
   0.0079076   -0.0744019    0.0062497    0.3469556   -0.5899010    0.7291355
  -0.0000528   -0.0723186   -0.0029345   -0.0196214    0.3715630   -0.9282004
  -0.0001229   -0.0713146   -0.0025005    0.2079441    0.5113529   -0.8338330
   0.0002515   -0.0709676   -0.0020830    0.3380261    0.5463163   -0.7663399
   0.0016625   -0.0715217   -0.0018257    0.1763204    0.4969064   -0.8497030
   0.0010562   -0.0711996   -0.0017734    0.2614259    0.4261659   -0.8660480
   0.0020794   -0.0712524   -0.0015434    0.1133460    0.5990359   -0.7926593
   0.0023628   -0.0706214   -0.0011087    0.1040582    0.5197837   -0.8479368
   0.0019364   -0.0708718   -0.0012474    0.1414838    0.4993501   -0.8547700
   0.0046484   -0.0699882   -0.0001584    0.0031382    0.6624778   -0.7490750
   0.0031975   -0.0694192   -0.0000032    0.1311015    0.6827425   -0.7188011
   0.0044626   -0.0694180    0.0000999    0.0902201    0.5840762   -0.8066693
   0.0050444   -0.0696479    0.0000327   -0.1317010    0.5106532   -0.8496400
   0.0064851   -0.0685582    0.0003994   -0.1662849    0.6240579   -0.7634796
   0.0048298   -0.0690008    0.0003745   -0.0924033    0.5822156   -0.8077664
   0.0098342   -0.0741857   -0.0020056    0.9615652    0.0657541   -0.2665874
   0.0098525   -0.0734415   -0.0017367    0.9256657    0.1886518   -0.3279534
   0.0098194   -0.0725724   -0.0012818    0.9399651    0.0912595   -0.3288422
   0.0077400   -0.0698820   -0.0008870   -0.0030851    0.5914704   -0.8063208
   0.0069723   -0.0691730   -0.0002477   -0.1387058    0.6236620   -0.7692895
   0.0089050   -0.0710544   -0.0016319    0.3186251    0.5386837   -0.7799345
   0.0085684   -0.0701299   -0.0010335    0.2933326    0.6111962   -0.7351158
   0.0091695   -0.0706599   -0.0011419    0.5340345    0.5362373   -0.6536487
   0.0101840   -0.0724407   -0.0000390    0.9649245    0.0447228   -0.2586900
   0.0099976   -0.0715868   -0.0007121    0.9388591    0.1761616   -0.2958222
   0.0098256   -0.0710841   -0.0007357    0.7892935    0.3804571   -0.4819421
   0.0099398   -0.0746842   -0.0015819    0.9812787    0.0813256   -0.1745803
   0.0019229   -0.0763411    0.0052274   -0.3321962   -0.6868703    0.6464169
   0.0002555   -0.0755941    0.0049893   -0.4329039   -0.6984586    0.5698681
  -0.0010471   -0.0751151    0.0044210   -0.5719031   -0.7047542    0.4198193
  -0.0021875   -0.0741136    0.0041153   -0.7185023   -0.5574169    0.4159818
   0.0034288   -0.0749312    0.0067310   -0.0033598   -0.4783272    0.8781753
   0.0035613   -0.0737859    0.0073046   -0.0181425   -0.2981550    0.9543450
   0.0052054   -0.0748671    0.0066101    0.0931681   -0.4447547    0.8907934
   0.0046642   -0.0747766    0.0066737    0.1018219   -0.4329178    0.8956643
   0.0042698   -0.0743712    0.0069439    0.1046623   -0.4566837    0.8834511
   0.0028362   -0.0746742    0.0068384   -0.0849588   -0.4568656    0.8854693
   0.0023365   -0.0739139    0.0071530   -0.1904301   -0.3261215    0.9259488
   0.0020223   -0.0759270    0.0056575   -0.2621635   -0.6340961    0.7274561
   0.0020385   -0.0752314    0.0062404   -0.2305766   -0.5740977    0.7856502
  -0.0011768   -0.0729039   -0.0027403   -0.6616927   -0.0113552   -0.7496891
  -0.0007740   -0.0724592   -0.0029703   -0.3248554    0.1843133   -0.9276301
  -0.0022799   -0.0721898   -0.0011908   -0.8698735   -0.0220238   -0.4927830
  -0.0021144   -0.0726839   -0.0014679   -0.8735608   -0.0666364   -0.4821318
  -0.0024357   -0.0717872   -0.0009111   -0.9004451    0.0130662   -0.4347734
  -0.0028515   -0.0724827    0.0004951   -0.9683489   -0.1644851   -0.1877367
  -0.0028516   -0.0718671    0.0002099   -0.9535820   -0.0657409   -0.2938698
  -0.0026601   -0.0719236   -0.0002910   -0.9371480   -0.0239172   -0.3481114
  -0.0013321   -0.0724077   -0.0025865   -0.7077316    0.0660415   -0.7033879
  -0.0029220   -0.0724735    0.0012834   -0.9777295   -0.1809616   -0.1062915
  -0.0030903   -0.0725532    0.0034899   -0.9465370   -0.2727533    0.1722594
  -0.0024749   -0.0735434    0.0042590   -0.8208601   -0.4017997    0.4058888
  -0.0031154   -0.0721929    0.0020955   -0.9707224   -0.2001621   -0.1327897
  -0.0031597   -0.0722922    0.0027278   -0.9756939   -0.2125801   -0.0532076
   0.0103333   -0.0743985    0.0017690    0.9589438   -0.2743429    0.0718523
   0.0100894   -0.0746594   -0.0004395    0.9764369    0.0967392   -0.1929054
   0.0104920   -0.0735469    0.0010169    0.9864233   -0.0317174   -0.1611305
   0.0099628   -0.0747626    0.0028651    0.8081151   -0.5013159    0.3092449
   0.0094600   -0.0749545    0.0034699    0.7070919   -0.5886912    0.3917445
   0.0097278   -0.0744351    0.0037518    0.7510842   -0.5451702    0.3723735
   0.0095171   -0.0732614    0.0058095    0.7630949   -0.3512500    0.5425030
   0.0098556   -0.0731025    0.0051951    0.8788721   -0.3261203    0.3481801
   0.0088007   -0.0739145    0.0061022    0.5666797   -0.5109273    0.6463958
   0.0082356   -0.0738498    0.0065233    0.3664828   -0.5035135    0.7824094
   0.0066636   -0.0737666    0.0067396    0.0094204   -0.3943092    0.9189295
   0.0074658   -0.0741371    0.0065650    0.1595642   -0.3759835    0.9127846
   0.0068451   -0.0743550    0.0065887   -0.3139159   -0.4398079    0.8414427
   0.0049745   -0.0733807    0.0073094    0.1341440   -0.4113665    0.9015448
  -0.0005772   -0.0714379   -0.0027358   -0.1151806    0.4153220   -0.9023531
  -0.0007116   -0.0708873   -0.0023213    0.0265846    0.6274672   -0.7781890
   0.0006807   -0.0707909   -0.0017334    0.3092740    0.4533475   -0.8359579
   0.0006648   -0.0702344   -0.0013370    0.3423664    0.6042923   -0.7194554
  -0.0001505   -0.0705127   -0.0018858    0.1511803    0.6282727   -0.7631631
   0.0013594   -0.0706283   -0.0012779    0.2777418    0.5686198   -0.7742938
   0.0018733   -0.0699127   -0.0007422    0.1723149    0.5605932   -0.8099647
   0.0017977   -0.0704725   -0.0009625    0.1911582    0.5998965   -0.7769059
   0.0013577   -0.0691719   -0.0001830    0.1975754    0.7579068   -0.6217245
   0.0035474   -0.0690086    0.0004907   -0.0136257    0.7248430   -0.6887793
   0.0021439   -0.0686434    0.0007693    0.0943344    0.8124523   -0.5753453
   0.0065993   -0.0681689    0.0007406   -0.0512139    0.7455999   -0.6644230
   0.0080655   -0.0693565   -0.0004907    0.0609456    0.6770515   -0.7334077
   0.0062447   -0.0679254    0.0010843   -0.1352013    0.7566177   -0.6397267
   0.0044663   -0.0687185    0.0006915   -0.1480934    0.7535834   -0.6404533
   0.0100298   -0.0740191   -0.0010577    0.9853458    0.0263926   -0.1685142
   0.0099608   -0.0731259   -0.0010863    0.9724635    0.0678844   -0.2229492
   0.0102359   -0.0729510    0.0000013    0.9671235    0.0621165   -0.2466043
   0.0088327   -0.0694230   -0.0003001    0.3686253    0.6472608   -0.6672097
   0.0094704   -0.0699095   -0.0001654    0.6202462    0.5348597   -0.5737767
   0.0098565   -0.0704107   -0.0000258    0.8530591    0.3721564   -0.3657728
