NORM_ASCII
1616 3228
  -0.0153656   -0.0087962    0.0007904   -0.7444940   -0.2532616    0.6177275
  -0.0152586   -0.0082996    0.0010360   -0.8676449   -0.0393206    0.4956271
  -0.0165651   -0.0092070   -0.0033708   -0.8368767    0.5214665   -0.1664633
  -0.0165050   -0.0090592   -0.0027153   -0.7982300    0.6022127   -0.0129861
  -0.0166242   -0.0093591   -0.0022586   -0.8913813    0.4339683    0.1308084
  -0.0161544   -0.0086441   -0.0018328   -0.8265012    0.5629171    0.0044799
  -0.0158696   -0.0081220   -0.0009669   -0.8896201    0.4516003    0.0680676
  -0.0151407   -0.0068456    0.0003181   -0.8972413    0.4288906    0.1049330
  -0.0154542   -0.0074389   -0.0004361   -0.8879121    0.4578369    0.0446922
  -0.0156444   -0.0077500   -0.0007565   -0.8310225    0.5546572   -0.0419181
  -0.0149500   -0.0094781    0.0009056   -0.8052317    0.0448464    0.5912619
  -0.0148313   -0.0089777    0.0011311   -0.7072429   -0.3010260    0.6396802
  -0.0148259   -0.0105450    0.0017944   -0.3095249    0.0789195    0.9476107
  -0.0148891   -0.0102892    0.0016282   -0.9128065    0.1527717    0.3787414
  -0.0149084   -0.0099197    0.0012869   -0.9532125    0.1753884    0.2462213
  -0.0149026   -0.0096853    0.0010448   -0.9190247    0.2152187    0.3302644
  -0.0147499   -0.0107951    0.0019400   -0.8504700   -0.1543799    0.5028594
  -0.0148859   -0.0109727    0.0016697   -0.7730190   -0.1196397    0.6229992
  -0.0145445   -0.0109176    0.0021770   -0.7271710   -0.2720019    0.6302676
  -0.0142708   -0.0109958    0.0023765   -0.4761282   -0.3442102    0.8092103
  -0.0140869   -0.0136416   -0.0058470    0.1563026    0.0346767   -0.9871003
  -0.0139250   -0.0128049   -0.0058067    0.1340842   -0.0538585   -0.9895053
  -0.0145561   -0.0112308   -0.0058394   -0.0592296    0.0379985   -0.9975209
  -0.0138652   -0.0117207   -0.0058399   -0.0085173    0.0323088   -0.9994416
  -0.0126015   -0.0110559   -0.0058404   -0.0246990   -0.1005859   -0.9946218
  -0.0152055   -0.0103365   -0.0057517   -0.1789295    0.0374768   -0.9831479
  -0.0128162   -0.0119014   -0.0057508    0.0833097   -0.1024022   -0.9912483
  -0.0115984   -0.0132769   -0.0054183    0.0846749   -0.1424463   -0.9861740
  -0.0107315   -0.0132808   -0.0054278    0.1332831   -0.1920441   -0.9722935
  -0.0102224   -0.0135228   -0.0052480    0.3399853   -0.2716370   -0.9003462
  -0.0100313   -0.0136783   -0.0050938    0.4353575   -0.4181099   -0.7972753
  -0.0096426   -0.0133553   -0.0050520    0.4348289   -0.3732297   -0.8195263
  -0.0098152   -0.0128626   -0.0053076    0.3463609   -0.2784260   -0.8958310
  -0.0091171   -0.0128859   -0.0009283    0.7954466   -0.4705832    0.3818588
  -0.0095544   -0.0136578   -0.0010523    0.8122521   -0.5253280    0.2535290
  -0.0090060   -0.0128970   -0.0011599    0.7493931   -0.5291383    0.3980235
  -0.0083332   -0.0131668   -0.0034714    0.6942648   -0.7184327   -0.0430214
  -0.0078867   -0.0126605   -0.0028080    0.6358059   -0.7454158    0.2002651
  -0.0077491   -0.0123933   -0.0023765    0.6549963   -0.6510832    0.3834976
  -0.0092381   -0.0124446   -0.0003183    0.7289261   -0.4746188    0.4933596
  -0.0091894   -0.0135661   -0.0045718    0.5812227   -0.6310540   -0.5137616
  -0.0090659   -0.0131738   -0.0047884    0.5128021   -0.4362540   -0.7394028
  -0.0088262   -0.0132530   -0.0044873    0.6560239   -0.5703806   -0.4942657
  -0.0081973   -0.0128945   -0.0039238    0.7273701   -0.6173917   -0.2996002
  -0.0108599   -0.0123384    0.0014000    0.4303346   -0.4720249    0.7694183
  -0.0107239   -0.0126487    0.0011206    0.5246785   -0.5730520    0.6295426
  -0.0104185   -0.0124211    0.0010535    0.5809131   -0.5041517    0.6390391
  -0.0100044   -0.0134251   -0.0000904    0.6266295   -0.4970376    0.6002408
  -0.0096683   -0.0129780   -0.0000938    0.7098958   -0.4479768    0.5434747
  -0.0094552   -0.0131111   -0.0005853    0.7600455   -0.4631903    0.4558351
  -0.0098776   -0.0119034    0.0008910    0.6625353   -0.4021749    0.6319037
  -0.0138889   -0.0102184    0.0028581   -0.3549753   -0.3088684    0.8823791
  -0.0134363   -0.0101706    0.0029858   -0.1432057   -0.3779591    0.9146797
  -0.0131192   -0.0110480    0.0026444   -0.0372459   -0.4064127    0.9129301
  -0.0108597   -0.0115236    0.0018646    0.4659315   -0.4234992    0.7768889
  -0.0113502   -0.0106958    0.0025596    0.3062354   -0.4137622    0.8573335
  -0.0123120   -0.0099353    0.0031033    0.2315179   -0.3940967    0.8894309
  -0.0161975   -0.0103609   -0.0054572   -0.4261611    0.0831205   -0.9008206
  -0.0163327   -0.0090904   -0.0037988   -0.8338970    0.5042761   -0.2243242
  -0.0163292   -0.0090970   -0.0046820   -0.9522837    0.3011620    0.0495703
  -0.0161792   -0.0089635   -0.0041319   -0.8552118    0.5182283   -0.0072226
  -0.0161520   -0.0088928   -0.0042403   -0.9021935    0.3985872    0.1648491
  -0.0160819   -0.0087599   -0.0035821   -0.7476712    0.6571033   -0.0959321
  -0.0164225   -0.0101722   -0.0052558   -0.7246473    0.1900035   -0.6624084
  -0.0165600   -0.0101948   -0.0050470   -0.9187028    0.2220797   -0.3265972
  -0.0164164   -0.0097664   -0.0051675   -0.8029608    0.2075441   -0.5587302
  -0.0163760   -0.0095102   -0.0050905   -0.8359253    0.2601753   -0.4832574
  -0.0163444   -0.0093262   -0.0050334   -0.9030767    0.2872666   -0.3192654
  -0.0151473   -0.0075241    0.0009990   -0.9019990    0.2633958    0.3420826
  -0.0153264   -0.0080464    0.0008769   -0.9239802    0.0964899    0.3700679
  -0.0151424   -0.0085351    0.0011126   -0.7204879   -0.2952165    0.6274906
  -0.0151139   -0.0077892    0.0012181   -0.8867030    0.1544474    0.4357796
  -0.0151442   -0.0081613    0.0012203   -0.8545828   -0.0669522    0.5149812
  -0.0162304   -0.0087669   -0.0024924   -0.6483684    0.7573951   -0.0772730
  -0.0159489   -0.0084854   -0.0022678   -0.5645149    0.8049179   -0.1828389
  -0.0159233   -0.0082800   -0.0016208   -0.7594400    0.6338884   -0.1464118
  -0.0150629   -0.0067261    0.0000943   -0.8149586    0.5667432   -0.1210148
  -0.0154153   -0.0073846   -0.0005452   -0.7312592    0.6342084   -0.2510772
  -0.0150346   -0.0068178    0.0006810   -0.9009002    0.3323130    0.2791898
  -0.0144631   -0.0057306    0.0009499   -0.8765001    0.4561650    0.1538217
  -0.0146045   -0.0059935    0.0005173   -0.7949290    0.5749588   -0.1936758
  -0.0155358   -0.0076795   -0.0009725   -0.6799804    0.6800889   -0.2740542
  -0.0156588   -0.0079728   -0.0014007   -0.5158924    0.7702585   -0.3749092
  -0.0147191   -0.0092140    0.0012153   -0.8868531   -0.0692607    0.4568309
  -0.0147120   -0.0092555    0.0012465   -0.9426961    0.1672138    0.2887275
  -0.0149302   -0.0086814    0.0012378   -0.7818560   -0.4073799    0.4719563
  -0.0147685   -0.0088862    0.0012900   -0.8709701   -0.3437918    0.3510247
  -0.0146733   -0.0100314    0.0019632   -0.9268289    0.0800599    0.3668495
  -0.0148259   -0.0105450    0.0017944    0.8115832   -0.0325145    0.5833314
  -0.0148259   -0.0105450    0.0017944   -0.5650271    0.1229170    0.8158651
  -0.0147370   -0.0094610    0.0014836   -0.9883959    0.1294867    0.0794147
  -0.0146932   -0.0096755    0.0020539   -0.9907405   -0.0253789    0.1333763
  -0.0146557   -0.0106620    0.0021650   -0.7612527   -0.2424674    0.6014183
  -0.0145640   -0.0105466    0.0023280   -0.6902088   -0.2631843    0.6740518
  -0.0143233   -0.0102790    0.0026211   -0.5120839   -0.2806002    0.8118088
  -0.0148263   -0.0100382   -0.0057742   -0.1044593    0.0290453   -0.9941049
  -0.0144991   -0.0097844   -0.0058097    0.0648523    0.0163151   -0.9977615
  -0.0135764   -0.0111420   -0.0058436   -0.0246412   -0.0170787   -0.9995505
  -0.0122034   -0.0111025   -0.0059104   -0.0359138   -0.1442213   -0.9888935
  -0.0135224   -0.0100643   -0.0058817   -0.1108911   -0.0870412   -0.9900136
  -0.0132492   -0.0098688   -0.0059745   -0.1532417   -0.1423873   -0.9778767
  -0.0126990   -0.0101303   -0.0059996    0.0123692   -0.0885040   -0.9959990
  -0.0126483   -0.0100911   -0.0060061    0.0066533   -0.1200287   -0.9927481
  -0.0124743   -0.0096159   -0.0060545   -0.0222247   -0.1077975   -0.9939244
  -0.0149229   -0.0097640   -0.0057602   -0.1020948    0.0294129   -0.9943397
  -0.0153507   -0.0097470   -0.0057141   -0.2038209    0.0667672   -0.9767288
  -0.0116030   -0.0119695   -0.0057374    0.0756453   -0.1957537   -0.9777312
  -0.0113203   -0.0122705   -0.0056337    0.1198737   -0.1799038   -0.9763529
  -0.0105951   -0.0114818   -0.0056285    0.1475848   -0.1586197   -0.9762472
  -0.0096446   -0.0110517   -0.0055680    0.1492799   -0.1431920   -0.9783719
  -0.0095814   -0.0120131   -0.0054392    0.2031246   -0.1618821   -0.9656783
  -0.0091422   -0.0119799   -0.0053258    0.3782806   -0.2468927   -0.8921591
  -0.0094316   -0.0126395   -0.0001783    0.7641150   -0.4043347    0.5026347
  -0.0074980   -0.0123076   -0.0027998    0.7339032   -0.6673281    0.1267255
  -0.0076752   -0.0125118   -0.0032416    0.7299857   -0.6578013   -0.1855218
  -0.0073937   -0.0119834   -0.0023764    0.8136062   -0.4727845    0.3384077
  -0.0075460   -0.0119840   -0.0021717    0.9112859   -0.3118385    0.2689141
  -0.0077688   -0.0121288   -0.0020385    0.6700006   -0.5631391    0.4837080
  -0.0076985   -0.0119825   -0.0019665    0.7931720   -0.4315425    0.4297083
  -0.0073832   -0.0115094   -0.0019767    0.7189527   -0.3998029    0.5685637
  -0.0089532   -0.0119495   -0.0003418    0.7310600   -0.3865152    0.5622787
  -0.0095307   -0.0118459    0.0005180    0.7364818   -0.3763944    0.5620692
  -0.0088381   -0.0129802   -0.0047438    0.5695336   -0.4217191   -0.7055385
  -0.0078418   -0.0122423   -0.0041674    0.7031412   -0.5272033   -0.4771259
  -0.0105821   -0.0122401    0.0012896    0.5164404   -0.4329633    0.7388045
  -0.0099223   -0.0112659    0.0012921    0.6170796   -0.3929961    0.6817381
  -0.0094346   -0.0113909    0.0006695    0.7199787   -0.3738838    0.5846721
  -0.0144699   -0.0100542    0.0025964   -0.6475255   -0.2079372    0.7331254
  -0.0140640   -0.0092690    0.0030365   -0.5640677   -0.1231710    0.8164904
  -0.0135917   -0.0099298    0.0030549   -0.2244266   -0.3371978    0.9142923
  -0.0136327   -0.0092091    0.0032795   -0.3636902   -0.2512634    0.8969928
  -0.0130155   -0.0086239    0.0036335   -0.1570002   -0.3202525    0.9342319
  -0.0125363   -0.0097392    0.0032118    0.0474384   -0.3816518    0.9230880
  -0.0103307   -0.0095050    0.0026559    0.4754616   -0.4298509    0.7675705
  -0.0114796   -0.0100071    0.0029350    0.2451676   -0.4205484    0.8735170
  -0.0119542   -0.0096249    0.0031960    0.1332738   -0.4018245    0.9059664
  -0.0121737   -0.0094278    0.0032955    0.8511825   -0.1991463    0.4856223
  -0.0121737   -0.0094278    0.0032955    0.8447201   -0.2053721    0.4942371
  -0.0162178   -0.0100135   -0.0053968   -0.5714939    0.1442940   -0.8078205
  -0.0156983   -0.0096497   -0.0056040   -0.2114318    0.1314694   -0.9685104
  -0.0162706   -0.0089466   -0.0049106   -0.8960469    0.3244278   -0.3030621
  -0.0161409   -0.0086638   -0.0044806   -0.9045262    0.3735772    0.2056026
  -0.0162394   -0.0088523   -0.0048728   -0.9150542    0.3820693   -0.1292244
  -0.0160737   -0.0088159   -0.0038835   -0.8362595    0.5478380   -0.0233126
  -0.0159182   -0.0085325   -0.0040274   -0.8290296    0.5198391    0.2061001
  -0.0157461   -0.0084459   -0.0034632   -0.6604533    0.7490690    0.0519322
  -0.0162207   -0.0096488   -0.0053225   -0.5848844    0.2098195   -0.7835088
  -0.0161994   -0.0092592   -0.0052286   -0.7107163    0.2777257   -0.6463364
  -0.0149517   -0.0069939    0.0010952   -0.8935058    0.2728363    0.3566620
  -0.0149526   -0.0082859    0.0014933   -0.7978490   -0.2574760    0.5451083
  -0.0148650   -0.0077965    0.0017726   -0.8651757    0.0224548    0.5009659
  -0.0155709   -0.0083576   -0.0029024   -0.5293065    0.8428590    0.0970736
  -0.0154520   -0.0083196   -0.0025300   -0.3384997    0.9299227   -0.1437417
  -0.0151642   -0.0080326   -0.0020057   -0.3530201    0.8538359   -0.3825456
  -0.0147198   -0.0062980    0.0000912   -0.6823178    0.6320265   -0.3674029
  -0.0151260   -0.0073588   -0.0009588   -0.5110045    0.7239929   -0.4633666
  -0.0141577   -0.0059786   -0.0001004   -0.5486118    0.6317302   -0.5476697
  -0.0148363   -0.0070344   -0.0007893   -0.5396002    0.6903820   -0.4818758
  -0.0141489   -0.0052548    0.0009398   -0.8410373    0.5406971   -0.0174062
  -0.0145526   -0.0064880    0.0018228   -0.8820377    0.2994779    0.3637615
  -0.0142950   -0.0056588    0.0015354   -0.8644001    0.4276986    0.2643602
  -0.0139361   -0.0051090    0.0005063   -0.8271295    0.4284454   -0.3637188
  -0.0140569   -0.0054166    0.0003708   -0.6547281    0.5514704   -0.5169251
  -0.0147626   -0.0074641   -0.0013435   -0.4674615    0.6702077   -0.5764559
  -0.0150849   -0.0077625   -0.0014981   -0.3474929    0.7954402   -0.4965114
  -0.0151740   -0.0078813   -0.0016854   -0.3152038    0.8573885   -0.4068556
  -0.0147049   -0.0091905    0.0012643   -0.9905868   -0.0577854    0.1240915
  -0.0148306   -0.0085188    0.0015609   -0.8943570   -0.2211030    0.3888947
  -0.0147503   -0.0087883    0.0016161   -0.9737321   -0.1750727    0.1455865
  -0.0146712   -0.0100569    0.0019874   -0.9786939    0.1668558    0.1196556
  -0.0146665   -0.0100169    0.0019985   -0.9988562    0.0104710    0.0466553
  -0.0147064   -0.0102474    0.0022215   -0.9586111   -0.0243689    0.2836740
  -0.0146994   -0.0103381    0.0022067   -0.8522686   -0.1629079    0.4970907
  -0.0147094   -0.0093246    0.0021175   -0.9740785    0.0691215    0.2153908
  -0.0146956   -0.0095988    0.0023631   -0.9752143    0.0322895    0.2188937
  -0.0145673   -0.0094855   -0.0057872    0.6688463    0.0187079   -0.7431652
  -0.0143878   -0.0096972   -0.0058178    0.1249100   -0.0230528   -0.9919002
  -0.0145673   -0.0094855   -0.0057872    0.9456148    0.0161706   -0.3248865
  -0.0117428   -0.0100626   -0.0060113    0.0383182   -0.1027832   -0.9939655
  -0.0110771   -0.0102077   -0.0059439    0.1297656   -0.1187994   -0.9844021
  -0.0141769   -0.0085161   -0.0059444   -0.2078880   -0.0520268   -0.9767680
  -0.0141769   -0.0095393   -0.0058633   -0.1932237   -0.0597522   -0.9793336
  -0.0131678   -0.0091308   -0.0060672   -0.0874897   -0.0455740   -0.9951224
  -0.0129331   -0.0096297   -0.0060332    0.0036414   -0.0549375   -0.9984832
  -0.0128058   -0.0098704   -0.0060114    0.0436458   -0.0402273   -0.9982369
  -0.0122486   -0.0091001   -0.0061086   -0.0077584   -0.0389307   -0.9992118
  -0.0117839   -0.0094146   -0.0060737    0.0522951   -0.0741532   -0.9958748
  -0.0150001   -0.0094734   -0.0057451   -0.1622170    0.0568110   -0.9851183
  -0.0151785   -0.0096105   -0.0057217    0.0985801    0.0851073   -0.9914831
  -0.0147389   -0.0092708   -0.0057694    0.0619735    0.0271122   -0.9977095
  -0.0153770   -0.0094059   -0.0056586    0.7970929    0.0871110   -0.5975405
  -0.0098203   -0.0108612   -0.0056346    0.1825938   -0.1704363   -0.9683031
  -0.0093418   -0.0105551   -0.0055833    0.2310429   -0.1486417   -0.9615221
  -0.0086925   -0.0119133   -0.0051136    0.4979023   -0.3052780   -0.8117257
  -0.0086272   -0.0108753   -0.0053461    0.3267550   -0.1901587   -0.9257812
  -0.0080343   -0.0111935   -0.0049462    0.4373706   -0.2727113   -0.8569338
  -0.0072412   -0.0119830   -0.0034650    0.7634797   -0.6174914   -0.1892172
  -0.0071890   -0.0119423   -0.0031310    0.7793564   -0.6252780    0.0403846
  -0.0071126   -0.0117864   -0.0027587    0.7927181   -0.5475013    0.2680303
  -0.0075242   -0.0120192   -0.0039338    0.7008290   -0.5745095   -0.4228208
  -0.0075460   -0.0119840   -0.0021717    0.9521326   -0.2041114    0.2275567
  -0.0073516   -0.0118676   -0.0023276    0.7645666   -0.4615110    0.4499395
  -0.0075460   -0.0119840   -0.0021717    0.9519293   -0.1997796    0.2322042
  -0.0077238   -0.0108216   -0.0011501    0.7288334   -0.3619228    0.5812174
  -0.0072277   -0.0115149   -0.0021811    0.7956670   -0.4092919    0.4465357
  -0.0074293   -0.0109468   -0.0015918    0.7178144   -0.3632404    0.5939688
  -0.0070746   -0.0108535   -0.0019528    0.7448827   -0.3258216    0.5822285
  -0.0082747   -0.0121695   -0.0047021    0.5800648   -0.4001400   -0.7095159
  -0.0078480   -0.0120785   -0.0043218    0.6624993   -0.4774495   -0.5771799
  -0.0094867   -0.0109862    0.0010179    0.6897575   -0.4028088    0.6016475
  -0.0082272   -0.0102751   -0.0001540    0.7275110   -0.3842323    0.5684130
  -0.0145941   -0.0098221    0.0025337   -0.7635135   -0.0956904    0.6386630
  -0.0144464   -0.0093109    0.0027097   -0.7995937    0.1272150    0.5869124
  -0.0138883   -0.0087473    0.0031646   -0.6884818    0.1341758    0.7127339
  -0.0137815   -0.0089849    0.0032595   -0.5460932   -0.0482117    0.8363360
  -0.0134869   -0.0086982    0.0034589   -0.4686106   -0.0517879    0.8818855
  -0.0123972   -0.0092314    0.0034023    0.2410216   -0.3795366    0.8932304
  -0.0124956   -0.0085317    0.0037246    0.0284157   -0.4404392    0.8973326
  -0.0123741   -0.0080292    0.0039470   -0.1399486   -0.3517226    0.9255839
  -0.0128539   -0.0081068    0.0037867   -0.4040160   -0.1036568    0.9088599
  -0.0112053   -0.0089910    0.0033260    0.2792394   -0.4513659    0.8475224
  -0.0101878   -0.0084610    0.0031940    0.4026262   -0.5131397    0.7580104
  -0.0093834   -0.0088062    0.0024174    0.5985026   -0.4880940    0.6352628
  -0.0118237   -0.0091190    0.0034033    0.2950860   -0.3961246    0.8694881
  -0.0121737   -0.0094278    0.0032955    0.7429605   -0.2619918    0.6159303
  -0.0155854   -0.0092035   -0.0055764   -0.2000175    0.1859947   -0.9619766
  -0.0153770   -0.0094059   -0.0056586    0.9431723    0.0427639   -0.3295409
  -0.0161197   -0.0088118   -0.0050881   -0.7904171    0.3904191   -0.4720316
  -0.0161066   -0.0084748   -0.0047154   -0.8829501    0.4552792   -0.1145423
  -0.0158681   -0.0081217   -0.0045016   -0.8439296    0.5168668    0.1436371
  -0.0153797   -0.0078539   -0.0036606   -0.8236513    0.4363565    0.3622036
  -0.0151104   -0.0076285   -0.0033629   -0.8181461    0.4404851    0.3696077
  -0.0154219   -0.0081470   -0.0033125   -0.7183692    0.6617786    0.2144639
  -0.0156532   -0.0085012   -0.0053379   -0.5287617    0.2953964   -0.7957085
  -0.0159119   -0.0086817   -0.0052334   -0.6272486    0.3885043   -0.6749990
  -0.0145334   -0.0070993    0.0020961   -0.8220073    0.1360197    0.5529943
  -0.0146969   -0.0086561    0.0019697   -0.9450376   -0.0508165    0.3229885
  -0.0146129   -0.0085370    0.0021687   -0.8330693    0.0425438    0.5515303
  -0.0146448   -0.0082356    0.0020883   -0.7678876    0.0593139    0.6378326
  -0.0145403   -0.0077757    0.0021976   -0.7679214    0.0682797    0.6368945
  -0.0151902   -0.0081611   -0.0027287   -0.6735628    0.6167899    0.4072878
  -0.0151995   -0.0082212   -0.0026552   -0.4974898    0.8519487    0.1633625
  -0.0149799   -0.0080837   -0.0022026   -0.4993651    0.8185722   -0.2838558
  -0.0150160   -0.0077805   -0.0015712   -0.4035923    0.7996782   -0.4445538
  -0.0148737   -0.0077650   -0.0017789   -0.6801888    0.6754063   -0.2849029
  -0.0147041   -0.0070584   -0.0009422   -0.6429328    0.6325885   -0.4318207
  -0.0139889   -0.0060032   -0.0003007   -0.6910718    0.6458777   -0.3244407
  -0.0139470   -0.0055806    0.0001068   -0.6666351    0.4696542   -0.5788113
  -0.0137687   -0.0056237   -0.0000919   -0.8174857    0.3964483   -0.4177869
  -0.0138188   -0.0048092    0.0006378   -0.9061429    0.4122998   -0.0944130
  -0.0140323   -0.0051997    0.0016092   -0.8517332    0.4907950    0.1834961
  -0.0137306   -0.0047053    0.0015956   -0.8302958    0.5358966    0.1530485
  -0.0142658   -0.0064813    0.0023130   -0.8275716    0.2482570    0.5034816
  -0.0138501   -0.0052493    0.0022954   -0.8410629    0.4332826    0.3238508
  -0.0138565   -0.0052939    0.0002198   -0.8481073    0.3026272   -0.4348918
  -0.0138191   -0.0050522    0.0002923   -0.9430744    0.2010925   -0.2649011
  -0.0137988   -0.0048689    0.0003426   -0.9769321    0.1745523   -0.1230250
  -0.0147550   -0.0074668   -0.0013521   -0.6123139    0.6424743   -0.4607585
  -0.0145626   -0.0070404   -0.0011498   -0.7823359    0.5207927   -0.3416510
  -0.0145346   -0.0088068    0.0023287   -0.8497003    0.1344203    0.5098437
  -0.0145673   -0.0094855   -0.0057872    0.6412784   -0.0270388   -0.7668317
  -0.0092219   -0.0097034   -0.0057065    0.2138909   -0.0724966   -0.9741637
  -0.0107359   -0.0082149   -0.0060277    0.1032030    0.0162309   -0.9945279
  -0.0102061   -0.0084664   -0.0059515    0.1957546    0.0310098   -0.9801625
  -0.0097742   -0.0087947   -0.0058653    0.2293078    0.0152206   -0.9732349
  -0.0145894   -0.0081157   -0.0058093   -0.3419145    0.0470190   -0.9385540
  -0.0139153   -0.0079645   -0.0059699   -0.1520087    0.0840062   -0.9848027
  -0.0146577   -0.0092086   -0.0057830   -0.2387002   -0.0049930   -0.9710805
  -0.0126089   -0.0079918   -0.0060897   -0.0128651    0.0307780   -0.9994434
  -0.0153770   -0.0094059   -0.0056586    0.4676718    0.0792080   -0.8803460
  -0.0148122   -0.0083548   -0.0056957   -0.3025855    0.0790951   -0.9498347
  -0.0091411   -0.0099695   -0.0056376    0.2537976   -0.1707701   -0.9520632
  -0.0086115   -0.0098567   -0.0054954    0.2573200   -0.1385399   -0.9563436
  -0.0073589   -0.0091505   -0.0053004    0.2492826   -0.1737944   -0.9527086
  -0.0072472   -0.0103503   -0.0048958    0.4682664   -0.3976960   -0.7890275
  -0.0067238   -0.0113465   -0.0030274    0.8373660   -0.5461600    0.0229663
  -0.0072073   -0.0117622   -0.0037317    0.7304760   -0.5834212   -0.3549992
  -0.0068218   -0.0114343   -0.0028087    0.7856401   -0.5511809    0.2810146
  -0.0071845   -0.0113382   -0.0041811    0.6653765   -0.5018489   -0.5526498
  -0.0072305   -0.0101169   -0.0013015    0.7629188   -0.3496731    0.5437680
  -0.0067749   -0.0110191   -0.0023999    0.7393819   -0.4428856    0.5071161
  -0.0067672   -0.0102563   -0.0019417    0.6871114   -0.3798331    0.6193584
  -0.0062979   -0.0103896   -0.0025769    0.7452572   -0.4294827    0.5100357
  -0.0070022   -0.0104114   -0.0018122    0.6885294   -0.3756553    0.6203308
  -0.0071539   -0.0104085   -0.0016119    0.8135242   -0.2927384    0.5024765
  -0.0087621   -0.0093129    0.0012044    0.7035350   -0.4413906    0.5569675
  -0.0085311   -0.0096075    0.0006900    0.7244212   -0.4283565    0.5401154
  -0.0078833   -0.0088049    0.0004323    0.7262663   -0.4284493    0.5375579
  -0.0141040   -0.0079916    0.0027086   -0.7359563    0.1255455    0.6652869
  -0.0135856   -0.0084561    0.0033532   -0.6200930    0.1553105    0.7690015
  -0.0132766   -0.0081635    0.0035296   -0.5917904    0.0787784    0.8022332
  -0.0120404   -0.0089211    0.0034971    0.1126723   -0.4175538    0.9016395
  -0.0110598   -0.0076511    0.0040277    0.1598738   -0.4989528    0.8517549
  -0.0115046   -0.0076299    0.0041450    0.0872646   -0.5264528    0.8457141
  -0.0122362   -0.0075217    0.0041400   -0.3652926   -0.1675061    0.9156981
  -0.0120590   -0.0077338    0.0041135   -0.1065496   -0.3976371    0.9113353
  -0.0129412   -0.0079415    0.0037423   -0.4998049   -0.0294734    0.8656364
  -0.0104597   -0.0077769    0.0037658    0.2876245   -0.5262906    0.8001814
  -0.0089748   -0.0074738    0.0032309    0.5206617   -0.6196479    0.5873226
  -0.0097927   -0.0076251    0.0036013    0.2839652   -0.6260697    0.7262234
  -0.0085818   -0.0088417    0.0014092    0.6983956   -0.4953879    0.5165601
  -0.0120223   -0.0089353    0.0034874    0.0865368   -0.4092528    0.9083081
  -0.0154220   -0.0090831   -0.0056178   -0.3595635    0.1754212   -0.9164832
  -0.0159965   -0.0084073   -0.0049313   -0.7799070    0.5061487   -0.3681828
  -0.0157896   -0.0080048   -0.0047254   -0.8288259    0.5385580   -0.1516672
  -0.0156066   -0.0078084   -0.0042820   -0.8578295    0.4638043    0.2213912
  -0.0153570   -0.0072897   -0.0042500   -0.8676724    0.4096352    0.2816800
  -0.0148745   -0.0077648   -0.0026629   -0.8609049    0.3662847    0.3530981
  -0.0149079   -0.0073541   -0.0031864   -0.8783817    0.3274466    0.3481729
  -0.0148780   -0.0070333   -0.0033839   -0.8778838    0.3274240    0.3494475
  -0.0157326   -0.0081339   -0.0050134   -0.7012023    0.4737979   -0.5327578
  -0.0155320   -0.0080113   -0.0051645   -0.6896046    0.3747979   -0.6196548
  -0.0151373   -0.0081411   -0.0055482   -0.5076807    0.1878816   -0.8408096
  -0.0153534   -0.0086610   -0.0055438   -0.4170408    0.1931784   -0.8881211
  -0.0134906   -0.0066717    0.0032237   -0.6960781    0.0640092    0.7151071
  -0.0134185   -0.0059104    0.0032532   -0.7395148    0.0920312    0.6668194
  -0.0148547   -0.0080428   -0.0024147   -0.8396505    0.5267606    0.1323260
  -0.0147630   -0.0076980   -0.0019942   -0.8730059    0.4636294   -0.1513557
  -0.0147432   -0.0074570   -0.0013767   -0.8142931    0.5552448   -0.1692041
  -0.0146541   -0.0073852   -0.0015701   -0.8913969    0.4390278   -0.1125439
  -0.0141387   -0.0062543   -0.0007359   -0.8211802    0.5656923   -0.0752017
  -0.0144262   -0.0067614   -0.0010113   -0.7949039    0.5510249   -0.2539672
  -0.0138828   -0.0059291   -0.0005174   -0.8265986    0.5621195    0.0275026
  -0.0137495   -0.0057137   -0.0003937   -0.9026493    0.4246216    0.0701477
  -0.0137284   -0.0052445    0.0000110   -0.9111161    0.1367808   -0.3887911
  -0.0136790   -0.0055224   -0.0003125   -0.9837563    0.1124463    0.1399261
  -0.0136948   -0.0052908   -0.0002733   -0.9968422   -0.0755670   -0.0243969
  -0.0136978   -0.0044271    0.0003920   -0.9432548    0.3128425    0.1113547
  -0.0134378   -0.0039484    0.0004524   -0.7804553    0.5655708    0.2664942
  -0.0134856   -0.0045457    0.0019904   -0.8080803    0.5489507    0.2136805
  -0.0131181   -0.0039751    0.0018139   -0.7904519    0.5902971    0.1635090
  -0.0133603   -0.0042216    0.0015011   -0.7577850    0.6278859    0.1775423
  -0.0135543   -0.0054039    0.0029351   -0.8123523    0.2860814    0.5081743
  -0.0133008   -0.0044160    0.0024982   -0.8076061    0.5078845    0.2997094
  -0.0137720   -0.0049207    0.0000529   -0.9912278   -0.0586873   -0.1184199
  -0.0138168   -0.0046496   -0.0001080   -0.9939320    0.0190715    0.1083306
  -0.0144385   -0.0068531   -0.0013323   -0.9122226    0.4096388    0.0067829
  -0.0089497   -0.0084109   -0.0055892    0.1783197    0.0987281   -0.9790071
  -0.0073622   -0.0081242   -0.0053623    0.1895588   -0.0123268   -0.9817920
  -0.0082589   -0.0085337   -0.0055143    0.1351088    0.0527814   -0.9894239
  -0.0104712   -0.0076298   -0.0059332    0.2468606    0.1319194   -0.9600297
  -0.0108422   -0.0072402   -0.0059674    0.1898288    0.1303504   -0.9731258
  -0.0097381   -0.0080455   -0.0057725    0.3105052    0.1920862   -0.9309616
  -0.0148016   -0.0075438   -0.0056290   -0.4593412    0.2313720   -0.8575970
  -0.0143003   -0.0075373   -0.0058128   -0.2683107    0.2189561   -0.9381192
  -0.0131000   -0.0076736   -0.0060277   -0.0818055    0.1816283   -0.9799587
  -0.0129144   -0.0078839   -0.0060701   -0.0597266    0.1128010   -0.9918209
  -0.0133046   -0.0067349   -0.0057990   -0.1620644    0.3669001   -0.9160346
  -0.0117603   -0.0069289   -0.0059574   -0.0235846    0.1997509   -0.9795628
  -0.0110027   -0.0070202   -0.0059670    0.1093472    0.1933221   -0.9750230
  -0.0072159   -0.0083488   -0.0053373    0.1937522   -0.0197233   -0.9808522
  -0.0069320   -0.0094565   -0.0051128    0.3472564   -0.2761798   -0.8961795
  -0.0065731   -0.0084893   -0.0051801    0.3339998   -0.1086430   -0.9362910
  -0.0068408   -0.0108860   -0.0041786    0.5489927   -0.5552578   -0.6247366
  -0.0064641   -0.0100093   -0.0046578    0.4660392   -0.4877708   -0.7381647
  -0.0064044   -0.0108802   -0.0030367    0.7788014   -0.5985466    0.1876440
  -0.0066382   -0.0109958   -0.0026092    0.8027914   -0.4893688    0.3406526
  -0.0065692   -0.0111050   -0.0034751    0.7829788   -0.6220210   -0.0058365
  -0.0066305   -0.0111718   -0.0032305    0.8576052   -0.5138985    0.0205334
  -0.0064938   -0.0109820   -0.0036997    0.6696593   -0.7009102   -0.2455227
  -0.0067541   -0.0110870   -0.0038750    0.6068972   -0.5984219   -0.5230363
  -0.0070475   -0.0100114   -0.0014664    0.7064004   -0.4060133    0.5797859
  -0.0068422   -0.0086228   -0.0007612    0.7160656   -0.4059112    0.5678787
  -0.0060967   -0.0094136   -0.0022548    0.7238079   -0.4163670    0.5502187
  -0.0065283   -0.0092806   -0.0015974    0.7066824   -0.4058074    0.5795863
  -0.0060601   -0.0104549   -0.0030395    0.7484377   -0.5832900    0.3156166
  -0.0057465   -0.0099787   -0.0030501    0.8100479   -0.4487714    0.3773946
  -0.0079851   -0.0079551    0.0013565    0.7198890   -0.5167564    0.4633818
  -0.0080006   -0.0084176    0.0009563    0.7392110   -0.4561610    0.4954637
  -0.0072210   -0.0078470    0.0003561    0.7134582   -0.4910899    0.4998081
  -0.0076498   -0.0082233    0.0006140    0.7282450   -0.4651185    0.5033131
  -0.0069689   -0.0078336    0.0000019    0.6982343   -0.4823047    0.5290095
  -0.0124934   -0.0070589    0.0040302   -0.5707674   -0.0194689    0.8208810
  -0.0112002   -0.0073174    0.0043093    0.1552254   -0.5615491    0.8127531
  -0.0114250   -0.0071423    0.0044396   -0.0617583   -0.4430928    0.8943459
  -0.0120686   -0.0070020    0.0042839   -0.4360305   -0.1028568    0.8940346
  -0.0119227   -0.0072267    0.0043095   -0.2895932   -0.2316089    0.9287050
  -0.0111152   -0.0068495    0.0046144    0.0229921   -0.5044680    0.8631242
  -0.0082221   -0.0075877    0.0021774    0.6645345   -0.5798287    0.4713729
  -0.0079028   -0.0068192    0.0028204    0.6343762   -0.6522012    0.4149705
  -0.0083286   -0.0067986    0.0034577    0.5419707   -0.6722866    0.5042801
  -0.0086857   -0.0063951    0.0042153    0.4346027   -0.6866275    0.5828064
  -0.0092636   -0.0065176    0.0044386    0.3182046   -0.6850711    0.6553040
  -0.0107061   -0.0066430    0.0047411    0.0693583   -0.6256638    0.7770034
  -0.0101683   -0.0065276    0.0047873    0.1348975   -0.6101374    0.7807272
  -0.0080963   -0.0079091    0.0015953    0.7108510   -0.5432884    0.4466862
  -0.0156667   -0.0079560   -0.0049376   -0.7932811    0.4749671   -0.3809349
  -0.0155691   -0.0076234   -0.0045161   -0.8858582    0.4638601   -0.0094395
  -0.0153036   -0.0070703   -0.0045389   -0.8939816    0.4480238    0.0084624
  -0.0150999   -0.0067375   -0.0042593   -0.8744602    0.4534535    0.1723349
  -0.0147576   -0.0077010   -0.0022863   -0.9613250    0.2310895    0.1498393
  -0.0146713   -0.0071090   -0.0027012   -0.9446132    0.2565624    0.2046502
  -0.0146769   -0.0062235   -0.0035734   -0.9542491    0.2593062    0.1488921
  -0.0153942   -0.0074137   -0.0049585   -0.8270462    0.4288879   -0.3633865
  -0.0150733   -0.0073411   -0.0053436   -0.6506871    0.3376299   -0.6801561
  -0.0131543   -0.0056333    0.0035074   -0.6981835    0.0573330    0.7136195
  -0.0132971   -0.0051297    0.0032006   -0.7968223    0.2806898    0.5350584
  -0.0147332   -0.0076339   -0.0020998   -0.9620830    0.2723177    0.0154737
  -0.0146013   -0.0072248   -0.0018002   -0.9519499    0.2995769    0.0636007
  -0.0140907   -0.0061229   -0.0009283   -0.8954055    0.4018841    0.1916718
  -0.0138883   -0.0056769   -0.0007625   -0.9246218    0.1875018    0.3315382
  -0.0138402   -0.0055159   -0.0007007   -0.9329098    0.0365019    0.3582553
  -0.0137221   -0.0053513   -0.0004253   -0.9458937   -0.0730726    0.3161416
  -0.0138266   -0.0047666   -0.0005366   -0.9862743   -0.0846524    0.1417638
  -0.0136846   -0.0041447    0.0000937   -0.8910737    0.3349370    0.3062756
  -0.0129497   -0.0034376    0.0005522   -0.7453779    0.6004862    0.2895308
  -0.0132001   -0.0034010    0.0001175   -0.7702048    0.4753513    0.4252360
  -0.0132115   -0.0038893    0.0009711   -0.7616528    0.6215556    0.1831765
  -0.0127857   -0.0035298    0.0018082   -0.7509720    0.6292323    0.2002692
  -0.0130389   -0.0043495    0.0029610   -0.7503492    0.5298319    0.3952900
  -0.0138864   -0.0041198   -0.0005410   -0.9623998    0.0924430    0.2554232
  -0.0144085   -0.0065995   -0.0017960   -0.9656982    0.1779533    0.1891022
  -0.0094379   -0.0077562   -0.0055816    0.1886227    0.2042915   -0.9605657
  -0.0086687   -0.0063795   -0.0053326   -0.1205439    0.1307171   -0.9840641
  -0.0074312   -0.0078318   -0.0053626    0.1582213    0.0233513   -0.9871275
  -0.0077498   -0.0066962   -0.0053715    0.0237336   -0.0167090   -0.9995787
  -0.0063603   -0.0079538   -0.0051150    0.3550851   -0.0025713   -0.9348305
  -0.0105237   -0.0069427   -0.0058054    0.3946354    0.2725149   -0.8774956
  -0.0106823   -0.0067236   -0.0058106    0.3636209    0.2753889   -0.8899106
  -0.0101630   -0.0069517   -0.0056102    0.3467926    0.3552626   -0.8680573
  -0.0099103   -0.0070954   -0.0055998    0.2744486    0.3917015   -0.8782072
  -0.0094463   -0.0070227   -0.0054115    0.1090041    0.3291076   -0.9379799
  -0.0146040   -0.0070146   -0.0055386   -0.4764136    0.3733619   -0.7960094
  -0.0139152   -0.0068597   -0.0057346   -0.2097735    0.3375613   -0.9176314
  -0.0142155   -0.0067161   -0.0055916   -0.3345007    0.4241058   -0.8415721
  -0.0126396   -0.0065515   -0.0058074   -0.0665766    0.2936628   -0.9535878
  -0.0137057   -0.0062831   -0.0054956   -0.1960951    0.5180881   -0.8325452
  -0.0134124   -0.0055814   -0.0050315   -0.2911562    0.5708878   -0.7676687
  -0.0132153   -0.0054220   -0.0050268   -0.3515598    0.4199177   -0.8367048
  -0.0123295   -0.0057354   -0.0054544   -0.1261364    0.4420057   -0.8880994
  -0.0115765   -0.0063971   -0.0058136    0.0177362    0.3818120   -0.9240698
  -0.0108499   -0.0065065   -0.0057986    0.1811726    0.4165857   -0.8908607
  -0.0061806   -0.0094573   -0.0047495    0.5099334   -0.2938977   -0.8084504
  -0.0064112   -0.0090122   -0.0050079    0.4391055   -0.2082027   -0.8739783
  -0.0061265   -0.0084245   -0.0049647    0.5097720   -0.1173550   -0.8522677
  -0.0064480   -0.0108108   -0.0039315    0.5486814   -0.6550460   -0.5194839
  -0.0060485   -0.0099596   -0.0044024    0.5760934   -0.4430707   -0.6868805
  -0.0060456   -0.0102448   -0.0041656    0.6031195   -0.5583293   -0.5696624
  -0.0062933   -0.0108136   -0.0032519    0.7240979   -0.6844641    0.0848003
  -0.0061019   -0.0106331   -0.0036907    0.7257737   -0.6643255   -0.1786734
  -0.0061880   -0.0107389   -0.0034688    0.7122595   -0.6980299    0.0737610
  -0.0064570   -0.0083938   -0.0010758    0.6805630   -0.4653203    0.5659603
  -0.0052199   -0.0088676   -0.0030972    0.8470842   -0.4137869    0.3335097
  -0.0061246   -0.0090332   -0.0018972    0.6958345   -0.4368135    0.5700951
  -0.0058687   -0.0084445   -0.0017584    0.6863179   -0.4493365    0.5718955
  -0.0053071   -0.0079902   -0.0020818    0.7519036   -0.4292361    0.5003972
  -0.0053053   -0.0084847   -0.0024784    0.7902487   -0.4226888    0.4436679
  -0.0059355   -0.0104114   -0.0032517    0.7965134   -0.5842782    0.1555165
  -0.0058060   -0.0102515   -0.0035824    0.8082845   -0.5883922    0.0216976
  -0.0056267   -0.0099278   -0.0032635    0.8508433   -0.4739683    0.2267594
  -0.0055350   -0.0095724   -0.0031352    0.8762462   -0.3771601    0.2999047
  -0.0076146   -0.0077410    0.0010300    0.7170920   -0.5215030    0.4623999
  -0.0063422   -0.0058305    0.0015890    0.6903527   -0.6232403    0.3674026
  -0.0078158   -0.0071335    0.0022167    0.6765482   -0.6071574    0.4167041
  -0.0064177   -0.0065362    0.0006245    0.6964283   -0.5652796    0.4420933
  -0.0059290   -0.0062329    0.0002753    0.6659426   -0.5493679    0.5046934
  -0.0119923   -0.0055027    0.0044614   -0.5561108   -0.0360246    0.8303270
  -0.0113024   -0.0066395    0.0046597   -0.2897753   -0.2496736    0.9239553
  -0.0117577   -0.0067089    0.0044566   -0.4162326   -0.1192745    0.9014011
  -0.0109949   -0.0063472    0.0048387   -0.3055895   -0.2395452    0.9215385
  -0.0105017   -0.0062652    0.0049754   -0.0855496   -0.4281795    0.8996353
  -0.0063652   -0.0053036    0.0028640    0.6510220   -0.7209457    0.2375031
  -0.0081490   -0.0064346    0.0037383    0.5202446   -0.7125271    0.4707980
  -0.0066053   -0.0058961    0.0020096    0.6830114   -0.6541383    0.3249593
  -0.0089900   -0.0062204    0.0046616    0.3004341   -0.7290033    0.6150557
  -0.0096328   -0.0058659    0.0051741    0.1034193   -0.4945773    0.8629587
  -0.0101840   -0.0059693    0.0051370   -0.0314707   -0.4061667    0.9132569
  -0.0151749   -0.0068376   -0.0044144   -0.8536722    0.5207754   -0.0060594
  -0.0151934   -0.0069354   -0.0047403   -0.8264410    0.5212260   -0.2128820
  -0.0147598   -0.0062314   -0.0043381   -0.7928707    0.6015783   -0.0972606
  -0.0146033   -0.0059930   -0.0039015   -0.8641313    0.5018707   -0.0374564
  -0.0145231   -0.0066146   -0.0025107   -0.9783057    0.1392830    0.1533568
  -0.0145296   -0.0056617   -0.0031997   -0.9836594    0.1784211   -0.0240869
  -0.0145210   -0.0061508   -0.0024127   -0.9938980   -0.0203240    0.1084149
  -0.0143821   -0.0052255   -0.0033164   -0.9220802    0.3472457   -0.1708465
  -0.0149518   -0.0069028   -0.0051804   -0.6880585    0.4832972   -0.5412941
  -0.0129706   -0.0051086    0.0036226   -0.7335632    0.2571428    0.6290967
  -0.0125933   -0.0050692    0.0039570   -0.6772714    0.1139771    0.7268512
  -0.0144377   -0.0059870   -0.0020350   -0.9477447   -0.0516989    0.3148128
  -0.0144306   -0.0055935   -0.0018790   -0.9163017    0.0621870    0.3956310
  -0.0139340   -0.0053303   -0.0010425   -0.9445586    0.1625344    0.2852923
  -0.0138126   -0.0048327   -0.0008365   -0.9662325   -0.0793089    0.2451629
  -0.0139582   -0.0042428   -0.0007994   -0.9722904   -0.0523765    0.2278333
  -0.0138021   -0.0037187   -0.0005981   -0.8619303    0.3593105    0.3577320
  -0.0131868   -0.0030997   -0.0001064   -0.7490975    0.4321294    0.5021127
  -0.0121547   -0.0026848    0.0010038   -0.7710034    0.5766061    0.2703315
  -0.0123512   -0.0030346    0.0016153   -0.7687618    0.5806069    0.2681436
  -0.0124828   -0.0032827    0.0020380   -0.7173173    0.6592742    0.2254183
  -0.0124278   -0.0038629    0.0034225   -0.6741416    0.5089032    0.5353043
  -0.0120330   -0.0033925    0.0033075   -0.6486080    0.6644001    0.3713222
  -0.0127062   -0.0046397    0.0036857   -0.7057783    0.3546497    0.6132704
  -0.0138987   -0.0039399   -0.0007012   -0.9486440    0.1942084    0.2497151
  -0.0092995   -0.0065117   -0.0052339   -0.1977553    0.3317007   -0.9224248
  -0.0096144   -0.0060326   -0.0050952   -0.2502500   -0.0841999   -0.9645130
  -0.0094344   -0.0055477   -0.0051244   -0.2754596    0.1173424   -0.9541241
  -0.0095279   -0.0063130   -0.0051028   -0.3601632    0.0155470   -0.9327597
  -0.0085307   -0.0048569   -0.0052592   -0.1232818    0.1757198   -0.9766904
  -0.0076266   -0.0059011   -0.0053698   -0.0622220    0.0325046   -0.9975329
  -0.0068970   -0.0070389   -0.0052995    0.1717886   -0.0687394   -0.9827327
  -0.0073482   -0.0067239   -0.0053774    0.0594022   -0.0535701   -0.9967957
  -0.0063828   -0.0069355   -0.0051473    0.4251755   -0.0430337   -0.9040873
  -0.0056083   -0.0086110   -0.0045949    0.6361445   -0.1254965   -0.7612955
  -0.0102641   -0.0066681   -0.0055443    0.5602307    0.3660911   -0.7430470
  -0.0101000   -0.0068859   -0.0055498    0.4598396    0.4482296   -0.7665753
  -0.0105810   -0.0062284   -0.0055536    0.3762261    0.4279139   -0.8217930
  -0.0100836   -0.0069057   -0.0055538    0.3097362    0.5506773   -0.7751245
  -0.0096508   -0.0068208   -0.0053388    0.1403658    0.4939151   -0.8581056
  -0.0144848   -0.0065125   -0.0053119   -0.5328476    0.5766649   -0.6192988
  -0.0140907   -0.0061885   -0.0052804   -0.3609450    0.6019075   -0.7123384
  -0.0136562   -0.0049351   -0.0044608   -0.5564704    0.4983261   -0.6648397
  -0.0139632   -0.0057991   -0.0049571   -0.5071909    0.6030283   -0.6157225
  -0.0125351   -0.0052645   -0.0051826   -0.2396318    0.3402639   -0.9092838
  -0.0127805   -0.0035343   -0.0043772   -0.5695660    0.3606387   -0.7386030
  -0.0126463   -0.0041939   -0.0047301   -0.3817429    0.2911642   -0.8772091
  -0.0121623   -0.0045841   -0.0050538   -0.2355254    0.2767019   -0.9316458
  -0.0117520   -0.0056850   -0.0053983    0.0996618    0.4460134   -0.8894603
  -0.0123470   -0.0051090   -0.0051669   -0.0803476    0.2938529   -0.9524677
  -0.0114263   -0.0054268   -0.0052111    0.0836650    0.3958697   -0.9144875
  -0.0057609   -0.0094661   -0.0044246    0.6534514   -0.3285525   -0.6819490
  -0.0060516   -0.0104669   -0.0039211    0.7098355   -0.6172627   -0.3392938
  -0.0057105   -0.0097909   -0.0041681    0.7569558   -0.4345600   -0.4880323
  -0.0057271   -0.0100100   -0.0039292    0.8161042   -0.4996812   -0.2903321
  -0.0057102   -0.0074709   -0.0011701    0.6844789   -0.4841233    0.5450811
  -0.0055401   -0.0068946   -0.0008119    0.6884086   -0.5037930    0.5218105
  -0.0055692   -0.0065870   -0.0004703    0.6969905   -0.4961052    0.5177682
  -0.0054562   -0.0095724   -0.0033836    0.9196862   -0.3625884    0.1506883
  -0.0051275   -0.0087700   -0.0033171    0.9455474   -0.3230772    0.0395135
  -0.0050600   -0.0083869   -0.0029029    0.9022324   -0.3518527    0.2493519
  -0.0048876   -0.0074397   -0.0023089    0.8474008   -0.4094075    0.3380789
  -0.0047157   -0.0069095   -0.0020972    0.8627842   -0.3396999    0.3744428
  -0.0051591   -0.0074915   -0.0018906    0.7368014   -0.4508641    0.5038306
  -0.0049289   -0.0078648   -0.0027166    0.9062878   -0.3370847    0.2549829
  -0.0057651   -0.0101946   -0.0036955    0.8168755   -0.5694351   -0.0919679
  -0.0055299   -0.0098374   -0.0034823    0.9022669   -0.4308697   -0.0162992
  -0.0058616   -0.0056393    0.0010283    0.7004605   -0.6031788    0.3814844
  -0.0058688   -0.0048774    0.0026560    0.7632245   -0.6033133    0.2313038
  -0.0053636   -0.0056903    0.0001323    0.7777862   -0.4593393    0.4290175
  -0.0122232   -0.0050313    0.0043054   -0.5991156    0.1227350    0.7911995
  -0.0115694   -0.0054462    0.0047186   -0.4532676   -0.0821971    0.8875765
  -0.0113759   -0.0049178    0.0048169   -0.4988756    0.1054099    0.8602394
  -0.0102432   -0.0056470    0.0052216   -0.1409019   -0.2478680    0.9584926
  -0.0106809   -0.0053180    0.0051594   -0.3272741   -0.0782992    0.9416798
  -0.0111285   -0.0053829    0.0049455   -0.4320859   -0.0327218    0.9012386
  -0.0069089   -0.0052618    0.0044376    0.5460264   -0.7379646    0.3965646
  -0.0060530   -0.0048262    0.0037368    0.7311416   -0.6711045    0.1226817
  -0.0062759   -0.0049571    0.0041672    0.6128643   -0.7349223    0.2903214
  -0.0067563   -0.0051397    0.0044355    0.5103012   -0.7474430    0.4253488
  -0.0061156   -0.0049701    0.0030806    0.7138022   -0.6799727    0.1677008
  -0.0079901   -0.0061167    0.0040940    0.3922496   -0.7807720    0.4863489
  -0.0089415   -0.0058104    0.0050706    0.1996479   -0.5867996    0.7847337
  -0.0087484   -0.0059178    0.0049185    0.2822479   -0.6628932    0.6934758
  -0.0092211   -0.0056041    0.0052434    0.1265501   -0.3596106    0.9244811
  -0.0091143   -0.0046705    0.0055012    0.0506241   -0.2280423    0.9723343
  -0.0148988   -0.0064978   -0.0047701   -0.7196293    0.6081462   -0.3350999
  -0.0142096   -0.0057744   -0.0046477   -0.6746277    0.6076788   -0.4190512
  -0.0145185   -0.0058844   -0.0041235   -0.7914970    0.5852942   -0.1759639
  -0.0140057   -0.0051637   -0.0042604   -0.7765237    0.4762418   -0.4125587
  -0.0145568   -0.0055302   -0.0025991   -0.9879422    0.1368428   -0.0724178
  -0.0145561   -0.0058182   -0.0023640   -0.9859598   -0.0676396    0.1526701
  -0.0142982   -0.0047671   -0.0028768   -0.9395407    0.3307584   -0.0886691
  -0.0139972   -0.0045169   -0.0035311   -0.8738202    0.3748686   -0.3096961
  -0.0123037   -0.0047837    0.0041665   -0.6494183    0.3021236    0.6978375
  -0.0139736   -0.0050664   -0.0012501   -0.8892882    0.0377405    0.4557874
  -0.0142875   -0.0050308   -0.0017469   -0.9227816    0.1155229    0.3675984
  -0.0145442   -0.0054388   -0.0022778   -0.9762074    0.1430237    0.1629828
  -0.0140158   -0.0043474   -0.0010254   -0.9515826   -0.0587060    0.3017354
  -0.0140679   -0.0048233   -0.0013644   -0.8851404   -0.1216410    0.4491436
  -0.0140377   -0.0042084   -0.0011335   -0.9768646    0.0949540    0.1916227
  -0.0138646   -0.0035558   -0.0011292   -0.9111179    0.3589125    0.2025984
  -0.0135332   -0.0031597   -0.0006177   -0.8268711    0.3962072    0.3991291
  -0.0132487   -0.0028739   -0.0003903   -0.7654778    0.4187901    0.4885270
  -0.0128276   -0.0021793   -0.0003582   -0.7146055    0.4770750    0.5116038
  -0.0114575   -0.0015006    0.0006569   -0.7240007    0.5394030    0.4299621
  -0.0120039   -0.0025819    0.0015823   -0.7503014    0.6229079    0.2214354
  -0.0119965   -0.0026879    0.0018592   -0.7127870    0.5717412    0.4062593
  -0.0120632   -0.0027342    0.0018106   -0.7415308    0.5056287    0.4409895
  -0.0117007   -0.0035657    0.0039132   -0.5673728    0.5394269    0.6221791
  -0.0121214   -0.0043059    0.0041001   -0.6281731    0.3768321    0.6807320
  -0.0120309   -0.0042251    0.0041310   -0.5739443    0.4535515    0.6818203
  -0.0115220   -0.0027474    0.0028636   -0.6345220    0.6752891    0.3759873
  -0.0113099   -0.0030466    0.0037558   -0.5838705    0.6740680    0.4524684
  -0.0140101   -0.0040073   -0.0010753   -0.9646554    0.2068686    0.1632342
  -0.0097147   -0.0067636   -0.0053069    0.0260805    0.5483111   -0.8358677
  -0.0095414   -0.0063223   -0.0050952   -0.2248395    0.2367093   -0.9452068
  -0.0098801   -0.0058903   -0.0050667    0.0101000    0.0950464   -0.9954216
  -0.0097363   -0.0061155   -0.0050370   -0.0970419    0.0353485   -0.9946524
  -0.0096666   -0.0053712   -0.0049879   -0.3978258    0.2504215   -0.8826232
  -0.0093897   -0.0047825   -0.0049968   -0.4123184    0.0270843   -0.9106371
  -0.0091100   -0.0045811   -0.0050844   -0.2306590    0.1056358   -0.9672836
  -0.0083607   -0.0047212   -0.0052616   -0.1296134    0.1655257   -0.9776511
  -0.0089524   -0.0044558   -0.0050898    0.0626533    0.2260323   -0.9721029
  -0.0087218   -0.0046376   -0.0051621   -0.1222124    0.2773497   -0.9529645
  -0.0077577   -0.0049502   -0.0053257   -0.0116889    0.1154044   -0.9932498
  -0.0075897   -0.0051673   -0.0053382    0.0995671    0.1174525   -0.9880745
  -0.0078912   -0.0046960   -0.0052743   -0.0836199    0.1681291   -0.9822119
  -0.0072146   -0.0055656   -0.0053517    0.1284343    0.1012995   -0.9865308
  -0.0065805   -0.0057294   -0.0052571    0.3289519    0.0352225   -0.9436896
  -0.0056311   -0.0076053   -0.0046762    0.6425897   -0.0438376   -0.7649553
  -0.0059625   -0.0068935   -0.0049368    0.5444596   -0.0195996   -0.8385580
  -0.0054592   -0.0092162   -0.0041948    0.8293542   -0.2993443   -0.4717676
  -0.0053097   -0.0084759   -0.0042471    0.8446598   -0.1499167   -0.5138820
  -0.0100683   -0.0064174   -0.0051756    0.4626668    0.3038937   -0.8328194
  -0.0101992   -0.0061865   -0.0052258    0.5181841    0.2414899   -0.8204681
  -0.0098806   -0.0066259   -0.0052199    0.2049483    0.4900736   -0.8472449
  -0.0107375   -0.0059796   -0.0054512    0.2111133    0.4900704   -0.8457318
  -0.0104091   -0.0058907   -0.0052391    0.2865862    0.4723369   -0.8335264
  -0.0103433   -0.0059614   -0.0052548    0.4137286    0.3489140   -0.8408851
  -0.0140922   -0.0056983   -0.0047175   -0.6494429    0.5349869   -0.5403822
  -0.0134404   -0.0039404   -0.0039699   -0.6443709    0.4267300   -0.6345768
  -0.0118125   -0.0039608   -0.0050742   -0.4582511    0.1945894   -0.8672605
  -0.0127276   -0.0019045   -0.0034166   -0.7362448    0.4644294   -0.4921879
  -0.0124074   -0.0024824   -0.0042326   -0.6596701    0.3726819   -0.6526436
  -0.0120069   -0.0025988   -0.0045829   -0.4889412    0.3063316   -0.8167603
  -0.0118035   -0.0041306   -0.0051044   -0.4336378    0.1708391   -0.8847442
  -0.0120904   -0.0045283   -0.0050616   -0.3082088    0.1623003   -0.9373718
