NORM_ASCII
1434 2864
   0.0034226   -0.0054054   -0.0075584   -0.6759397   -0.3624770   -0.6416510
   0.0043615   -0.0061100   -0.0079777   -0.5687493   -0.4112022   -0.7123461
   0.0044729   -0.0063068   -0.0079338   -0.5121202   -0.4220637   -0.7480609
   0.0065362    0.0011281   -0.0059796   -0.1298147    0.8812127   -0.4545463
   0.0055981    0.0007240   -0.0059358   -0.5494573    0.8234201   -0.1416902
   0.0050997    0.0000626   -0.0047833   -0.7719985    0.5999620    0.2099142
   0.0049844    0.0002298   -0.0056978   -0.6729903    0.7148055    0.1900980
   0.0051553    0.0001906   -0.0050725   -0.7555551    0.6312238    0.1751940
   0.0043987   -0.0001672   -0.0062269   -0.5819006    0.8108283    0.0628420
   0.0048494   -0.0001901   -0.0049487   -0.6901666    0.6624681    0.2912149
   0.0054000   -0.0043814   -0.0092197   -0.7754983   -0.6288036   -0.0566433
   0.0049763   -0.0040393   -0.0092885   -0.6326019   -0.7398227   -0.2290792
   0.0049459   -0.0039105   -0.0095249   -0.6813206   -0.5970678   -0.4234527
   0.0053800   -0.0043638   -0.0091930   -0.6403592   -0.7562927   -0.1340203
   0.0057795   -0.0051109   -0.0090528   -0.7769035   -0.3419904   -0.5286431
   0.0057844   -0.0050068   -0.0092397   -0.8487203   -0.4803448   -0.2212301
   0.0056687   -0.0047503   -0.0090150   -0.8995042   -0.4352409   -0.0381782
   0.0056846   -0.0048044   -0.0090215   -0.9505106   -0.2254844   -0.2137436
   0.0049020   -0.0039906   -0.0091957   -0.6404294   -0.6792896   -0.3583515
   0.0046591   -0.0038725   -0.0090247   -0.6450412   -0.5756868   -0.5025004
   0.0041303   -0.0029878   -0.0092627   -0.7960621   -0.5026100   -0.3371472
   0.0037562   -0.0023047   -0.0089764   -0.8594184    0.1323566   -0.4938439
   0.0038307   -0.0026002   -0.0090288   -0.8814997   -0.2448964   -0.4037128
   0.0037777   -0.0005487   -0.0067920   -0.4115151    0.8428306   -0.3468313
   0.0038331   -0.0009083   -0.0073265   -0.3292439    0.7435319   -0.5820299
   0.0036633   -0.0007477   -0.0070391   -0.4607195    0.7111491   -0.5310409
   0.0041423   -0.0003100   -0.0062034   -0.5331820    0.8377992    0.1175139
   0.0036793   -0.0005376   -0.0064879   -0.4676816    0.8831577    0.0361450
   0.0037372   -0.0011168   -0.0075546   -0.4193362    0.7118174   -0.5634476
   0.0038104   -0.0014852   -0.0080708   -0.5225651    0.6583566   -0.5417494
   0.0036540   -0.0013319   -0.0077695   -0.5541597    0.6002566   -0.5767140
   0.0036059   -0.0015644   -0.0079483   -0.6782764    0.4907965   -0.5468637
   0.0037415   -0.0017084   -0.0082709   -0.6714252    0.5718492   -0.4713563
   0.0037209   -0.0017904   -0.0083383   -0.7404134    0.5993001   -0.3043475
   0.0036691   -0.0019285   -0.0084747   -0.9075334    0.3416314   -0.2442767
   0.0036409   -0.0021719   -0.0086328   -0.9609416    0.1337643   -0.2422774
   0.0036779   -0.0024476   -0.0087242   -0.9521515   -0.1390904   -0.2721422
   0.0045552   -0.0056380   -0.0083423   -0.3875174   -0.3900472   -0.8352804
   0.0050225   -0.0054566   -0.0085002   -0.3321611   -0.1812821   -0.9256380
   0.0056470   -0.0052266   -0.0088561   -0.6886724   -0.0785765   -0.7208024
   0.0054449   -0.0053056   -0.0087314   -0.4306652    0.0123753   -0.9024269
   0.0045214   -0.0003297   -0.0053226   -0.6213112    0.7271781    0.2918635
   0.0034923   -0.0006367   -0.0063529   -0.4916624    0.8659149    0.0919759
   0.0033067   -0.0007795   -0.0062384   -0.5979232    0.7879772    0.1469007
   0.0031647   -0.0009258   -0.0061671   -0.7073243    0.6839292    0.1786984
   0.0029402   -0.0012273   -0.0060855   -0.7789168    0.6048930    0.1655084
   0.0028485   -0.0014302   -0.0058797   -0.8687206    0.4565022    0.1921726
   0.0029188   -0.0032699   -0.0067112   -0.8742554    0.0268203   -0.4847249
   0.0028464   -0.0027172   -0.0065276   -0.8485108    0.0131090   -0.5290157
   0.0028627   -0.0020262   -0.0065859   -0.8833430    0.0685818   -0.4636828
   0.0027327   -0.0018872   -0.0062571   -0.9677673    0.1142689   -0.2244306
   0.0030005   -0.0038263   -0.0068854   -0.9530793   -0.0251590   -0.3016735
   0.0027698   -0.0016392   -0.0061056   -0.9644879    0.2631723   -0.0224368
   0.0032809   -0.0050756   -0.0075753   -0.7259721   -0.1305866   -0.6752122
   0.0031487   -0.0042337   -0.0073243   -0.8310508    0.1348188   -0.5396096
   0.0031706   -0.0045030   -0.0074308   -0.7936211    0.0955620   -0.6008606
   0.0031242   -0.0039643   -0.0072202   -0.8574607    0.1419894   -0.4945706
   0.0031056   -0.0036978   -0.0071103   -0.8536016    0.1576788   -0.4964894
   0.0035064   -0.0051291   -0.0077370   -0.5995839   -0.1229703   -0.7908081
   0.0041797   -0.0057415   -0.0080279   -0.6297405   -0.3102770   -0.7121482
   0.0042146   -0.0057418   -0.0080616   -0.5342909   -0.4843411   -0.6927820
   0.0049716   -0.0000190   -0.0049892   -0.6777158    0.6930112    0.2458392
   0.0055790   -0.0045749   -0.0088508   -0.8382527   -0.5355444   -0.1025894
   0.0051882   -0.0042746   -0.0089696   -0.4258992   -0.8043393   -0.4143044
   0.0054725   -0.0044844   -0.0087088   -0.3727720   -0.6990384   -0.6102347
   0.0056111   -0.0049494   -0.0087640   -0.7142202    0.1314503   -0.6874666
   0.0055911   -0.0046816   -0.0086556   -0.6252300   -0.1644268   -0.7629228
   0.0049392   -0.0042745   -0.0088651   -0.3731450   -0.5988226   -0.7086426
   0.0043538   -0.0036421   -0.0088770   -0.7010616   -0.4513324   -0.5520976
   0.0045842   -0.0039587   -0.0088766   -0.5404540   -0.4925347   -0.6821430
   0.0037422   -0.0026157   -0.0087254   -0.8766046   -0.3766190   -0.2995372
   0.0035601   -0.0006211   -0.0066829   -0.5342760    0.8109795   -0.2384561
   0.0034597   -0.0008255   -0.0069158   -0.6229077    0.6379839   -0.4527279
   0.0035963   -0.0009703   -0.0072374   -0.5459693    0.6794963   -0.4901044
   0.0034130   -0.0010294   -0.0070778   -0.6867041    0.6020313   -0.4074258
   0.0035078   -0.0011830   -0.0074579   -0.6826571    0.5516166   -0.4792686
   0.0034645   -0.0014175   -0.0076317   -0.7663186    0.4246730   -0.4820878
   0.0035793   -0.0018091   -0.0081048   -0.8445521    0.2892201   -0.4506479
   0.0034473   -0.0016659   -0.0077787   -0.8722600    0.2171972   -0.4381641
   0.0034633   -0.0019324   -0.0078914   -0.9227913    0.0648945   -0.3797960
   0.0035788   -0.0020655   -0.0082348   -0.9547931    0.1711735   -0.2430428
   0.0036230   -0.0022697   -0.0084573   -0.9886292   -0.0204599   -0.1489752
   0.0036788   -0.0025077   -0.0086167   -0.9653639   -0.2262019   -0.1300204
   0.0045173   -0.0055641   -0.0083546   -0.4233960   -0.1955628   -0.8845853
   0.0043231   -0.0056478   -0.0082217   -0.5489343   -0.3654877   -0.7517246
   0.0051088   -0.0050725   -0.0086217   -0.2565906   -0.1310953   -0.9575883
   0.0048478   -0.0051090   -0.0085512   -0.3286671   -0.2331265   -0.9152213
   0.0053728   -0.0050123   -0.0086763   -0.2073341    0.0527611   -0.9768464
   0.0033822   -0.0007122   -0.0065333   -0.6363846    0.7595390   -0.1345923
   0.0032390   -0.0008230   -0.0063474   -0.7134528    0.7002678   -0.0246999
   0.0029858   -0.0011341   -0.0064045   -0.8350193    0.5389137   -0.1109720
   0.0028959   -0.0012714   -0.0061641   -0.8908981    0.4531219    0.0313216
   0.0030909   -0.0034325   -0.0069963   -0.8220140    0.1685724   -0.5439452
   0.0033984   -0.0025244   -0.0074207   -0.8815021   -0.0655532   -0.4676076
   0.0032592   -0.0033349   -0.0071560   -0.7685438    0.1288983   -0.6266783
   0.0032877   -0.0016477   -0.0072327   -0.9430407    0.0308212   -0.3312465
   0.0028219   -0.0014901   -0.0063695   -0.9375394    0.2576856   -0.2337051
   0.0029461   -0.0013718   -0.0065746   -0.8506955    0.2809428   -0.4442840
   0.0032796   -0.0013871   -0.0071091   -0.8717737    0.2436921   -0.4249998
   0.0033443   -0.0044079   -0.0075851   -0.6775276    0.0601862   -0.7330306
   0.0038741   -0.0037626   -0.0081085   -0.8182529    0.0355619   -0.5737574
   0.0032657   -0.0035953   -0.0072785   -0.7541469    0.2525598   -0.6061979
   0.0037648   -0.0045143   -0.0079473   -0.6661759   -0.0435951   -0.7445194
   0.0040230   -0.0047212   -0.0081435   -0.6090019   -0.1204756   -0.7839658
   0.0050015   -0.0043549   -0.0088260   -0.0920267   -0.4763643   -0.8744188
   0.0053603   -0.0046777   -0.0086871    0.0806763   -0.1460144   -0.9859874
   0.0048155   -0.0044978   -0.0087113   -0.3854269   -0.3861935   -0.8380338
   0.0044052   -0.0041088   -0.0086199   -0.6255990   -0.3394019   -0.7024473
   0.0042528   -0.0037742   -0.0086476   -0.7531525   -0.3319756   -0.5679379
   0.0039150   -0.0037090   -0.0082005   -0.8886252   -0.1985834   -0.4134125
   0.0037085   -0.0027707   -0.0081354   -0.9452714   -0.2322035   -0.2292236
   0.0032827   -0.0009198   -0.0067649   -0.6998922    0.5950876   -0.3949958
   0.0032473   -0.0011590   -0.0069306   -0.7725760    0.4132352   -0.4820404
   0.0033993   -0.0010538   -0.0071071   -0.7765324    0.5302369   -0.3403620
   0.0033538   -0.0012863   -0.0072834   -0.8607427    0.3658834   -0.3539087
   0.0033691   -0.0010812   -0.0070587   -0.8140417    0.4410336   -0.3779225
   0.0033378   -0.0015359   -0.0074289   -0.9149059    0.2235660   -0.3361034
   0.0033505   -0.0018017   -0.0075450   -0.9533439    0.0294135   -0.3004502
   0.0035237   -0.0022222   -0.0079580   -0.9605350   -0.1191475   -0.2513491
   0.0034126   -0.0020907   -0.0076102   -0.9594334   -0.1240514   -0.2531773
   0.0036148   -0.0023429   -0.0083263   -0.9770947   -0.1606492   -0.1395627
   0.0043892   -0.0045433   -0.0084323   -0.5683987   -0.2081139   -0.7959972
   0.0040038   -0.0040125   -0.0082381   -0.7077651   -0.1762039   -0.6841204
   0.0051012   -0.0050549   -0.0086232   -0.1653012   -0.2022877   -0.9652747
   0.0031224   -0.0010198   -0.0065970   -0.7804566    0.5359090   -0.3220079
   0.0035499   -0.0031174   -0.0075229   -0.8686201   -0.1235575   -0.4798257
   0.0036097   -0.0034044   -0.0075905   -0.8176074    0.1036503   -0.5663699
   0.0036755   -0.0033276   -0.0077247   -0.9027712   -0.0865124   -0.4213310
   0.0037083   -0.0032725   -0.0078221   -0.9169315   -0.1450085   -0.3717648
3 0 1 2 
3 0 2 3 
3 0 4 1 
3 4 0 5 
3 0 6 7 
3 7 5 0 
3 3 6 0 
3 2 1 8 
3 1 4 9 
3 1 9 10 
3 10 8 1 
3 2 11 3 
3 2 8 12 
3 13 2 12 
3 11 2 13 
3 11 14 3 
3 3 15 6 
3 15 3 16 
3 3 14 16 
3 17 9 4 
3 4 5 17 
3 5 18 19 
3 20 5 7 
3 19 17 5 
3 18 5 20 
3 7 6 21 
3 6 15 21 
3 7 22 20 
3 22 7 21 
3 12 8 23 
3 10 23 8 
3 24 9 25 
3 9 24 10 
3 26 9 17 
3 25 9 26 
3 10 27 23 
3 28 29 10 
3 27 10 29 
3 28 10 24 
3 30 11 13 
3 14 11 30 
3 12 23 31 
3 32 12 31 
3 13 12 32 
3 33 13 32 
3 30 13 33 
3 34 14 30 
3 16 14 34 
3 15 16 35 
3 15 35 36 
3 36 21 15 
3 34 35 16 
3 19 26 17 
3 37 19 18 
3 18 20 38 
3 18 39 37 
3 40 18 38 
3 18 40 39 
3 26 19 37 
3 38 20 22 
3 21 36 22 
3 22 36 41 
3 42 38 22 
3 22 41 42 
3 27 43 23 
3 31 23 43 
3 25 44 24 
3 24 45 28 
3 24 44 45 
3 26 46 25 
3 44 25 46 
3 37 46 26 
3 47 27 48 
3 29 48 27 
3 27 47 49 
3 50 43 27 
3 27 49 50 
3 29 28 51 
3 28 52 51 
3 28 45 52 
3 29 53 54 
3 54 48 29 
3 51 53 29 
3 55 30 33 
3 34 30 55 
3 31 43 56 
3 32 31 57 
3 57 31 56 
3 58 32 57 
3 33 32 58 
3 59 33 58 
3 55 33 59 
3 60 35 34 
3 60 34 55 
3 36 35 60 
3 60 61 36 
3 61 41 36 
3 62 46 37 
3 37 39 63 
3 63 62 37 
3 38 64 65 
3 38 65 40 
3 64 38 42 
3 39 66 63 
3 67 66 39 
3 39 68 69 
3 39 40 68 
3 69 67 39 
3 65 68 40 
3 42 41 70 
3 71 70 41 
3 71 41 61 
3 42 70 72 
3 42 73 64 
3 72 73 42 
3 50 56 43 
3 46 74 44 
3 75 45 44 
3 44 76 75 
3 74 76 44 
3 45 77 78 
3 45 75 77 
3 52 45 78 
3 62 74 46 
3 48 79 47 
3 49 47 80 
3 81 47 82 
3 80 47 81 
3 47 79 83 
3 82 47 83 
3 48 54 79 
3 49 84 50 
3 84 49 80 
3 56 50 85 
3 85 50 86 
3 86 50 84 
3 87 53 51 
3 51 88 87 
3 89 88 51 
3 90 51 91 
3 51 52 91 
3 89 51 90 
3 91 52 78 
3 53 79 54 
3 92 93 53 
3 93 79 53 
3 87 92 53 
3 60 55 59 
3 56 85 94 
3 57 56 94 
3 95 57 94 
3 96 57 95 
3 97 57 96 
3 58 57 97 
3 98 58 97 
3 59 58 98 
3 99 59 98 
3 60 59 100 
3 100 59 99 
3 100 101 60 
3 61 60 101 
3 61 102 71 
3 61 101 102 
3 74 62 103 
3 103 62 104 
3 104 62 66 
3 62 63 66 
3 105 65 64 
3 106 105 64 
3 106 64 107 
3 107 64 73 
3 108 109 65 
3 65 105 108 
3 68 65 109 
3 104 66 110 
3 110 66 67 
3 69 111 67 
3 67 111 110 
3 68 112 69 
3 112 68 109 
3 69 113 111 
3 112 113 69 
3 72 70 71 
3 71 102 114 
3 72 71 114 
3 72 115 116 
3 114 115 72 
3 73 72 116 
3 117 118 73 
3 73 118 107 
3 73 116 117 
3 74 103 76 
3 76 119 75 
3 75 119 120 
3 77 75 120 
3 119 76 103 
3 78 77 120 
3 121 91 78 
3 122 121 78 
3 78 123 122 
3 78 120 123 
3 93 83 79 
3 124 80 81 
3 84 80 124 
3 81 82 125 
3 126 81 125 
3 124 81 126 
3 125 82 127 
3 83 127 82 
3 128 83 93 
3 128 129 83 
3 83 130 127 
3 130 83 129 
3 124 131 84 
3 84 131 86 
3 95 85 86 
3 94 85 95 
3 95 86 132 
3 86 131 132 
3 133 92 87 
3 87 134 133 
3 88 134 87 
3 135 88 89 
3 134 88 135 
3 89 136 135 
3 89 137 136 
3 137 89 138 
3 89 90 139 
3 138 89 139 
3 91 121 90 
3 139 90 122 
3 121 122 90 
3 93 92 133 
3 133 128 93 
3 132 96 95 
3 140 96 132 
3 97 96 140 
3 141 97 140 
3 98 97 141 
3 99 98 141 
3 142 99 143 
3 99 141 143 
3 142 100 99 
3 144 100 142 
3 101 100 145 
3 145 100 144 
3 145 102 101 
3 102 145 114 
3 119 103 146 
3 103 147 146 
3 104 147 103 
3 110 148 104 
3 147 104 148 
3 105 149 108 
3 149 105 150 
3 105 106 150 
3 107 150 106 
3 150 107 151 
3 151 107 152 
3 118 152 107 
3 153 109 108 
3 153 108 149 
3 109 153 112 
3 154 148 110 
3 110 111 154 
3 155 111 113 
3 154 111 155 
3 155 112 153 
3 155 113 112 
3 156 114 145 
3 156 157 114 
3 115 114 157 
3 158 116 115 
3 115 157 159 
3 158 115 159 
3 116 158 160 
3 160 117 116 
3 161 118 117 
3 162 117 160 
3 117 162 161 
3 152 118 161 
3 146 120 119 
3 120 146 163 
3 120 164 123 
3 120 163 164 
3 139 122 165 
3 165 122 123 
3 166 165 123 
3 123 164 166 
3 167 131 124 
3 124 168 167 
3 168 124 126 
3 169 125 127 
3 125 169 170 
3 170 126 125 
3 170 168 126 
3 127 130 171 
3 127 171 169 
3 172 173 128 
3 173 129 128 
3 172 128 133 
3 130 129 174 
3 174 129 173 
3 174 171 130 
3 167 132 131 
3 132 167 175 
3 175 140 132 
3 133 176 172 
3 133 177 178 
3 178 176 133 
3 179 177 133 
3 133 134 179 
3 135 180 134 
3 179 134 180 
3 135 136 181 
3 180 135 181 
3 136 182 181 
3 183 182 136 
3 136 184 183 
3 137 184 136 
3 138 185 137 
3 185 184 137 
3 186 138 139 
3 138 187 185 
3 186 188 138 
3 188 187 138 
3 189 190 139 
3 139 165 189 
3 139 190 186 
3 175 141 140 
3 143 141 175 
3 143 191 142 
3 142 192 144 
3 191 192 142 
3 143 193 194 
3 194 195 143 
3 143 175 196 
3 143 196 193 
3 143 195 191 
3 192 197 144 
3 145 144 197 
3 145 197 156 
3 146 147 198 
3 163 146 198 
3 148 199 147 
3 147 199 200 
3 201 198 147 
3 147 200 201 
3 202 148 154 
3 202 199 148 
3 203 153 149 
3 150 204 149 
3 203 149 204 
3 150 205 204 
3 150 151 206 
3 206 205 150 
3 206 151 207 
3 161 208 151 
3 151 152 161 
3 207 151 208 
3 209 153 210 
3 153 203 210 
3 153 209 155 
3 154 155 209 
3 209 202 154 
3 156 197 211 
3 211 212 156 
3 156 212 213 
3 213 214 156 
3 214 157 156 
3 159 157 214 
3 158 215 160 
3 216 158 217 
3 158 218 217 
3 158 159 218 
3 215 158 216 
3 218 159 214 
3 162 160 219 
3 160 220 219 
3 220 160 215 
3 221 161 162 
3 222 161 221 
3 222 208 161 
3 162 219 223 
3 162 224 221 
3 224 162 223 
3 164 163 225 
3 198 225 163 
3 164 226 166 
3 164 225 227 
3 226 164 227 
3 165 228 189 
3 228 165 166 
3 228 166 229 
3 166 230 231 
3 229 166 231 
3 232 166 226 
3 233 230 166 
3 166 232 233 
3 234 167 168 
3 175 167 234 
3 168 170 234 
3 235 169 171 
3 170 169 236 
3 235 236 169 
3 234 170 237 
3 236 237 170 
3 171 238 235 
3 238 171 174 
3 173 172 239 
3 172 240 239 
3 172 176 241 
3 242 240 172 
3 242 172 241 
3 238 174 173 
3 239 238 173 
3 234 243 175 
3 243 244 175 
3 244 196 175 
3 245 176 246 
3 241 176 245 
3 178 246 176 
3 247 178 177 
3 248 249 177 
3 250 177 249 
3 177 179 248 
3 177 250 247 
3 251 252 178 
3 178 252 246 
3 247 251 178 
3 180 253 179 
3 253 254 179 
3 179 255 248 
3 254 255 179 
3 181 256 180 
3 257 258 180 
3 180 259 257 
3 180 258 253 
3 180 256 259 
3 181 182 256 
3 183 260 182 
3 260 261 182 
3 256 182 261 
3 183 184 260 
3 185 262 184 
3 184 262 263 
3 184 263 260 
3 264 262 185 
3 185 187 264 
3 186 229 265 
3 190 229 186 
3 186 265 266 
3 266 188 186 
3 187 267 264 
3 187 188 267 
3 267 188 266 
3 190 189 228 
3 229 190 228 
3 268 191 195 
3 268 192 191 
3 211 197 192 
3 269 192 268 
3 211 192 269 
3 270 194 193 
3 271 193 196 
3 193 271 270 
3 272 194 270 
3 273 195 194 
3 273 194 272 
3 274 195 273 
3 195 274 268 
3 196 244 275 
3 275 271 196 
3 198 201 276 
3 198 276 227 
3 227 225 198 
3 277 199 202 
3 278 199 277 
3 278 200 199 
3 278 279 200 
3 201 200 279 
3 201 280 276 
3 201 281 282 
3 279 281 201 
3 280 201 282 
3 277 202 283 
3 284 283 202 
3 284 202 209 
3 285 210 203 
3 203 286 285 
3 203 204 286 
3 204 205 286 
3 287 205 206 
3 287 286 205 
3 287 206 207 
3 207 288 289 
3 287 207 290 
3 288 207 208 
3 289 290 207 
3 222 288 208 
3 210 291 209 
3 209 291 292 
3 209 293 284 
3 209 292 294 
3 294 293 209 
3 291 210 285 
3 211 269 295 
3 295 212 211 
3 296 213 212 
3 212 295 296 
3 213 296 297 
3 298 213 297 
3 299 213 298 
3 213 299 218 
3 218 214 213 
3 216 300 215 
3 223 215 300 
3 223 220 215 
3 216 217 301 
3 301 302 216 
3 216 302 303 
3 304 216 303 
3 305 300 216 
3 304 305 216 
3 301 217 218 
3 218 299 306 
3 301 218 306 
3 223 219 220 
3 221 307 222 
3 221 308 307 
3 224 309 221 
3 309 308 221 
3 288 222 307 
3 224 223 300 
3 310 311 224 
3 312 309 224 
3 300 305 224 
3 312 224 311 
3 224 305 310 
3 227 232 226 
3 227 276 313 
3 232 227 313 
3 265 229 231 
3 231 230 314 
3 233 314 230 
3 231 315 265 
3 314 315 231 
3 232 316 317 
3 313 316 232 
3 233 232 317 
3 314 233 317 
3 318 234 237 
3 243 234 318 
3 319 236 235 
3 320 235 238 
3 320 321 235 
3 321 322 235 
3 235 322 319 
3 237 236 319 
3 319 318 237 
3 238 239 323 
3 323 320 238 
3 240 323 239 
3 240 242 324 
3 325 240 324 
3 323 240 325 
3 241 326 242 
3 327 241 245 
3 326 241 327 
3 324 242 326 
3 318 328 243 
3 243 328 275 
3 243 275 244 
3 245 246 329 
3 330 245 329 
3 327 245 330 
3 329 246 252 
3 251 247 331 
3 250 332 247 
3 247 332 333 
3 247 333 331 
3 249 248 334 
3 255 335 248 
3 335 334 248 
3 336 337 249 
3 337 250 249 
3 249 334 336 
3 332 250 337 
3 251 338 252 
3 331 338 251 
3 339 252 338 
3 329 252 339 
3 340 253 258 
3 340 254 253 
3 341 254 340 
3 254 341 255 
3 341 335 255 
3 342 259 256 
3 342 256 261 
3 258 257 343 
3 343 257 344 
3 257 259 344 
3 345 340 258 
3 343 345 258 
3 344 259 342 
3 263 261 260 
3 261 263 342 
3 342 263 262 
3 262 264 342 
3 264 346 342 
3 264 267 347 
3 347 346 264 
3 265 348 349 
3 265 349 267 
3 266 265 267 
3 350 348 265 
3 265 315 350 
3 349 351 267 
3 347 267 351 
3 269 268 274 
3 352 269 274 
3 353 295 269 
3 269 352 353 
3 270 271 354 
3 355 270 354 
3 355 272 270 
3 328 271 275 
3 356 271 328 
3 354 271 356 
3 357 272 355 
3 358 272 357 
3 273 272 358 
3 273 359 274 
3 359 273 358 
3 360 274 359 
3 352 274 360 
3 276 361 362 
3 362 313 276 
3 361 276 280 
3 277 363 278 
3 277 364 363 
3 292 364 277 
3 292 277 283 
3 363 279 278 
3 281 279 363 
3 280 282 361 
3 365 282 281 
3 281 363 366 
3 367 365 281 
3 367 281 366 
3 361 282 365 
3 283 293 294 
3 283 284 293 
3 283 294 292 
3 285 368 291 
3 369 370 285 
3 290 368 285 
3 285 286 369 
3 290 285 370 
3 369 286 287 
3 370 369 287 
3 290 370 287 
3 289 288 371 
3 372 288 373 
3 307 373 288 
3 371 288 372 
3 371 374 289 
3 375 376 289 
3 289 376 290 
3 375 289 374 
3 368 290 377 
3 290 376 377 
3 291 378 292 
3 291 379 378 
3 368 379 291 
3 292 380 381 
3 364 292 381 
3 380 292 378 
3 295 353 382 
3 295 382 296 
3 297 296 382 
3 382 383 297 
3 297 383 384 
3 297 384 298 
3 298 384 385 
3 386 298 385 
3 299 298 386 
3 387 306 299 
3 387 299 388 
3 388 299 386 
3 302 301 306 
3 389 390 302 
3 389 302 306 
3 302 390 303 
3 303 390 391 
3 303 392 304 
3 303 391 392 
3 310 305 304 
3 304 393 310 
3 394 393 304 
3 304 395 394 
3 395 304 392 
3 396 397 306 
3 306 387 396 
3 398 306 397 
3 306 398 389 
3 399 307 308 
3 373 307 399 
3 308 309 400 
3 401 399 308 
3 308 400 401 
3 312 400 309 
3 311 310 402 
3 393 402 310 
3 312 311 403 
3 402 404 311 
3 403 311 404 
3 312 403 405 
3 400 312 405 
3 316 313 362 
3 317 315 314 
3 317 406 315 
3 350 315 407 
3 408 315 406 
3 315 408 409 
3 407 315 409 
3 410 317 316 
3 410 316 362 
3 406 317 410 
3 356 318 319 
3 318 356 328 
3 356 319 411 
3 322 411 319 
3 323 321 320 
3 412 321 323 
3 412 322 321 
3 322 412 413 
3 411 322 413 
3 325 412 323 
3 324 326 414 
3 414 325 324 
3 413 412 325 
3 325 414 415 
3 415 413 325 
3 414 326 327 
3 330 414 327 
3 339 330 329 
3 330 339 416 
3 417 414 330 
3 418 330 416 
3 417 330 418 
3 333 338 331 
3 332 419 333 
3 420 332 337 
3 419 332 420 
3 333 339 338 
3 339 333 419 
3 421 336 334 
3 421 334 335 
3 422 335 341 
3 423 424 335 
3 421 335 424 
3 335 422 423 
3 420 337 336 
3 425 336 421 
3 425 426 336 
3 336 426 420 
3 419 416 339 
3 345 427 340 
3 422 341 340 
3 428 422 340 
3 428 340 427 
3 429 342 346 
3 344 342 429 
3 430 343 344 
3 431 432 343 
3 432 345 343 
3 431 343 430 
3 429 430 344 
3 427 345 432 
3 346 433 429 
3 346 347 433 
3 348 347 351 
3 434 347 435 
3 347 348 435 
3 433 347 434 
3 351 349 348 
3 436 348 350 
3 435 348 436 
3 350 407 437 
3 437 438 350 
3 438 436 350 
3 360 353 352 
3 382 353 360 
3 439 354 356 
3 354 439 355 
3 440 355 441 
3 355 440 442 
3 441 355 439 
3 355 442 443 
3 355 443 357 
3 439 356 411 
3 357 443 358 
3 358 444 359 
3 445 358 443 
3 445 444 358 
3 446 359 444 
3 360 359 446 
3 360 383 382 
3 446 447 360 
3 360 447 383 
3 361 410 362 
3 448 449 361 
3 361 365 448 
3 449 410 361 
3 366 363 450 
3 363 364 451 
3 363 451 450 
3 381 452 364 
3 364 453 451 
3 364 452 454 
3 364 454 453 
3 365 367 455 
3 448 365 455 
3 366 450 456 
3 457 367 366 
3 366 456 457 
3 457 458 367 
3 455 367 458 
3 459 368 377 
3 459 379 368 
3 371 372 374 
3 460 374 372 
3 461 372 373 
3 372 461 462 
3 460 372 462 
3 461 373 399 
3 374 463 375 
3 374 464 463 
3 464 374 460 
3 376 375 377 
3 465 466 375 
3 375 463 467 
3 375 466 468 
3 468 377 375 
3 467 465 375 
3 377 468 459 
3 378 379 469 
3 378 469 380 
3 459 469 379 
3 470 381 380 
3 380 466 470 
3 466 380 469 
3 452 381 471 
3 381 470 471 
3 384 383 447 
3 385 384 447 
3 447 472 385 
3 473 474 385 
3 385 474 386 
3 385 472 473 
3 388 386 474 
3 388 475 387 
3 396 387 475 
3 476 388 474 
3 475 388 476 
3 390 389 477 
3 398 477 389 
3 391 390 477 
3 391 477 478 
3 478 392 391 
3 392 479 480 
3 392 478 479 
3 392 480 395 
3 402 393 481 
3 482 481 393 
3 393 483 482 
3 394 483 393 
3 483 394 484 
3 484 394 485 
3 395 485 394 
3 395 480 486 
3 486 485 395 
3 397 396 487 
3 488 396 475 
3 396 488 487 
3 398 397 489 
3 490 397 487 
3 489 397 490 
3 491 477 398 
3 489 491 398 
3 399 401 461 
3 492 401 400 
3 405 492 400 
3 492 461 401 
3 404 402 481 
3 403 404 493 
3 405 403 494 
3 403 493 494 
3 493 404 481 
3 405 494 492 
3 449 495 406 
3 406 410 449 
3 496 497 406 
3 406 497 408 
3 498 406 495 
3 498 496 406 
3 407 499 500 
3 500 437 407 
3 407 409 501 
3 499 407 501 
3 408 497 502 
3 503 408 502 
3 408 503 504 
3 409 408 504 
3 409 504 505 
3 505 501 409 
3 439 411 506 
3 413 506 411 
3 415 507 413 
3 413 507 506 
3 414 417 415 
3 508 441 415 
3 441 507 415 
3 415 417 508 
3 416 419 418 
3 417 509 510 
3 508 417 510 
3 509 417 418 
3 420 418 419 
3 509 418 511 
3 511 418 512 
3 418 420 512 
3 426 512 420 
3 425 421 513 
3 421 424 513 
3 428 423 422 
3 424 423 514 
3 514 423 515 
3 423 428 515 
3 514 516 424 
3 513 424 516 
3 517 426 425 
3 425 513 518 
3 518 519 425 
3 517 425 519 
3 511 512 426 
3 511 426 517 
3 515 428 427 
3 515 427 520 
3 520 427 432 
3 521 430 429 
3 522 429 433 
3 521 429 522 
3 431 430 521 
3 432 431 523 
3 524 523 431 
3 524 431 521 
3 432 525 520 
3 432 523 525 
3 526 522 433 
3 433 434 526 
3 526 434 435 
3 435 527 526 
3 527 435 436 
3 436 438 528 
3 527 436 528 
3 529 437 500 
3 438 437 529 
3 438 530 528 
3 529 530 438 
3 439 506 441 
3 531 440 441 
3 531 442 440 
3 507 441 506 
3 508 532 441 
3 531 441 532 
3 533 443 442 
3 534 442 531 
3 534 533 442 
3 445 443 533 
3 535 444 445 
3 446 444 535 
3 536 535 445 
3 537 445 533 
3 536 445 537 
3 447 446 538 
3 535 538 446 
3 538 472 447 
3 448 455 449 
3 449 539 495 
3 539 449 455 
3 456 450 451 
3 451 453 456 
3 454 452 471 
3 453 540 456 
3 540 453 454 
3 471 540 454 
3 539 455 541 
3 541 455 458 
3 457 456 540 
3 542 457 540 
3 457 543 544 
3 544 458 457 
3 545 546 457 
3 457 542 545 
3 457 546 547 
3 543 457 547 
3 541 458 544 
3 459 468 469 
3 548 464 460 
3 462 549 460 
3 550 460 549 
3 548 460 550 
3 551 462 461 
3 551 461 492 
3 551 552 462 
3 549 462 552 
3 467 463 553 
3 553 463 464 
3 554 553 464 
3 554 464 548 
3 465 555 466 
3 465 556 555 
3 557 556 465 
3 558 557 465 
3 558 465 467 
3 466 469 468 
3 555 470 466 
3 558 467 553 
3 471 470 555 
3 542 471 559 
3 555 559 471 
3 540 471 542 
3 536 473 472 
3 536 472 538 
3 537 473 536 
3 560 473 537 
3 560 474 473 
3 474 560 476 
3 476 561 475 
3 475 561 488 
3 476 560 562 
3 563 564 476 
3 476 562 563 
3 561 476 564 
3 477 491 565 
3 565 478 477 
3 478 566 479 
3 567 566 478 
3 567 478 565 
3 480 479 568 
3 479 566 568 
3 480 569 486 
3 480 568 569 
3 493 481 570 
3 482 570 481 
3 571 570 482 
3 483 571 482 
3 484 571 483 
3 484 485 572 
3 573 571 484 
3 484 574 573 
3 572 574 484 
3 572 485 575 
3 575 485 486 
3 486 576 574 
3 574 575 486 
3 569 577 486 
3 486 577 576 
3 578 487 488 
3 487 578 490 
3 488 579 580 
3 488 561 579 
3 488 581 578 
3 581 488 580 
3 489 490 582 
3 582 491 489 
3 490 578 581 
3 490 581 582 
3 583 584 491 
3 491 582 583 
3 491 585 586 
3 584 585 491 
3 565 491 586 
3 494 551 492 
3 587 493 588 
3 588 493 570 
3 493 587 494 
3 551 494 587 
3 495 589 498 
3 589 495 539 
3 502 497 496 
3 590 496 591 
3 591 496 498 
3 502 496 590 
3 589 592 498 
3 498 592 593 
3 498 593 591 
3 500 499 594 
3 501 595 499 
3 499 595 596 
3 596 594 499 
3 500 594 529 
3 597 501 505 
3 597 595 501 
3 503 502 505 
3 502 590 505 
3 505 504 503 
3 598 505 590 
3 598 599 505 
3 599 597 505 
3 508 600 532 
3 508 510 517 
3 517 600 508 
3 510 509 511 
3 510 511 517 
3 513 601 602 
3 513 516 601 
3 602 518 513 
3 603 516 514 
3 604 514 515 
3 605 603 514 
3 605 514 604 
3 604 515 520 
3 603 601 516 
3 600 517 606 
3 606 517 519 
3 519 518 602 
3 606 519 602 
3 520 607 604 
3 520 525 608 
3 520 608 607 
3 521 522 609 
3 609 524 521 
3 522 526 610 
3 610 611 522 
3 611 609 522 
3 612 523 524 
3 608 523 612 
3 523 608 525 
3 524 613 612 
3 613 524 609 
3 614 610 526 
3 526 527 614 
3 615 616 527 
3 528 615 527 
3 614 527 617 
3 617 527 616 
3 615 528 530 
3 529 594 618 
3 529 619 530 
3 618 619 529 
3 530 620 615 
3 530 619 621 
3 620 530 621 
3 531 532 622 
3 534 531 622 
3 622 532 600 
3 537 533 534 
3 534 622 560 
3 537 534 560 
3 536 538 535 
3 541 623 539 
3 539 623 589 
3 544 624 541 
3 623 541 624 
3 559 545 542 
3 625 544 543 
3 626 625 543 
3 626 543 547 
3 627 628 544 
3 544 625 627 
3 628 624 544 
3 545 629 546 
3 629 545 559 
3 630 631 546 
3 547 546 631 
3 632 630 546 
3 546 629 632 
3 547 633 626 
3 633 547 634 
3 634 547 635 
3 631 635 547 
3 550 636 548 
3 636 637 548 
3 548 637 554 
3 549 638 550 
3 549 552 638 
3 639 550 638 
3 640 550 641 
3 640 636 550 
3 550 639 641 
3 552 551 587 
3 552 642 643 
3 644 642 552 
3 552 587 644 
3 638 552 643 
3 645 553 646 
3 647 648 553 
3 554 649 553 
3 650 558 553 
3 649 646 553 
3 553 648 650 
3 553 645 647 
3 651 554 637 
3 649 554 651 
3 556 559 555 
3 629 559 556 
3 629 556 557 
3 557 632 629 
3 558 632 557 
3 650 632 558 
3 560 622 652 
3 560 652 562 
3 653 561 564 
3 579 561 653 
3 602 562 606 
3 606 562 652 
3 563 562 602 
3 564 563 654 
3 655 656 563 
3 656 654 563 
3 602 655 563 
3 657 653 564 
3 564 658 657 
3 654 658 564 
3 659 660 565 
3 565 661 662 
3 565 662 567 
3 586 663 565 
3 663 659 565 
3 660 661 565 
3 568 566 577 
3 566 664 577 
3 665 566 567 
3 664 566 665 
3 662 665 567 
3 577 569 568 
3 570 666 588 
3 666 570 571 
3 666 571 573 
3 575 574 572 
3 573 574 667 
3 667 668 573 
3 573 668 666 
3 576 669 574 
3 669 667 574 
3 577 669 576 
3 670 669 577 
3 577 664 670 
3 580 579 653 
3 580 671 581 
3 580 672 673 
3 672 580 653 
3 673 671 580 
3 582 581 674 
3 674 581 671 
3 583 582 675 
3 674 676 582 
3 676 675 582 
3 583 677 584 
3 677 583 678 
3 678 583 679 
3 679 583 675 
3 584 677 585 
3 680 586 585 
3 585 677 680 
3 663 586 680 
3 587 588 644 
3 681 644 588 
3 588 666 681 
3 623 592 589 
3 591 682 590 
3 683 590 682 
3 598 590 684 
3 590 683 684 
3 591 593 685 
3 682 591 685 
3 592 686 593 
3 686 592 687 
3 592 623 687 
3 593 686 685 
3 618 594 596 
3 596 595 688 
3 597 688 595 
3 689 596 688 
3 596 690 691 
3 691 618 596 
3 690 596 689 
3 597 599 688 
3 599 598 692 
3 692 598 684 
3 688 599 693 
3 599 692 694 
3 599 694 693 
3 652 622 600 
3 652 600 606 
3 601 655 602 
3 655 601 656 
3 656 601 603 
3 603 605 695 
3 603 695 656 
3 605 604 696 
3 607 696 604 
3 697 605 696 
3 605 697 698 
3 605 698 695 
3 696 607 608 
3 609 608 613 
3 612 613 608 
3 699 608 609 
3 699 696 608 
3 700 699 609 
3 700 609 611 
3 611 610 614 
3 700 611 701 
3 611 614 701 
3 701 614 702 
3 617 703 614 
3 703 702 614 
3 616 615 704 
3 615 620 705 
3 615 705 706 
3 706 704 615 
3 704 617 616 
3 707 617 704 
3 707 703 617 
3 708 619 618 
3 618 691 708 
3 619 709 710 
3 619 708 709 
3 621 619 710 
3 705 620 621 
3 710 705 621 
3 623 624 687 
3 687 624 628 
3 627 625 626 
3 627 626 633 
3 711 628 627 
3 627 712 711 
3 712 627 713 
3 633 713 627 
3 687 628 711 
3 630 714 631 
3 715 714 630 
3 630 648 715 
3 632 648 630 
3 714 635 631 
3 648 632 650 
3 716 633 634 
3 716 713 633 
3 635 717 634 
3 634 717 716 
3 718 635 647 
3 714 647 635 
3 718 717 635 
3 651 637 636 
3 719 720 636 
3 720 651 636 
3 640 719 636 
3 638 721 639 
3 638 643 722 
3 638 722 721 
3 723 639 721 
3 639 723 724 
3 641 639 724 
3 725 640 641 
3 726 640 725 
3 726 727 640 
3 640 728 729 
3 728 640 730 
3 730 640 727 
3 729 719 640 
3 641 731 725 
3 724 732 641 
3 733 641 732 
3 733 731 641 
3 734 643 642 
3 681 734 642 
3 642 644 681 
3 734 722 643 
3 735 645 646 
3 645 736 647 
3 735 737 645 
3 645 738 736 
3 738 645 737 
3 646 739 735 
3 646 740 739 
3 741 646 649 
3 741 740 646 
3 647 715 648 
3 647 742 718 
3 715 647 714 
3 647 736 742 
3 743 741 649 
3 743 649 651 
3 744 743 651 
3 720 744 651 
3 657 745 653 
3 653 746 672 
3 653 745 746 
3 654 747 658 
3 695 654 656 
3 654 695 747 
3 745 657 658 
3 658 748 749 
3 658 747 748 
3 749 750 658 
3 745 658 750 
3 660 659 751 
3 663 752 659 
3 753 659 752 
3 659 753 751 
3 660 754 661 
3 754 660 755 
3 755 660 756 
3 756 660 751 
3 757 662 661 
3 661 758 757 
3 759 758 661 
3 661 754 759 
3 662 757 665 
3 680 752 663 
3 760 670 664 
3 665 760 664 
3 761 760 665 
3 665 757 761 
3 762 681 666 
3 666 668 762 
3 667 669 763 
3 667 763 764 
3 764 668 667 
3 765 668 764 
3 762 668 765 
3 669 766 763 
3 670 766 669 
3 766 670 760 
3 674 671 767 
3 767 671 768 
3 671 673 768 
3 672 769 673 
3 769 672 746 
3 769 770 673 
3 768 673 770 
3 767 676 674 
3 676 771 675 
3 675 771 772 
3 679 675 772 
3 771 676 767 
3 677 773 774 
3 677 678 775 
3 773 677 775 
3 677 774 680 
3 775 678 679 
3 776 679 772 
3 775 679 777 
3 777 679 776 
3 680 778 752 
3 779 680 774 
3 779 780 680 
3 680 780 778 
3 781 681 762 
3 681 781 782 
3 681 782 734 
3 682 685 783 
3 682 784 683 
3 682 783 785 
3 784 682 785 
3 683 784 684 
3 684 786 692 
3 684 690 786 
3 684 784 787 
3 690 684 788 
3 788 684 789 
3 789 684 787 
3 685 686 783 
3 790 686 687 
3 783 686 790 
3 711 791 687 
3 790 687 791 
3 688 792 689 
3 688 693 792 
3 792 793 689 
3 690 689 793 
3 794 691 690 
3 793 786 690 
3 795 690 796 
3 690 795 797 
3 788 796 690 
3 797 794 690 
3 709 708 691 
3 709 691 798 
3 798 691 794 
3 786 694 692 
3 793 792 693 
3 693 694 793 
3 694 786 793 
3 695 698 747 
3 697 696 699 
3 799 800 697 
3 697 800 698 
3 697 699 799 
3 698 800 801 
3 698 801 747 
3 699 700 799 
3 700 802 799 
3 700 803 802 
3 804 700 701 
3 803 700 804 
3 701 702 804 
3 702 703 804 
3 804 703 805 
3 703 707 805 
3 704 806 707 
3 807 704 706 
3 806 704 807 
3 808 706 705 
3 808 705 809 
3 710 809 705 
3 808 807 706 
3 806 810 707 
3 707 810 811 
3 707 811 805 
3 709 812 710 
3 812 709 798 
3 812 813 710 
3 710 813 809 
3 711 814 791 
3 711 815 814 
3 712 815 711 
3 816 712 817 
3 713 817 712 
3 816 815 712 
3 817 713 818 
3 716 818 713 
3 819 820 716 
3 717 819 716 
3 820 818 716 
3 819 717 821 
3 821 717 718 
3 718 742 821 
3 719 729 720 
3 822 744 720 
3 720 729 822 
3 823 721 722 
3 823 723 721 
3 824 722 734 
3 722 824 823 
3 825 723 823 
3 826 724 723 
3 825 826 723 
3 732 724 826 
3 725 827 726 
3 725 731 828 
3 828 829 725 
3 830 827 725 
3 829 830 725 
3 827 727 726 
3 727 831 730 
3 832 727 827 
3 832 831 727 
3 728 822 729 
3 833 728 730 
3 728 833 822 
3 833 730 834 
3 831 834 730 
3 835 731 733 
3 828 731 835 
3 826 836 732 
3 837 732 836 
3 837 733 732 
3 838 733 837 
3 839 835 733 
3 838 839 733 
3 782 824 734 
3 735 739 840 
3 735 840 841 
3 735 841 737 
3 842 742 736 
3 736 843 842 
3 738 843 736 
3 737 841 738 
3 738 841 844 
3 844 843 738 
3 739 740 845 
3 846 739 845 
3 739 846 840 
3 741 845 740 
3 845 741 847 
3 847 741 848 
3 848 741 743 
3 821 742 842 
3 848 743 744 
3 744 822 848 
3 750 849 745 
3 745 850 746 
3 850 745 849 
3 850 851 746 
3 746 851 769 
3 747 801 748 
3 748 852 749 
3 748 853 852 
3 801 853 748 
3 854 749 852 
3 854 750 749 
3 855 750 854 
3 849 750 855 
3 753 856 751 
3 751 856 756 
3 753 752 857 
3 857 752 778 
3 753 857 858 
3 858 859 753 
3 753 859 860 
3 860 856 753 
3 754 861 759 
3 755 861 754 
3 755 862 861 
3 863 862 755 
3 755 864 863 
3 756 864 755 
3 865 756 856 
3 866 756 865 
3 867 756 866 
3 864 756 867 
3 757 868 761 
3 758 868 757 
3 758 869 868 
3 870 869 758 
3 759 870 758 
3 861 870 759 
3 871 766 760 
3 760 872 871 
3 873 872 760 
3 761 873 760 
3 868 873 761 
3 762 874 875 
3 762 875 781 
3 876 874 762 
3 876 762 765 
3 763 766 764 
3 764 766 877 
3 764 878 765 
3 878 764 877 
3 869 879 765 
3 878 869 765 
3 876 765 879 
3 877 766 871 
3 771 767 880 
3 767 768 880 
3 881 880 768 
3 768 770 881 
3 882 770 769 
3 882 769 851 
3 881 770 882 
3 883 771 880 
3 884 771 883 
3 772 771 884 
3 772 884 885 
3 885 776 772 
3 773 886 774 
3 887 773 888 
3 773 775 888 
3 886 773 887 
3 889 774 886 
3 779 774 889 
3 777 888 775 
3 890 776 885 
3 891 777 776 
3 890 891 776 
3 777 891 888 
3 780 892 778 
3 858 778 893 
3 778 894 893 
3 894 778 892 
3 858 857 778 
3 889 895 779 
3 779 895 896 
3 779 897 780 
3 897 779 896 
3 780 897 898 
3 899 892 780 
3 898 899 780 
3 782 781 875 
3 900 824 782 
3 875 900 782 
3 785 783 901 
3 783 790 901 
3 784 785 902 
3 903 784 904 
3 787 784 903 
3 784 902 904 
3 905 785 901 
3 902 785 905 
3 787 906 907 
3 907 789 787 
3 903 906 787 
3 789 796 788 
3 796 789 908 
3 909 908 789 
3 910 909 789 
3 910 789 907 
3 911 790 814 
3 790 791 814 
3 790 911 901 
3 794 912 798 
3 797 912 794 
3 796 913 795 
3 797 795 913 
3 796 914 913 
3 914 796 908 
3 912 797 915 
3 915 797 916 
3 916 797 913 
3 813 798 917 
3 917 798 912 
3 812 798 813 
3 800 799 918 
3 799 802 919 
3 919 920 799 
3 920 918 799 
3 800 853 801 
3 853 800 918 
3 921 802 803 
3 919 802 921 
3 921 803 804 
3 804 805 922 
3 921 804 923 
3 924 804 922 
3 923 804 924 
3 805 925 922 
3 805 811 926 
3 805 926 925 
3 806 807 927 
3 927 810 806 
3 808 927 807 
3 809 928 808 
3 928 929 808 
3 808 929 930 
3 930 927 808 
3 813 928 809 
3 926 811 810 
3 810 931 926 
3 810 927 932 
3 932 931 810 
3 933 813 934 
3 935 934 813 
3 933 928 813 
3 813 917 935 
3 814 936 937 
3 815 936 814 
3 937 938 814 
3 814 938 911 
3 939 815 816 
3 936 815 939 
3 940 816 817 
3 939 816 940 
3 941 940 817 
3 817 818 942 
3 817 942 941 
3 942 818 943 
3 943 818 820 
3 820 819 944 
3 821 842 819 
3 944 819 945 
3 945 819 842 
3 944 943 820 
3 822 946 848 
3 822 833 947 
3 948 946 822 
3 822 947 948 
3 825 823 949 
3 949 823 824 
3 949 824 900 
3 826 825 836 
3 836 825 949 
3 832 827 950 
3 827 830 950 
3 951 952 828 
3 953 951 828 
3 835 953 828 
3 828 954 955 
3 828 955 829 
3 952 954 828 
3 829 956 830 
3 829 955 956 
3 950 830 956 
3 831 832 957 
3 958 959 831 
3 959 834 831 
3 958 831 960 
3 957 960 831 
3 961 957 832 
3 832 950 961 
3 962 947 833 
3 962 833 834 
3 963 834 964 
3 963 962 834 
3 834 959 964 
3 835 839 953 
3 965 836 949 
3 966 836 965 
3 966 837 836 
3 837 966 967 
3 967 838 837 
3 839 838 968 
3 968 838 967 
3 953 839 968 
3 969 841 840 
3 969 840 970 
3 840 971 970 
3 846 971 840 
3 844 841 969 
3 842 972 945 
3 843 972 842 
3 843 844 972 
3 972 844 973 
3 973 844 974 
3 970 974 844 
3 844 969 970 
3 845 971 846 
3 971 845 975 
3 847 975 845 
3 976 975 847 
3 976 847 977 
3 978 977 847 
3 978 847 848 
3 946 978 848 
3 849 855 979 
3 979 850 849 
3 980 851 850 
3 850 979 980 
3 851 980 882 
3 981 852 853 
3 852 981 854 
3 853 918 982 
3 981 853 983 
3 984 985 853 
3 853 982 984 
3 985 983 853 
3 983 854 981 
3 854 983 986 
3 854 986 855 
3 855 986 979 
3 856 860 865 
3 893 987 858 
3 988 859 858 
3 989 858 990 
3 989 988 858 
3 858 987 990 
3 859 991 860 
3 988 991 859 
3 860 992 865 
3 993 992 860 
3 993 860 991 
3 861 994 870 
3 862 994 861 
3 995 994 862 
3 996 862 863 
3 995 862 996 
3 864 996 863 
3 867 996 864 
3 992 997 865 
3 866 865 997 
3 997 867 866 
3 997 996 867 
3 869 873 868 
3 872 873 869 
3 869 878 872 
3 994 869 870 
3 998 869 995 
3 995 869 994 
3 879 869 998 
3 871 872 877 
3 877 872 878 
3 874 999 875 
3 999 874 965 
3 874 876 1000 
3 966 965 874 
3 966 874 1001 
3 1000 1001 874 
3 999 900 875 
3 1002 1000 876 
3 876 879 1003 
3 1003 1002 876 
3 1003 879 998 
3 880 881 883 
3 1004 883 881 
3 882 1004 881 
3 882 980 1005 
3 1006 1004 882 
3 882 1005 1007 
3 882 1007 1006 
3 883 1008 1009 
3 1010 1011 883 
3 883 1004 1006 
3 884 883 1012 
3 1009 1012 883 
3 883 1006 1010 
3 883 1011 1008 
3 884 1012 885 
3 1009 885 1012 
3 885 1009 890 
3 1013 886 887 
3 889 886 1013 
3 887 888 891 
3 1014 1013 887 
3 887 891 1015 
3 1015 1014 887 
3 889 1016 895 
3 1013 1016 889 
3 1017 890 1009 
3 1015 891 890 
3 1017 1018 890 
3 1019 890 1020 
3 1019 1021 890 
3 1022 1015 890 
3 1018 1023 890 
3 1021 1022 890 
3 1020 890 1023 
3 1024 894 892 
3 1024 892 899 
3 987 893 894 
3 1025 894 1024 
3 894 1025 987 
3 1026 895 1016 
3 896 895 1026 
3 1026 897 896 
3 1026 1027 897 
3 1028 898 897 
3 897 1027 1028 
3 1029 899 898 
3 898 1028 1029 
3 899 1029 1030 
3 1030 1024 899 
3 900 999 949 
3 938 901 911 
3 901 938 905 
3 1031 904 902 
3 1031 902 1032 
3 902 905 1032 
3 903 904 1033 
3 1034 1035 903 
3 903 1033 1034 
3 906 903 1036 
3 1036 903 1035 
3 904 1037 1038 
3 1038 1033 904 
3 904 1031 1037 
3 1039 1032 905 
3 938 937 905 
3 905 937 1039 
3 1040 907 906 
3 906 1036 1040 
3 910 907 1040 
3 908 909 1041 
3 908 1041 1042 
3 1042 914 908 
3 909 910 1043 
3 909 1043 1041 
3 1043 910 1040 
3 912 915 917 
3 913 1042 1044 
3 913 1045 916 
3 914 1042 913 
3 1044 1045 913 
3 935 917 915 
3 1046 935 915 
3 915 1047 1046 
3 1047 915 916 
3 1047 916 1048 
3 1048 916 1045 
3 920 982 918 
3 920 919 921 
3 921 982 920 
3 984 921 923 
3 921 984 982 
3 922 925 1049 
3 924 922 1049 
3 985 984 923 
3 923 924 1050 
3 923 1050 985 
3 1050 924 1051 
3 1051 924 1049 
3 1049 925 931 
3 925 926 931 
3 932 927 930 
3 928 933 929 
3 929 1052 930 
3 929 1053 1052 
3 933 1053 929 
3 932 930 1054 
3 1054 930 1052 
3 1049 931 1055 
3 932 1055 931 
3 1054 1055 932 
3 934 1053 933 
3 1056 1057 934 
3 1058 1053 934 
3 1058 934 1057 
3 934 935 1046 
3 1056 934 1046 
3 1039 937 936 
3 936 1059 1039 
3 939 1059 936 
3 939 940 1059 
3 1059 940 941 
3 1060 941 942 
3 941 1060 1059 
3 1061 942 943 
3 1062 1060 942 
3 942 1063 1062 
3 942 1061 1063 
3 1061 943 944 
3 944 945 1064 
3 1064 1061 944 
3 1064 945 972 
3 1065 978 946 
3 1066 1065 946 
3 1067 1066 946 
3 1067 946 948 
3 947 1068 948 
3 1068 947 962 
3 1067 948 1069 
3 1069 948 1068 
3 949 999 965 
3 1070 950 1071 
3 956 1072 950 
3 1072 1071 950 
3 961 950 1070 
3 951 1073 952 
3 968 951 953 
3 968 1073 951 
3 1074 952 1073 
3 952 1074 954 
3 954 1075 955 
3 954 1074 1075 
3 955 1076 956 
3 1076 955 1075 
3 1077 1078 956 
3 1078 1072 956 
3 956 1079 1077 
3 1076 1079 956 
3 961 1080 957 
3 1080 1081 957 
3 1081 1082 957 
3 1083 957 1082 
3 1083 960 957 
3 958 1084 959 
3 958 1085 1086 
3 1084 958 1086 
3 1085 958 960 
3 959 1084 964 
3 960 1087 1085 
3 960 1083 1087 
3 1070 1088 961 
3 961 1088 1080 
3 1068 962 1089 
3 963 1089 962 
3 964 1090 963 
3 1089 963 1090 
3 1090 964 1091 
3 1092 964 1084 
3 1092 1091 964 
3 1001 967 966 
3 1001 968 967 
3 1093 968 1001 
3 1093 1073 968 
3 974 970 1094 
3 1094 970 1095 
3 970 971 1095 
3 975 1095 971 
3 972 973 1064 
3 1064 973 1096 
3 1096 973 974 
3 1096 974 1097 
3 1097 974 1094 
3 1098 1095 975 
3 976 1098 975 
3 1099 1098 976 
3 1100 976 977 
3 1099 976 1100 
3 1100 977 978 
3 978 1065 1101 
3 1102 1100 978 
3 978 1101 1102 
3 979 986 1103 
3 980 979 1104 
3 1103 1104 979 
3 1005 980 1104 
3 986 983 1103 
3 1050 983 985 
3 1050 1103 983 
3 1105 990 987 
3 1105 987 1025 
3 988 1106 991 
3 1107 1108 988 
3 988 1108 1109 
3 988 1109 1106 
3 988 989 1107 
3 990 1110 989 
3 1111 989 1110 
3 1107 989 1111 
3 1112 990 1105 
3 1110 990 1112 
3 991 1106 993 
3 997 992 1113 
3 1113 992 993 
3 993 1114 1113 
3 993 1109 1114 
3 1106 1109 993 
3 1115 995 996 
3 998 995 1115 
3 997 1115 996 
3 1116 1115 997 
3 1113 1116 997 
3 1003 998 1117 
3 1117 998 1115 
3 1002 1001 1000 
3 1002 1118 1001 
3 1119 1093 1001 
3 1119 1001 1118 
3 1120 1002 1121 
3 1118 1002 1120 
3 1117 1002 1003 
3 1117 1121 1002 
3 1051 1005 1104 
3 1005 1051 1007 
3 1006 1057 1010 
3 1006 1058 1057 
3 1007 1058 1006 
3 1122 1007 1051 
3 1123 1058 1007 
3 1007 1122 1123 
3 1009 1008 1017 
3 1008 1011 1017 
3 1010 1057 1056 
3 1010 1056 1124 
3 1011 1010 1124 
3 1011 1125 1126 
3 1124 1125 1011 
3 1126 1017 1011 
3 1013 1014 1016 
3 1016 1014 1022 
3 1014 1015 1022 
3 1016 1022 1026 
3 1018 1017 1126 
3 1127 1023 1018 
3 1126 1128 1018 
3 1018 1128 1127 
3 1020 1129 1019 
3 1130 1019 1129 
3 1130 1021 1019 
3 1023 1129 1020 
3 1022 1021 1026 
3 1131 1132 1021 
3 1133 1026 1021 
3 1021 1132 1133 
3 1021 1130 1131 
3 1023 1127 1134 
3 1023 1135 1129 
3 1135 1023 1134 
3 1136 1025 1024 
3 1136 1024 1030 
3 1105 1025 1136 
3 1137 1027 1026 
3 1137 1026 1133 
3 1028 1027 1138 
3 1027 1139 1140 
3 1138 1027 1140 
3 1027 1137 1139 
3 1138 1029 1028 
3 1029 1138 1141 
3 1030 1029 1141 
3 1030 1105 1136 
3 1142 1105 1030 
3 1141 1143 1030 
3 1142 1030 1143 
3 1032 1144 1031 
3 1144 1037 1031 
3 1032 1039 1144 
3 1145 1033 1038 
3 1033 1145 1034 
3 1035 1034 1146 
3 1102 1034 1145 
3 1102 1146 1034 
3 1147 1036 1035 
3 1035 1148 1147 
3 1148 1035 1146 
3 1147 1149 1036 
3 1150 1040 1036 
3 1036 1149 1150 
3 1037 1151 1038 
3 1037 1144 1151 
3 1038 1151 1152 
3 1038 1153 1154 
3 1152 1153 1038 
3 1038 1154 1145 
3 1059 1144 1039 
3 1150 1155 1040 
3 1043 1040 1155 
3 1156 1042 1041 
3 1041 1043 1157 
3 1156 1041 1158 
3 1158 1041 1157 
3 1159 1042 1160 
3 1160 1042 1161 
3 1042 1156 1161 
3 1159 1044 1042 
3 1155 1157 1043 
3 1044 1159 1045 
3 1048 1045 1159 
3 1056 1046 1047 
3 1056 1047 1162 
3 1047 1048 1162 
3 1162 1048 1159 
3 1055 1122 1049 
3 1051 1049 1122 
3 1103 1050 1104 
3 1104 1050 1051 
3 1058 1052 1053 
3 1054 1052 1058 
3 1058 1123 1054 
3 1055 1054 1122 
3 1054 1123 1122 
3 1162 1163 1056 
3 1124 1056 1164 
3 1163 1164 1056 
3 1144 1059 1060 
3 1060 1062 1144 
3 1165 1061 1166 
3 1165 1063 1061 
3 1166 1061 1064 
3 1063 1167 1062 
3 1062 1167 1151 
3 1151 1144 1062 
3 1063 1165 1167 
3 1166 1064 1096 
3 1148 1101 1065 
3 1148 1065 1066 
3 1148 1066 1149 
3 1149 1066 1067 
3 1149 1067 1168 
3 1069 1169 1067 
3 1168 1067 1169 
3 1170 1068 1089 
3 1069 1068 1170 
3 1169 1069 1171 
3 1170 1171 1069 
3 1071 1172 1070 
3 1070 1173 1174 
3 1070 1174 1088 
3 1172 1173 1070 
3 1071 1175 1172 
3 1078 1071 1072 
3 1078 1176 1071 
3 1176 1175 1071 
3 1073 1093 1177 
3 1177 1074 1073 
3 1075 1074 1178 
3 1074 1177 1178 
3 1178 1179 1075 
3 1075 1180 1076 
3 1075 1179 1180 
3 1180 1079 1076 
3 1078 1077 1176 
3 1079 1181 1077 
3 1077 1181 1182 
3 1077 1182 1176 
3 1180 1181 1079 
3 1080 1088 1174 
3 1080 1183 1081 
3 1174 1183 1080 
3 1184 1081 1183 
3 1082 1081 1184 
3 1082 1185 1083 
3 1184 1186 1082 
3 1082 1186 1187 
3 1082 1187 1185 
3 1188 1087 1083 
3 1185 1189 1083 
3 1083 1189 1188 
3 1086 1092 1084 
3 1086 1085 1190 
3 1191 1085 1087 
3 1190 1085 1191 
3 1092 1086 1192 
3 1192 1086 1193 
3 1194 1086 1190 
3 1193 1086 1194 
3 1191 1087 1188 
3 1089 1090 1170 
3 1195 1196 1090 
3 1197 1170 1090 
3 1090 1196 1197 
3 1090 1198 1195 
3 1199 1198 1090 
3 1199 1090 1091 
3 1091 1200 1199 
3 1091 1192 1201 
3 1200 1091 1201 
3 1092 1192 1091 
3 1202 1177 1093 
3 1093 1119 1202 
3 1094 1203 1097 
3 1203 1094 1204 
3 1098 1094 1095 
3 1204 1094 1098 
3 1166 1096 1165 
3 1165 1096 1097 
3 1152 1097 1153 
3 1165 1097 1152 
3 1153 1097 1203 
3 1099 1204 1098 
3 1205 1204 1099 
3 1205 1099 1206 
3 1206 1099 1100 
3 1102 1206 1100 
3 1146 1102 1101 
3 1148 1146 1101 
3 1145 1206 1102 
3 1142 1112 1105 
3 1107 1207 1108 
3 1111 1207 1107 
3 1114 1109 1108 
3 1108 1208 1209 
3 1108 1207 1208 
3 1209 1114 1108 
3 1110 1210 1211 
3 1110 1211 1207 
3 1110 1207 1111 
3 1112 1210 1110 
3 1210 1112 1142 
3 1212 1116 1113 
3 1209 1212 1113 
3 1113 1114 1209 
3 1117 1115 1116 
3 1212 1117 1116 
3 1212 1121 1117 
3 1213 1119 1118 
3 1118 1214 1213 
3 1120 1214 1118 
3 1213 1215 1119 
3 1215 1202 1119 
3 1214 1120 1121 
3 1214 1121 1213 
3 1121 1212 1213 
3 1125 1124 1164 
3 1125 1164 1216 
3 1217 1126 1125 
3 1218 1217 1125 
3 1218 1125 1216 
3 1128 1126 1217 
3 1217 1218 1127 
3 1127 1128 1217 
3 1134 1127 1218 
3 1129 1135 1219 
3 1129 1219 1130 
3 1130 1220 1221 
3 1222 1130 1221 
3 1222 1131 1130 
3 1220 1130 1219 
3 1132 1131 1222 
3 1223 1133 1132 
3 1223 1132 1222 
3 1224 1133 1223 
3 1137 1133 1224 
3 1134 1225 1135 
3 1134 1218 1226 
3 1134 1227 1225 
3 1134 1226 1227 
3 1225 1228 1135 
3 1228 1219 1135 
3 1137 1224 1139 
3 1229 1230 1138 
3 1138 1140 1229 
3 1141 1138 1230 
3 1231 1140 1139 
3 1232 1139 1233 
3 1139 1224 1233 
3 1231 1139 1232 
3 1229 1140 1234 
3 1231 1234 1140 
3 1230 1235 1141 
3 1141 1235 1143 
3 1236 1210 1142 
3 1236 1142 1143 
3 1143 1237 1236 
3 1235 1237 1143 
3 1154 1205 1145 
3 1145 1205 1206 
3 1149 1147 1148 
3 1168 1238 1149 
3 1149 1238 1150 
3 1155 1150 1239 
3 1239 1150 1238 
3 1151 1167 1152 
3 1152 1167 1165 
3 1154 1153 1203 
3 1154 1204 1205 
3 1203 1204 1154 
3 1155 1239 1240 
3 1241 1157 1155 
3 1240 1241 1155 
3 1156 1242 1161 
3 1242 1156 1158 
3 1157 1241 1158 
3 1158 1241 1243 
3 1242 1158 1244 
3 1243 1244 1158 
3 1159 1160 1245 
3 1162 1159 1245 
3 1246 1160 1161 
3 1245 1160 1246 
3 1161 1247 1246 
3 1248 1161 1242 
3 1161 1248 1247 
3 1163 1162 1245 
3 1216 1164 1163 
3 1245 1249 1163 
3 1163 1249 1216 
3 1250 1238 1168 
3 1171 1250 1168 
3 1171 1168 1169 
3 1251 1171 1170 
3 1170 1252 1251 
3 1170 1197 1252 
3 1171 1243 1250 
3 1171 1251 1243 
3 1253 1172 1175 
3 1172 1254 1173 
3 1253 1254 1172 
3 1173 1255 1174 
3 1173 1254 1255 
3 1255 1183 1174 
3 1253 1175 1256 
3 1182 1175 1176 
3 1256 1175 1182 
3 1257 1177 1202 
3 1257 1178 1177 
3 1178 1257 1179 
3 1180 1179 1258 
3 1179 1257 1258 
3 1258 1181 1180 
3 1259 1260 1181 
3 1181 1260 1256 
3 1181 1256 1182 
3 1258 1259 1181 
3 1255 1184 1183 
3 1261 1184 1255 
3 1261 1186 1184 
3 1187 1189 1185 
3 1262 1186 1261 
3 1263 1187 1186 
3 1263 1186 1262 
3 1264 1187 1263 
3 1264 1189 1187 
3 1265 1191 1188 
3 1189 1265 1188 
3 1265 1189 1264 
3 1266 1190 1191 
3 1194 1190 1266 
3 1266 1191 1265 
3 1201 1192 1267 
3 1268 1192 1193 
3 1267 1192 1268 
3 1269 1193 1194 
3 1268 1193 1269 
3 1270 1194 1266 
3 1269 1194 1270 
3 1195 1271 1196 
3 1271 1195 1198 
3 1272 1196 1273 
3 1196 1272 1197 
3 1273 1196 1274 
3 1196 1271 1274 
