NORM_ASCII
1769 3534
3 206 203 257 
3 204 258 203 
3 203 258 257 
3 256 258 204 
3 259 205 206 
3 220 205 259 
3 257 259 206 
3 207 208 260 
3 261 209 207 
3 261 207 260 
3 260 208 235 
3 210 209 261 
3 262 252 210 
3 262 210 261 
3 263 211 264 
3 212 211 263 
3 211 221 264 
3 212 263 213 
3 218 213 265 
3 213 263 266 
3 213 266 265 
3 216 267 214 
3 231 214 267 
3 268 216 215 
3 268 215 217 
3 269 267 216 
3 216 268 269 
3 270 271 217 
3 272 273 217 
3 268 217 271 
3 270 217 273 
3 219 272 217 
3 272 219 218 
3 265 274 218 
3 275 218 274 
3 272 218 275 
3 222 220 276 
3 220 259 277 
3 277 278 220 
3 278 279 220 
3 276 220 279 
3 276 221 222 
3 276 264 221 
3 225 223 240 
3 240 223 280 
3 224 280 223 
3 228 281 224 
3 281 280 224 
3 282 229 226 
3 283 226 233 
3 282 226 283 
3 228 227 281 
3 281 227 284 
3 227 229 285 
3 227 285 284 
3 286 285 229 
3 229 282 286 
3 230 231 287 
3 288 230 289 
3 230 287 290 
3 230 290 289 
3 288 232 230 
3 291 292 231 
3 287 231 292 
3 291 231 267 
3 233 232 288 
3 233 288 283 
3 293 235 234 
3 234 294 293 
3 236 294 234 
3 260 235 293 
3 294 236 237 
3 237 242 295 
3 237 295 294 
3 238 296 239 
3 297 296 238 
3 238 240 284 
3 238 284 298 
3 298 297 238 
3 248 239 296 
3 281 284 240 
3 240 280 281 
3 244 242 241 
3 299 242 300 
3 295 242 299 
3 300 242 244 
3 244 243 245 
3 301 300 244 
3 302 244 303 
3 245 303 244 
3 304 301 244 
3 304 244 302 
3 247 303 245 
3 246 305 247 
3 251 306 246 
3 306 305 246 
3 247 307 308 
3 307 247 305 
3 308 303 247 
3 309 248 296 
3 248 309 249 
3 249 309 310 
3 249 311 312 
3 249 310 311 
3 313 250 249 
3 312 313 249 
3 251 250 314 
3 314 250 313 
3 315 251 314 
3 306 251 315 
3 316 253 252 
3 262 316 252 
3 254 253 316 
3 316 255 254 
3 317 256 255 
3 255 318 317 
3 319 255 316 
3 318 255 319 
3 317 320 256 
3 258 256 320 
3 257 321 259 
3 257 322 321 
3 258 322 257 
3 322 258 323 
3 258 320 323 
3 259 321 324 
3 259 324 277 
3 325 260 293 
3 325 326 260 
3 326 261 260 
3 326 262 261 
3 262 319 316 
3 319 262 318 
3 262 326 318 
3 327 263 264 
3 327 266 263 
3 264 328 327 
3 328 264 276 
3 266 329 265 
3 265 329 274 
3 327 329 266 
3 267 269 291 
3 330 269 268 
3 330 268 271 
3 291 269 330 
3 331 271 270 
3 273 275 270 
3 332 270 333 
3 270 275 333 
3 331 270 332 
3 331 334 271 
3 330 271 334 
3 275 273 272 
3 274 329 335 
3 336 275 274 
3 337 336 274 
3 274 335 337 
3 338 275 336 
3 338 333 275 
3 276 279 339 
3 339 340 276 
3 328 276 340 
3 277 341 278 
3 324 342 277 
3 342 343 277 
3 277 343 341 
3 344 278 341 
3 279 278 344 
3 279 345 339 
3 345 279 346 
3 344 346 279 
3 347 282 283 
3 282 348 349 
3 282 347 348 
3 349 286 282 
3 350 347 283 
3 283 288 351 
3 283 351 350 
3 284 285 352 
3 298 284 352 
3 285 286 352 
3 352 286 297 
3 353 297 286 
3 286 349 353 
3 292 290 287 
3 288 289 354 
3 351 288 354 
3 289 290 292 
3 289 292 355 
3 356 289 357 
3 354 289 356 
3 355 357 289 
3 291 358 292 
3 359 360 291 
3 359 291 330 
3 360 358 291 
3 355 292 358 
3 293 294 299 
3 299 325 293 
3 299 294 295 
3 296 297 361 
3 296 361 362 
3 309 296 362 
3 297 353 361 
3 298 352 297 
3 363 299 300 
3 299 364 318 
3 318 325 299 
3 363 364 299 
3 365 363 300 
3 365 300 301 
3 301 366 365 
3 366 301 304 
3 302 303 308 
3 302 367 368 
3 302 369 304 
3 368 369 302 
3 308 370 302 
3 367 302 370 
3 304 369 366 
3 307 305 306 
3 315 307 306 
3 370 308 307 
3 371 307 315 
3 370 307 371 
3 372 309 362 
3 310 309 372 
3 373 374 310 
3 310 372 373 
3 374 311 310 
3 312 311 374 
3 312 375 313 
3 375 312 376 
3 377 376 312 
3 312 374 377 
3 313 378 314 
3 378 313 375 
3 378 315 314 
3 315 379 371 
3 378 380 315 
3 379 315 380 
3 317 318 364 
3 364 381 317 
3 381 320 317 
3 318 326 325 
3 382 320 381 
3 320 382 323 
3 321 342 324 
3 342 321 322 
3 342 322 383 
3 383 322 323 
3 323 384 383 
3 323 382 384 
3 335 329 327 
3 327 328 385 
3 386 327 385 
3 335 327 386 
3 340 385 328 
3 330 334 359 
3 387 334 331 
3 388 387 331 
3 332 388 331 
3 333 389 332 
3 390 391 332 
3 392 388 332 
3 332 389 390 
3 391 392 332 
3 338 389 333 
3 393 359 334 
3 334 387 393 
3 337 335 394 
3 394 335 386 
3 394 395 336 
3 336 337 394 
3 336 396 338 
3 396 336 397 
3 336 395 397 
3 389 338 398 
3 338 399 400 
3 396 401 338 
3 398 338 400 
3 399 338 401 
3 339 345 402 
3 403 339 402 
3 403 340 339 
3 404 340 403 
3 385 340 404 
3 343 405 341 
3 341 405 406 
3 341 406 344 
3 343 342 407 
3 407 342 383 
3 407 405 343 
3 408 344 406 
3 344 408 346 
3 346 409 345 
3 402 345 409 
3 408 410 346 
3 346 410 411 
3 346 411 409 
3 348 347 350 
3 412 349 348 
3 412 348 350 
3 412 353 349 
3 351 413 350 
3 350 413 414 
3 350 414 412 
3 351 415 413 
3 354 416 351 
3 416 415 351 
3 412 361 353 
3 356 417 354 
3 416 354 417 
3 418 357 355 
3 418 355 419 
3 355 358 419 
3 357 420 356 
3 417 356 421 
3 421 356 420 
3 357 418 420 
3 360 422 358 
3 358 422 423 
3 358 423 419 
3 393 360 359 
3 360 393 424 
3 424 422 360 
3 362 361 412 
3 362 412 372 
3 363 365 364 
3 365 381 364 
3 381 365 382 
3 366 382 365 
3 369 382 366 
3 368 367 425 
3 425 367 370 
3 426 368 425 
3 369 368 426 
3 384 369 427 
3 384 382 369 
3 427 369 426 
3 370 428 429 
3 428 370 430 
3 429 425 370 
3 370 379 430 
3 379 370 371 
3 414 431 372 
3 431 373 372 
3 372 412 414 
3 374 373 432 
3 431 433 373 
3 433 432 373 
3 434 374 432 
3 435 436 374 
3 435 374 434 
3 377 374 436 
3 375 376 437 
3 438 378 375 
3 375 439 438 
3 439 375 437 
3 437 376 440 
3 440 376 377 
3 377 436 441 
3 441 442 377 
3 440 377 442 
3 443 380 378 
3 443 378 438 
3 444 379 380 
3 430 379 444 
3 444 380 445 
3 380 443 445 
3 383 427 446 
3 383 384 427 
3 383 446 447 
3 383 447 405 
3 405 407 383 
3 386 385 448 
3 448 385 404 
3 449 395 386 
3 395 394 386 
3 386 448 449 
3 450 387 388 
3 451 393 387 
3 387 450 451 
3 388 392 450 
3 390 389 398 
3 391 390 400 
3 400 390 398 
3 400 452 391 
3 453 391 452 
3 454 392 391 
3 454 391 453 
3 454 450 392 
3 455 456 393 
3 457 424 393 
3 456 457 393 
3 451 455 393 
3 397 395 449 
3 396 458 459 
3 397 458 396 
3 460 396 459 
3 396 460 401 
3 397 449 458 
3 400 399 461 
3 462 399 401 
3 463 399 462 
3 463 461 399 
3 464 400 461 
3 452 400 464 
3 401 460 462 
3 465 466 402 
3 411 410 402 
3 465 402 467 
3 403 402 466 
3 409 411 402 
3 402 410 467 
3 466 468 403 
3 448 404 403 
3 448 403 469 
3 470 469 403 
3 468 470 403 
3 405 447 408 
3 406 405 408 
3 447 410 408 
3 471 410 447 
3 471 467 410 
3 413 472 414 
3 473 413 415 
3 473 472 413 
3 431 414 472 
3 415 474 473 
3 416 474 415 
3 417 474 416 
3 421 474 417 
3 418 475 476 
3 420 418 477 
3 418 419 475 
3 476 477 418 
3 419 423 478 
3 419 478 475 
3 420 479 421 
3 477 479 420 
3 421 479 480 
3 421 481 474 
3 480 481 421 
3 422 424 423 
3 423 424 482 
3 423 482 478 
3 482 424 457 
3 425 483 484 
3 484 426 425 
3 483 425 429 
3 485 426 486 
3 426 487 486 
3 427 426 488 
3 489 426 484 
3 488 426 485 
3 489 487 426 
3 427 490 446 
3 488 490 427 
3 491 429 428 
3 491 428 492 
3 493 428 430 
3 428 493 494 
3 428 494 492 
3 495 483 429 
3 495 429 496 
3 496 429 491 
3 430 444 493 
3 433 431 497 
3 472 497 431 
3 498 432 433 
3 498 499 432 
3 432 499 434 
3 500 498 433 
3 433 501 500 
3 497 502 433 
3 433 502 501 
3 434 503 435 
3 503 434 499 
3 436 435 504 
3 435 503 504 
3 436 504 505 
3 441 436 506 
3 505 506 436 
3 439 437 440 
3 438 439 507 
3 438 507 508 
3 438 509 443 
3 438 508 509 
3 440 442 439 
3 510 507 439 
3 439 442 511 
3 510 439 511 
3 441 506 512 
3 442 441 513 
3 441 512 513 
3 514 442 515 
3 442 514 511 
3 515 442 513 
3 509 445 443 
3 516 444 445 
3 493 444 517 
3 517 444 516 
3 516 445 508 
3 445 509 508 
3 446 471 447 
3 490 471 446 
3 448 469 518 
3 518 519 448 
3 449 448 520 
3 520 448 519 
3 520 459 449 
3 458 449 459 
3 454 451 450 
3 521 451 454 
3 522 451 521 
3 455 451 522 
3 523 452 524 
3 452 525 526 
3 452 526 453 
3 452 464 524 
3 525 452 523 
3 453 526 454 
3 527 454 526 
3 527 521 454 
3 528 456 455 
3 455 527 528 
3 455 522 527 
3 529 530 456 
3 457 456 530 
3 456 528 529 
3 531 482 457 
3 530 531 457 
3 520 532 459 
3 459 533 460 
3 533 459 532 
3 534 462 460 
3 460 533 534 
3 461 524 464 
3 535 461 463 
3 524 461 535 
3 462 536 463 
3 462 534 536 
3 535 463 536 
3 488 485 465 
3 485 537 465 
3 488 465 467 
3 465 537 466 
3 468 466 537 
3 467 490 488 
3 467 471 490 
3 538 470 468 
3 537 538 468 
3 469 539 518 
3 469 540 539 
3 470 540 469 
3 470 541 540 
3 538 541 470 
3 497 472 542 
3 542 472 473 
3 473 481 542 
3 474 481 473 
3 476 475 543 
3 475 478 544 
3 475 544 545 
3 545 543 475 
3 476 546 477 
3 476 547 546 
3 543 547 476 
3 477 546 479 
3 478 482 531 
3 478 531 548 
3 478 548 544 
3 479 546 480 
3 480 546 549 
3 480 550 481 
3 549 550 480 
3 550 497 481 
3 542 481 497 
3 483 551 484 
3 551 483 552 
3 553 552 483 
3 495 553 483 
3 484 554 489 
3 554 484 551 
3 486 555 485 
3 555 556 485 
3 485 556 537 
3 557 555 486 
3 557 486 487 
3 558 487 489 
3 487 559 557 
3 559 487 558 
3 489 554 558 
3 491 560 496 
3 561 560 491 
3 562 561 491 
3 562 491 492 
3 492 494 562 
3 494 493 563 
3 564 563 493 
3 564 493 517 
3 565 494 563 
3 494 565 562 
3 496 566 495 
3 567 553 495 
3 495 566 567 
3 560 566 496 
3 550 502 497 
3 499 498 568 
3 500 568 498 
3 499 569 503 
3 499 568 569 
3 501 570 500 
3 570 568 500 
3 547 571 501 
3 547 501 572 
3 570 501 571 
3 572 501 502 
3 549 502 550 
3 572 502 549 
3 504 503 569 
3 504 573 505 
3 574 573 504 
3 504 569 574 
3 575 505 573 
3 506 505 575 
3 576 512 506 
3 575 576 506 
3 577 507 510 
3 507 577 508 
3 578 516 508 
3 508 579 578 
3 579 508 580 
3 581 508 577 
3 508 581 582 
3 582 580 508 
3 583 510 511 
3 510 583 577 
3 584 583 511 
3 511 514 585 
3 511 585 584 
3 512 576 586 
3 586 513 512 
3 587 513 586 
3 513 587 515 
3 514 515 588 
3 514 588 589 
3 590 585 514 
3 589 590 514 
3 588 515 587 
3 578 517 516 
3 517 578 564 
3 518 539 519 
3 519 539 591 
3 592 520 519 
3 592 519 591 
3 520 592 532 
3 522 521 527 
3 524 593 523 
3 594 523 593 
3 525 523 594 
3 524 595 593 
3 524 535 595 
3 525 596 526 
3 525 597 596 
3 594 597 525 
3 526 598 527 
3 526 599 598 
3 596 599 526 
3 528 527 600 
3 601 600 527 
3 527 598 601 
3 528 602 573 
3 573 603 528 
3 529 528 603 
3 600 602 528 
3 530 529 603 
3 604 530 574 
3 574 530 603 
3 604 531 530 
3 605 548 531 
3 605 531 604 
3 606 532 607 
3 532 534 533 
3 607 532 592 
3 534 532 606 
3 534 606 608 
3 609 534 608 
3 536 534 609 
3 610 595 535 
3 535 536 611 
3 535 611 610 
3 609 612 536 
3 612 613 536 
3 611 536 613 
3 556 538 537 
3 556 614 538 
3 538 614 541 
3 615 539 540 
3 591 539 615 
3 616 540 541 
3 615 540 616 
3 557 541 614 
3 616 541 557 
3 543 545 547 
3 544 617 618 
3 618 545 544 
3 617 544 548 
3 545 618 571 
3 547 545 571 
3 546 547 549 
3 549 547 572 
3 617 548 619 
3 619 548 605 
3 551 620 621 
3 558 554 551 
3 622 623 551 
3 551 552 624 
3 620 551 623 
3 624 622 551 
3 551 621 558 
3 552 553 624 
3 624 553 567 
3 555 614 556 
3 555 557 614 
3 557 559 616 
3 625 558 621 
3 558 625 559 
3 616 559 626 
3 626 559 625 
3 627 566 560 
3 560 561 627 
3 627 561 562 
3 628 627 562 
3 562 629 628 
3 562 565 630 
3 629 562 630 
3 630 563 564 
3 630 565 563 
3 630 564 631 
3 578 631 564 
3 632 567 566 
3 632 566 627 
3 567 633 622 
3 567 622 624 
3 633 567 632 
3 634 568 570 
3 634 569 568 
3 569 634 574 
3 570 617 619 
3 571 617 570 
3 619 634 570 
3 618 617 571 
3 574 603 573 
3 602 575 573 
3 574 605 604 
3 605 574 634 
3 602 576 575 
3 635 576 602 
3 586 576 635 
3 577 583 581 
3 636 578 637 
3 637 578 579 
3 631 578 636 
3 579 580 637 
3 580 638 637 
3 638 580 582 
3 583 639 581 
3 582 581 640 
3 581 639 641 
3 640 581 642 
3 642 581 641 
3 643 638 582 
3 643 582 640 
3 584 639 583 
3 644 639 584 
3 584 585 590 
3 644 584 590 
3 586 645 587 
3 646 586 647 
3 645 586 646 
3 586 635 648 
3 648 647 586 
3 587 649 588 
3 649 587 645 
3 650 588 649 
3 589 588 650 
3 651 590 589 
3 651 589 650 
3 590 651 644 
3 607 592 591 
3 591 652 607 
3 591 615 652 
3 610 593 595 
3 593 610 594 
3 653 597 594 
3 594 654 653 
3 594 610 655 
3 594 655 656 
3 656 654 594 
3 657 599 596 
3 658 657 596 
3 596 597 659 
3 596 659 658 
3 653 660 597 
3 597 660 659 
3 661 601 598 
3 598 599 661 
3 657 661 599 
3 600 662 602 
3 663 662 600 
3 600 601 663 
3 663 601 661 
3 602 664 635 
3 664 602 662 
3 634 619 605 
3 665 606 607 
3 608 606 665 
3 652 666 607 
3 607 666 667 
3 607 667 665 
3 609 608 668 
3 608 665 668 
3 668 612 609 
3 610 611 669 
3 669 670 610 
3 610 670 655 
3 669 611 613 
3 612 668 671 
3 671 672 612 
3 612 672 673 
3 673 613 612 
3 674 613 673 
3 669 613 674 
3 615 616 652 
3 652 616 675 
3 616 626 675 
3 621 620 667 
3 620 676 667 
3 668 676 620 
3 620 623 668 
3 621 667 625 
3 622 677 623 
3 633 678 622 
3 678 677 622 
3 668 623 677 
3 625 667 666 
3 625 666 626 
3 626 666 675 
3 679 632 627 
3 628 679 627 
3 628 680 679 
3 681 682 628 
3 628 682 680 
3 681 628 683 
3 628 629 684 
3 684 683 628 
3 685 629 686 
3 629 630 687 
3 687 686 629 
3 629 688 684 
3 688 629 685 
3 687 630 631 
3 631 689 687 
3 636 689 631 
3 690 633 632 
3 632 691 690 
3 632 679 691 
3 690 678 633 
3 635 664 648 
3 637 692 636 
3 693 636 692 
3 636 693 689 
3 637 694 692 
3 695 637 696 
3 694 637 695 
3 637 638 697 
3 696 637 697 
3 643 697 638 
3 641 639 698 
3 639 644 698 
3 699 640 700 
3 640 642 700 
3 640 699 701 
3 640 701 643 
3 698 702 641 
3 642 641 703 
3 703 641 702 
3 642 704 700 
3 704 642 703 
3 643 701 696 
3 697 643 696 
3 644 705 706 
3 706 698 644 
3 644 651 705 
3 646 707 645 
3 708 649 645 
3 709 645 707 
3 709 708 645 
3 646 647 710 
3 711 712 646 
3 707 646 712 
3 713 711 646 
3 646 710 713 
3 647 648 714 
3 647 714 710 
3 715 648 664 
3 648 715 714 
3 716 649 708 
3 649 716 650 
3 650 716 651 
3 717 651 718 
3 651 717 705 
3 716 718 651 
3 675 666 652 
3 653 654 719 
3 719 720 653 
3 653 720 660 
3 656 721 654 
3 721 722 654 
3 722 719 654 
3 655 723 724 
3 655 724 721 
3 655 721 656 
3 655 670 725 
3 723 655 725 
3 726 661 657 
3 657 658 727 
3 727 728 657 
3 657 728 726 
3 658 729 727 
3 658 659 730 
3 729 658 730 
3 659 660 720 
3 730 659 720 
3 661 731 664 
3 661 664 663 
3 731 661 732 
3 726 732 661 
3 662 663 664 
3 715 664 731 
3 665 667 676 
3 665 676 668 
3 733 734 668 
3 668 677 733 
3 671 668 734 
3 735 670 669 
3 669 674 735 
3 736 670 735 
3 725 670 736 
3 737 671 738 
3 671 734 738 
3 737 672 671 
3 672 674 673 
3 737 739 672 
3 674 672 739 
3 739 735 674 
3 678 690 677 
3 733 677 690 
3 740 691 679 
3 680 741 679 
3 741 740 679 
3 741 680 742 
3 742 680 682 
3 681 743 682 
3 744 745 681 
3 681 683 744 
3 745 743 681 
3 742 682 746 
3 743 746 682 
3 683 747 744 
3 683 684 747 
3 748 684 688 
3 747 684 748 
3 685 686 749 
3 750 685 751 
3 749 751 685 
3 685 750 688 
3 687 752 686 
3 753 754 686 
3 749 686 754 
3 686 752 755 
3 753 686 755 
3 752 687 689 
3 756 748 688 
3 688 750 756 
3 755 689 693 
3 755 752 689 
3 691 733 690 
3 691 757 734 
3 734 733 691 
3 757 691 758 
3 758 691 740 
3 693 692 759 
3 692 694 759 
3 759 755 693 
3 759 694 760 
3 760 694 695 
3 696 761 695 
3 695 761 762 
3 760 695 762 
3 763 761 696 
3 696 701 764 
3 763 696 764 
3 702 698 706 
3 765 699 700 
3 766 699 765 
3 766 701 699 
3 704 767 700 
3 768 700 767 
3 768 765 700 
3 701 766 764 
3 703 702 769 
3 702 770 769 
3 702 706 770 
3 769 771 703 
3 704 703 771 
3 771 767 704 
3 706 705 772 
3 705 773 772 
3 705 717 773 
3 770 706 772 
3 712 774 707 
3 707 774 709 
3 709 775 708 
3 708 775 776 
3 708 776 777 
3 716 708 777 
3 775 709 778 
3 779 709 774 
3 709 779 778 
3 710 714 780 
3 710 781 782 
3 780 781 710 
3 713 710 782 
3 711 783 712 
3 784 711 713 
3 784 783 711 
3 783 774 712 
3 713 785 786 
3 782 785 713 
3 787 713 786 
3 713 787 784 
3 731 714 715 
3 731 732 714 
3 714 788 780 
3 732 788 714 
3 789 716 777 
3 790 718 716 
3 790 716 789 
3 717 718 791 
3 791 792 717 
3 773 717 792 
3 793 718 790 
3 718 793 791 
3 720 719 730 
3 730 719 794 
3 719 722 794 
3 722 721 724 
3 795 722 724 
3 794 722 795 
3 723 796 724 
3 725 796 723 
3 724 796 795 
3 797 725 736 
3 725 798 799 
3 798 725 797 
3 725 795 796 
3 799 795 725 
3 726 800 732 
3 800 726 728 
3 727 801 728 
3 801 727 729 
3 728 802 800 
3 803 728 801 
3 728 803 802 
3 729 804 805 
3 804 729 730 
3 805 801 729 
3 806 804 730 
3 730 799 806 
3 730 794 799 
3 732 800 788 
3 738 734 807 
3 734 757 807 
3 739 808 735 
3 735 808 736 
3 736 809 797 
3 736 808 809 
3 738 807 737 
3 810 811 737 
3 737 811 812 
3 812 813 737 
3 739 737 813 
3 810 737 807 
3 813 808 739 
3 740 742 814 
3 758 740 815 
3 742 740 741 
3 814 816 740 
3 815 740 816 
3 742 817 814 
3 746 817 742 
3 818 746 743 
3 743 819 818 
3 745 819 743 
3 820 745 744 
3 744 821 820 
3 821 744 822 
3 822 744 747 
3 823 819 745 
3 745 824 823 
3 824 745 820 
3 746 825 817 
3 818 825 746 
3 747 748 826 
3 826 827 747 
3 822 747 827 
3 826 748 756 
3 749 754 751 
3 750 751 828 
3 750 829 756 
3 828 829 750 
3 754 830 751 
3 828 751 830 
3 830 754 753 
3 831 753 832 
3 753 833 834 
3 831 833 753 
3 832 753 835 
3 834 830 753 
3 755 835 753 
3 759 836 755 
3 835 755 836 
3 837 826 756 
3 829 828 756 
3 756 828 834 
3 838 756 839 
3 838 840 756 
3 834 839 756 
3 837 756 840 
3 758 807 757 
3 841 807 758 
3 758 842 841 
3 815 842 758 
3 759 760 843 
3 843 836 759 
3 844 843 760 
3 762 844 760 
3 845 761 763 
3 762 761 845 
3 845 846 762 
3 844 762 846 
3 766 847 763 
3 763 764 766 
3 763 848 845 
3 848 763 847 
3 765 768 766 
3 768 847 766 
3 767 849 850 
3 850 768 767 
3 849 767 771 
3 847 768 850 
3 771 769 851 
3 769 770 852 
3 851 769 852 
3 853 770 772 
3 852 770 853 
3 854 771 851 
3 849 771 854 
3 772 773 855 
3 856 772 855 
3 853 772 856 
3 792 857 773 
3 855 773 857 
3 779 774 858 
3 858 774 783 
3 778 859 775 
3 859 860 775 
3 775 860 861 
3 861 776 775 
3 776 862 777 
3 862 776 863 
3 776 861 863 
3 777 864 789 
3 862 865 777 
3 864 777 865 
3 866 859 778 
3 867 778 868 
3 868 778 779 
3 778 867 866 
3 868 779 869 
3 779 858 869 
3 780 870 781 
3 788 870 780 
3 781 871 782 
3 870 871 781 
3 782 871 785 
3 858 783 784 
3 784 787 872 
3 784 872 869 
3 869 858 784 
3 785 873 786 
3 871 873 785 
3 786 873 874 
3 786 874 787 
3 787 875 872 
3 875 787 874 
3 800 870 788 
3 789 876 877 
3 877 790 789 
3 878 789 879 
3 880 876 789 
3 789 878 881 
3 879 789 864 
3 789 881 882 
3 882 880 789 
3 883 793 790 
3 883 790 877 
3 793 792 791 
3 884 792 793 
3 792 884 857 
3 883 884 793 
3 799 794 795 
3 797 809 885 
3 885 886 797 
3 798 797 886 
3 798 887 799 
3 798 886 888 
3 888 887 798 
3 799 889 806 
3 887 889 799 
3 870 800 890 
3 800 802 890 
3 805 803 801 
3 891 802 803 
3 802 891 890 
3 892 891 803 
3 892 803 805 
3 805 804 893 
3 894 804 806 
3 893 804 894 
3 892 805 895 
3 893 895 805 
3 806 889 894 
3 896 810 807 
3 841 896 807 
3 809 808 897 
3 897 808 813 
3 898 809 899 
3 809 898 885 
3 899 809 897 
3 810 900 811 
3 901 902 810 
3 903 900 810 
3 810 896 901 
3 810 902 903 
3 904 811 900 
3 812 811 904 
3 904 813 812 
3 897 813 904 
3 905 814 817 
3 905 816 814 
3 906 842 815 
3 907 815 816 
3 908 906 815 
3 815 907 908 
3 816 905 907 
3 825 909 817 
3 905 817 909 
3 818 910 825 
3 819 911 818 
3 910 818 911 
3 823 911 819 
3 912 824 820 
3 820 913 912 
3 821 913 820 
3 914 913 821 
3 821 915 916 
3 821 916 914 
3 821 822 915 
3 827 917 822 
3 822 918 915 
3 822 919 918 
3 917 919 822 
3 911 823 920 
3 921 920 823 
3 823 824 921 
3 921 824 912 
3 910 909 825 
3 827 826 922 
3 837 922 826 
3 922 917 827 
3 834 828 830 
3 923 831 832 
3 924 833 831 
3 924 831 923 
3 832 835 925 
3 925 926 832 
3 926 923 832 
3 927 834 833 
3 927 833 924 
3 839 834 927 
3 928 835 836 
3 925 835 928 
3 928 836 843 
3 840 922 837 
3 839 929 838 
3 838 929 930 
3 930 840 838 
3 929 839 931 
3 839 927 931 
3 932 922 840 
3 933 840 930 
3 840 933 932 
3 841 934 935 
3 934 841 906 
3 842 906 841 
3 935 896 841 
3 843 936 928 
3 936 843 844 
3 846 937 844 
3 937 936 844 
3 938 845 848 
3 939 845 938 
3 940 845 939 
3 846 845 940 
3 846 941 937 
3 940 941 846 
3 848 847 850 
3 938 848 942 
3 848 850 942 
3 849 943 850 
3 849 944 943 
3 944 849 854 
3 850 943 945 
3 850 945 942 
3 851 852 946 
3 851 946 854 
3 852 947 946 
3 948 852 853 
3 852 948 949 
3 852 949 947 
3 950 853 951 
3 853 950 952 
3 951 853 856 
3 948 853 952 
3 854 953 954 
3 946 953 854 
3 854 954 944 
3 855 955 956 
3 856 855 956 
3 857 955 855 
3 956 957 856 
3 856 957 951 
3 857 884 958 
3 955 857 958 
3 866 860 859 
3 860 959 861 
3 960 860 866 
3 959 860 960 
3 861 959 961 
3 863 861 961 
3 863 962 862 
3 862 879 865 
3 879 862 962 
3 962 863 963 
3 961 964 863 
3 863 964 963 
3 864 865 879 
3 866 965 960 
3 965 866 867 
3 869 867 868 
3 965 867 872 
3 867 869 872 
3 871 870 890 
3 873 871 966 
3 871 890 966 
3 872 875 967 
3 872 967 965 
3 874 873 968 
3 968 873 969 
3 873 966 969 
3 968 875 874 
3 875 970 971 
3 967 875 971 
3 970 875 968 
3 876 883 877 
3 958 884 876 
3 876 884 883 
3 955 876 880 
3 958 876 955 
3 972 878 879 
3 973 878 972 
3 878 973 881 
3 974 972 879 
3 879 962 974 
3 882 975 880 
3 975 955 880 
3 881 973 976 
3 882 881 977 
3 977 881 976 
3 882 978 975 
3 978 882 977 
3 886 885 979 
3 885 898 979 
3 980 886 979 
3 886 980 888 
3 981 889 887 
3 888 982 887 
3 981 887 983 
3 983 887 982 
3 888 984 982 
3 888 980 984 
3 889 981 894 
3 985 890 891 
3 985 966 890 
3 891 986 985 
3 986 891 892 
3 892 987 986 
3 988 987 892 
3 988 892 895 
3 893 989 895 
3 981 990 893 
3 893 894 981 
3 991 989 893 
3 991 893 990 
3 988 895 989 
3 935 901 896 
3 897 904 992 
3 899 897 992 
3 898 899 993 
3 979 898 993 
3 992 994 899 
3 994 995 899 
3 993 899 995 
3 900 992 904 
3 992 900 903 
3 935 996 901 
3 901 996 902 
3 903 902 996 
3 903 996 997 
3 992 903 998 
3 999 903 997 
3 998 903 999 
3 1000 1001 905 
3 1001 907 905 
3 905 909 1000 
3 906 1002 1003 
3 908 1002 906 
3 906 1003 934 
3 907 1004 1002 
3 907 1002 908 
3 1001 1004 907 
3 909 1005 1000 
3 1005 909 910 
3 911 1006 910 
3 1005 910 1006 
3 920 1006 911 
3 1007 921 912 
3 912 1008 1009 
3 912 1010 1007 
3 1008 912 913 
3 1009 1010 912 
3 1008 913 1011 
3 914 1011 913 
3 914 916 1012 
3 914 1012 1013 
3 914 1013 1011 
3 915 1014 916 
3 915 1015 1014 
3 1015 915 918 
3 1016 1012 916 
3 1016 916 1014 
3 1017 1018 917 
3 917 922 1017 
3 1018 919 917 
3 1019 918 1020 
3 1020 918 919 
3 918 1019 1015 
3 1020 919 1021 
3 1018 1021 919 
3 1005 1006 920 
3 1007 920 921 
3 1007 1005 920 
3 932 1022 922 
3 1017 922 1022 
3 923 926 1023 
3 923 1024 924 
3 1025 1024 923 
3 923 1023 1025 
3 924 931 927 
3 1024 931 924 
3 1026 925 928 
3 1026 1027 925 
3 925 1027 1023 
3 926 925 1023 
3 937 1026 928 
3 928 936 937 
3 1028 1029 929 
3 930 929 1029 
3 929 931 1028 
3 930 1030 1031 
3 1029 1030 930 
3 1031 933 930 
3 931 1024 1032 
3 1032 1028 931 
3 1022 932 933 
3 1022 933 1031 
3 934 1033 935 
3 934 1034 1033 
3 1034 934 1035 
3 1003 1004 934 
3 1004 1035 934 
3 996 935 1036 
3 1033 1036 935 
3 941 1037 937 
3 1037 1026 937 
3 1038 938 942 
3 938 1038 1039 
3 938 1039 1040 
3 938 1040 939 
3 939 1040 940 
3 941 940 1041 
3 1041 940 1040 
3 1042 1037 941 
3 941 1041 1043 
3 1042 941 1044 
3 1044 941 1045 
3 1045 941 1043 
3 1046 942 1047 
3 1046 1038 942 
3 945 1048 942 
3 1049 1050 942 
3 1049 942 1048 
3 1051 942 1050 
3 942 1051 1047 
3 943 1048 945 
3 943 1052 1048 
3 944 1052 943 
3 1053 944 954 
3 1052 944 1053 
3 946 1054 953 
3 947 1054 946 
3 947 1055 1054 
3 949 1055 947 
3 1056 1057 948 
3 1056 948 952 
3 948 1057 1058 
3 948 1058 949 
3 949 1058 1055 
3 951 1059 950 
3 1059 1060 950 
3 1056 952 950 
3 950 1060 1056 
3 957 1061 951 
3 1059 951 1061 
3 953 1062 954 
3 1062 953 1054 
3 1053 954 1062 
3 955 975 956 
3 978 956 975 
3 977 956 978 
3 957 956 977 
3 977 1061 957 
3 961 959 960 
3 960 1063 964 
3 964 961 960 
3 965 1064 960 
3 1063 960 1065 
3 1065 960 1064 
3 962 963 1066 
3 1067 974 962 
3 1067 962 1066 
3 963 1068 1066 
3 963 964 1063 
3 1068 963 1063 
3 1064 965 967 
3 985 986 966 
3 986 969 966 
3 971 1069 967 
3 967 1069 1064 
3 968 969 1070 
3 970 968 1070 
3 969 986 987 
3 969 987 1071 
3 1071 1070 969 
3 1072 971 970 
3 970 1070 1072 
3 1073 971 1074 
3 1073 1069 971 
3 1074 971 1072 
3 1075 973 972 
3 974 1076 972 
3 972 1076 1075 
3 973 1075 976 
3 974 1067 1076 
3 976 1075 1077 
3 976 1077 977 
3 977 1077 1061 
3 1078 1079 979 
3 979 993 1078 
3 979 1080 980 
3 979 1079 1080 
3 1081 980 1080 
3 984 980 1081 
3 983 1082 981 
3 981 1082 990 
3 1083 982 984 
3 983 982 1083 
3 1083 1082 983 
3 1083 984 1084 
3 1085 1086 984 
3 1081 1085 984 
3 1086 1084 984 
3 1071 987 988 
3 1072 1071 988 
3 1087 1072 988 
3 1088 1087 988 
3 988 989 1088 
3 989 991 1088 
3 991 990 1089 
3 1082 1090 990 
3 990 1090 1089 
3 1091 991 1089 
3 1088 991 1092 
3 1093 1092 991 
3 991 1091 1093 
3 994 992 998 
3 1078 993 995 
3 1094 1095 994 
3 1095 1096 994 
3 994 998 1094 
3 994 1096 995 
3 995 1096 1078 
3 996 1036 999 
3 999 997 996 
3 1094 998 1097 
3 1098 998 999 
3 1097 998 1098 
3 999 1036 1098 
3 1099 1001 1000 
3 1000 1100 1099 
3 1100 1000 1005 
3 1035 1004 1001 
3 1035 1001 1099 
3 1002 1004 1003 
3 1005 1007 1101 
3 1101 1100 1005 
3 1102 1101 1007 
3 1010 1102 1007 
3 1103 1009 1008 
3 1011 1104 1008 
3 1104 1103 1008 
3 1009 1103 1010 
3 1010 1103 1105 
3 1102 1010 1106 
3 1010 1105 1106 
3 1107 1104 1011 
3 1011 1013 1107 
3 1108 1013 1012 
3 1109 1108 1012 
3 1109 1012 1016 
3 1110 1013 1108 
3 1107 1013 1110 
3 1109 1016 1014 
3 1109 1014 1111 
3 1015 1112 1014 
3 1014 1112 1111 
3 1015 1019 1113 
3 1113 1112 1015 
3 1017 1114 1018 
3 1022 1114 1017 
3 1021 1018 1114 
3 1020 1115 1019 
3 1019 1115 1113 
3 1116 1115 1020 
3 1116 1020 1021 
3 1114 1116 1021 
3 1117 1114 1022 
3 1022 1118 1117 
3 1031 1118 1022 
3 1023 1026 1037 
3 1027 1026 1023 
3 1025 1023 1037 
3 1119 1024 1025 
3 1024 1120 1032 
3 1119 1120 1024 
3 1119 1025 1121 
3 1037 1122 1025 
3 1121 1025 1122 
3 1123 1029 1028 
3 1028 1124 1123 
3 1028 1125 1124 
3 1032 1125 1028 
3 1029 1123 1030 
3 1126 1031 1030 
3 1030 1127 1126 
3 1123 1127 1030 
3 1126 1118 1031 
3 1128 1032 1129 
3 1129 1032 1120 
3 1032 1128 1125 
3 1036 1033 1130 
3 1034 1131 1033 
3 1131 1130 1033 
3 1034 1132 1133 
3 1134 1132 1034 
3 1133 1131 1034 
3 1034 1035 1135 
3 1135 1134 1034 
3 1099 1135 1035 
3 1098 1036 1130 
3 1122 1037 1042 
3 1038 1046 1039 
3 1041 1040 1039 
3 1136 1041 1039 
3 1039 1046 1136 
3 1043 1041 1136 
3 1137 1122 1042 
3 1044 1137 1042 
3 1043 1138 1045 
3 1043 1139 1138 
3 1043 1136 1140 
3 1140 1139 1043 
3 1045 1138 1044 
3 1044 1138 1141 
3 1137 1044 1142 
3 1044 1141 1143 
3 1143 1144 1044 
3 1142 1044 1144 
3 1047 1145 1046 
3 1146 1046 1145 
3 1136 1046 1146 
3 1147 1148 1047 
3 1047 1051 1147 
3 1149 1145 1047 
3 1149 1047 1148 
3 1048 1150 1049 
3 1150 1048 1052 
3 1049 1151 1050 
3 1150 1151 1049 
3 1152 1050 1151 
3 1050 1152 1153 
3 1050 1153 1051 
3 1051 1153 1147 
3 1052 1154 1150 
3 1053 1154 1052 
3 1155 1156 1053 
3 1062 1155 1053 
3 1053 1156 1154 
3 1055 1157 1054 
3 1062 1054 1157 
3 1157 1055 1158 
3 1055 1058 1158 
3 1056 1159 1057 
3 1060 1159 1056 
3 1159 1160 1057 
3 1057 1160 1058 
3 1058 1160 1158 
3 1161 1060 1059 
3 1162 1059 1061 
3 1059 1162 1161 
3 1163 1164 1060 
3 1164 1159 1060 
3 1060 1161 1163 
3 1061 1077 1162 
3 1155 1062 1157 
3 1065 1165 1063 
3 1063 1165 1068 
3 1166 1064 1069 
3 1064 1166 1065 
3 1167 1065 1166 
3 1065 1167 1165 
3 1168 1066 1068 
3 1066 1168 1169 
3 1066 1169 1067 
3 1067 1169 1170 
3 1067 1170 1076 
3 1068 1165 1171 
3 1168 1068 1171 
3 1069 1172 1166 
3 1172 1069 1073 
3 1070 1071 1072 
3 1074 1072 1173 
3 1173 1072 1087 
3 1173 1073 1074 
3 1073 1173 1174 
3 1174 1175 1073 
3 1176 1172 1073 
3 1073 1175 1176 
3 1177 1075 1076 
3 1075 1177 1162 
3 1075 1162 1077 
3 1177 1076 1170 
3 1079 1078 1178 
3 1078 1096 1179 
3 1078 1179 1178 
3 1180 1079 1178 
3 1080 1079 1181 
3 1181 1079 1182 
3 1079 1180 1183 
3 1182 1079 1183 
3 1080 1184 1185 
3 1185 1081 1080 
3 1184 1080 1181 
3 1186 1187 1081 
3 1081 1187 1188 
3 1188 1085 1081 
3 1186 1081 1185 
3 1082 1189 1090 
3 1083 1189 1082 
3 1084 1086 1083 
3 1083 1190 1189 
3 1083 1086 1191 
3 1190 1083 1192 
3 1192 1083 1191 
3 1086 1085 1188 
3 1193 1086 1188 
3 1191 1086 1193 
3 1194 1173 1087 
3 1194 1087 1088 
3 1088 1092 1194 
3 1089 1189 1091 
3 1089 1090 1189 
3 1189 1195 1091 
3 1091 1195 1196 
3 1196 1093 1091 
3 1092 1197 1194 
3 1198 1197 1092 
3 1092 1093 1198 
3 1196 1199 1093 
3 1198 1093 1199 
3 1094 1200 1095 
3 1201 1200 1094 
3 1201 1094 1097 
3 1179 1096 1095 
3 1200 1179 1095 
3 1097 1098 1202 
3 1202 1201 1097 
3 1098 1130 1203 
3 1203 1202 1098 
3 1134 1135 1099 
3 1100 1134 1099 
3 1204 1134 1100 
3 1204 1100 1101 
3 1101 1205 1204 
3 1102 1205 1101 
3 1206 1102 1207 
3 1207 1102 1106 
3 1205 1102 1206 
3 1208 1105 1103 
3 1104 1208 1103 
3 1110 1208 1104 
3 1110 1104 1107 
3 1106 1105 1209 
3 1210 1209 1105 
3 1210 1105 1208 
3 1106 1211 1207 
3 1106 1209 1211 
3 1212 1110 1108 
3 1212 1108 1109 
3 1111 1213 1109 
3 1213 1212 1109 
3 1214 1208 1110 
3 1110 1215 1214 
3 1215 1110 1212 
3 1111 1112 1216 
3 1111 1216 1217 
3 1213 1111 1218 
3 1217 1218 1111 
3 1219 1216 1112 
3 1112 1113 1219 
3 1113 1115 1220 
3 1220 1219 1113 
3 1221 1114 1117 
3 1116 1114 1221 
3 1222 1220 1115 
3 1115 1116 1222 
3 1222 1116 1221 
3 1117 1118 1221 
3 1221 1118 1222 
3 1222 1118 1126 
3 1120 1119 1129 
3 1121 1129 1119 
3 1223 1224 1121 
3 1121 1224 1129 
3 1121 1225 1223 
3 1121 1122 1225 
3 1226 1225 1122 
3 1137 1227 1122 
3 1227 1226 1122 
3 1228 1127 1123 
3 1124 1228 1123 
3 1229 1228 1124 
3 1125 1229 1124 
3 1230 1229 1125 
3 1128 1230 1125 
3 1231 1126 1127 
3 1232 1222 1126 
3 1126 1231 1232 
3 1127 1228 1231 
3 1129 1233 1128 
3 1234 1230 1128 
3 1233 1234 1128 
3 1129 1224 1233 
3 1203 1130 1133 
3 1130 1131 1133 
3 1133 1132 1235 
3 1134 1236 1132 
3 1235 1132 1237 
3 1236 1237 1132 
3 1238 1133 1239 
3 1238 1203 1133 
3 1239 1133 1235 
3 1205 1236 1134 
3 1134 1204 1205 
3 1146 1140 1136 
3 1137 1142 1240 
3 1240 1227 1137 
3 1138 1241 1141 
3 1241 1138 1139 
3 1139 1242 1243 
3 1140 1242 1139 
3 1139 1244 1245 
3 1139 1245 1246 
3 1139 1246 1241 
3 1243 1244 1139 
3 1140 1146 1247 
3 1242 1140 1247 
3 1143 1141 1241 
3 1240 1142 1248 
3 1144 1248 1142 
3 1143 1249 1144 
3 1143 1246 1250 
3 1143 1250 1249 
3 1241 1246 1143 
3 1144 1249 1248 
3 1247 1145 1149 
3 1247 1146 1145 
3 1148 1147 1251 
3 1147 1252 1251 
3 1153 1252 1147 
3 1148 1251 1149 
3 1253 1149 1251 
3 1149 1253 1254 
3 1149 1254 1247 
3 1151 1150 1255 
3 1255 1150 1154 
3 1151 1255 1152 
3 1256 1152 1257 
3 1152 1256 1153 
3 1255 1257 1152 
3 1153 1256 1252 
3 1156 1258 1154 
3 1154 1258 1255 
3 1259 1156 1155 
3 1157 1260 1155 
3 1155 1260 1259 
3 1156 1259 1261 
3 1258 1156 1261 
3 1158 1260 1157 
3 1158 1262 1263 
3 1262 1158 1160 
3 1158 1259 1260 
3 1259 1158 1263 
3 1164 1262 1159 
3 1160 1159 1262 
3 1264 1161 1162 
3 1264 1265 1161 
3 1265 1163 1161 
3 1264 1162 1266 
3 1162 1267 1266 
3 1162 1177 1268 
3 1162 1268 1267 
3 1269 1164 1163 
3 1163 1265 1266 
3 1269 1163 1270 
3 1270 1163 1266 
3 1262 1164 1269 
3 1165 1167 1271 
3 1271 1171 1165 
3 1166 1172 1272 
3 1167 1166 1272 
3 1272 1176 1167 
3 1273 1271 1167 
3 1167 1274 1273 
3 1167 1176 1274 
3 1275 1168 1276 
3 1171 1276 1168 
3 1168 1275 1277 
3 1169 1168 1277 
3 1169 1278 1170 
3 1277 1278 1169 
3 1279 1170 1278 
3 1279 1177 1170 
3 1271 1280 1171 
3 1171 1280 1276 
3 1176 1272 1172 
3 1173 1194 1174 
3 1174 1194 1197 
3 1281 1174 1282 
3 1175 1174 1281 
3 1282 1174 1197 
3 1176 1175 1283 
3 1283 1175 1281 
3 1274 1176 1283 
3 1279 1268 1177 
3 1178 1179 1284 
3 1178 1284 1180 
3 1284 1179 1200 
3 1285 1180 1238 
3 1180 1201 1238 
3 1200 1201 1180 
3 1180 1284 1200 
3 1285 1183 1180 
3 1181 1182 1183 
3 1181 1183 1184 
3 1183 1285 1184 
3 1185 1184 1286 
3 1287 1184 1285 
3 1287 1286 1184 
3 1186 1185 1288 
3 1288 1185 1286 
3 1187 1186 1289 
3 1288 1290 1186 
3 1290 1291 1186 
3 1291 1289 1186 
3 1292 1188 1187 
3 1187 1293 1292 
3 1293 1187 1289 
3 1188 1292 1193 
3 1195 1189 1190 
3 1190 1196 1195 
3 1190 1192 1294 
3 1295 1196 1190 
3 1295 1190 1294 
3 1191 1296 1192 
3 1296 1191 1193 
3 1192 1296 1294 
3 1296 1193 1292 
3 1199 1196 1295 
3 1297 1197 1298 
3 1298 1197 1299 
3 1197 1198 1299 
3 1197 1297 1282 
3 1198 1300 1299 
3 1198 1199 1301 
3 1301 1300 1198 
3 1302 1199 1295 
3 1302 1303 1199 
3 1199 1303 1304 
3 1199 1304 1301 
3 1238 1201 1202 
3 1238 1202 1203 
3 1305 1236 1205 
3 1305 1205 1206 
3 1206 1207 1306 
3 1307 1305 1206 
3 1206 1306 1308 
3 1308 1307 1206 
3 1207 1211 1309 
3 1306 1207 1309 
3 1214 1210 1208 
3 1209 1310 1211 
3 1311 1209 1210 
3 1311 1310 1209 
3 1210 1214 1311 
3 1211 1310 1309 
3 1312 1215 1212 
3 1213 1313 1212 
3 1314 1312 1212 
3 1314 1212 1315 
3 1212 1313 1315 
3 1218 1313 1213 
3 1311 1214 1312 
3 1214 1215 1312 
3 1216 1219 1316 
3 1316 1217 1216 
3 1317 1218 1217 
3 1318 1319 1217 
3 1217 1319 1317 
3 1318 1217 1316 
3 1317 1320 1218 
3 1313 1218 1320 
3 1219 1220 1321 
3 1316 1219 1321 
3 1321 1220 1222 
3 1321 1222 1232 
3 1322 1224 1223 
3 1223 1323 1322 
3 1223 1324 1323 
3 1225 1324 1223 
3 1224 1325 1233 
3 1322 1325 1224 
3 1225 1226 1324 
3 1326 1324 1226 
3 1326 1226 1327 
3 1227 1327 1226 
3 1227 1328 1329 
3 1329 1327 1227 
3 1227 1240 1328 
3 1228 1229 1231 
3 1229 1230 1231 
3 1230 1234 1231 
3 1234 1322 1231 
3 1322 1330 1231 
3 1331 1231 1330 
3 1331 1332 1231 
3 1332 1232 1231 
3 1321 1232 1333 
3 1232 1334 1333 
3 1335 1232 1332 
3 1334 1232 1335 
3 1325 1234 1233 
3 1234 1325 1322 
3 1239 1235 1336 
3 1235 1237 1336 
3 1305 1237 1236 
3 1336 1237 1337 
3 1337 1237 1305 
3 1285 1238 1239 
3 1239 1338 1339 
3 1336 1338 1239 
3 1339 1285 1239 
3 1248 1340 1240 
3 1340 1328 1240 
3 1247 1341 1242 
3 1242 1341 1243 
3 1342 1243 1343 
3 1243 1341 1343 
3 1344 1244 1243 
3 1342 1344 1243 
3 1244 1344 1245 
3 1345 1346 1245 
3 1346 1246 1245 
3 1245 1347 1345 
3 1344 1347 1245 
3 1246 1346 1250 
3 1247 1254 1341 
3 1248 1348 1340 
3 1349 1348 1248 
3 1248 1249 1349 
3 1350 1249 1250 
3 1349 1249 1350 
3 1345 1250 1346 
3 1351 1350 1250 
3 1250 1345 1351 
3 1253 1251 1252 
3 1253 1252 1256 
3 1352 1253 1353 
3 1253 1256 1353 
3 1352 1254 1253 
3 1254 1352 1341 
3 1258 1257 1255 
3 1257 1354 1256 
3 1354 1353 1256 
3 1257 1258 1355 
3 1355 1354 1257 
3 1356 1355 1258 
3 1258 1261 1356 
3 1259 1357 1261 
3 1263 1357 1259 
3 1357 1356 1261 
3 1262 1269 1263 
3 1358 1359 1263 
3 1263 1270 1358 
3 1360 1263 1359 
3 1270 1263 1269 
3 1263 1360 1361 
3 1361 1357 1263 
3 1266 1265 1264 
3 1267 1362 1266 
3 1266 1362 1270 
3 1363 1267 1268 
3 1363 1362 1267 
3 1279 1364 1268 
3 1364 1363 1268 
3 1270 1362 1365 
3 1270 1365 1358 
3 1271 1273 1280 
3 1274 1366 1273 
3 1280 1273 1367 
3 1367 1273 1366 
3 1366 1274 1368 
3 1274 1283 1368 
3 1369 1275 1276 
3 1277 1275 1370 
3 1369 1370 1275 
3 1276 1371 1369 
3 1372 1373 1276 
3 1276 1280 1372 
3 1276 1373 1371 
3 1278 1277 1374 
3 1370 1374 1277 
3 1278 1375 1376 
3 1376 1279 1278 
3 1278 1374 1375 
3 1279 1376 1377 
3 1279 1377 1364 
3 1372 1280 1367 
3 1378 1281 1282 
3 1281 1379 1380 
3 1283 1281 1380 
3 1281 1378 1379 
3 1282 1297 1378 
3 1283 1380 1381 
3 1368 1283 1381 
3 1287 1285 1339 
3 1286 1287 1339 
3 1286 1339 1382 
3 1286 1383 1288 
3 1382 1383 1286 
3 1383 1384 1288 
3 1290 1288 1384 
3 1385 1289 1291 
3 1293 1289 1385 
3 1290 1384 1386 
3 1290 1386 1387 
3 1291 1290 1387 
3 1291 1387 1385 
3 1296 1292 1388 
3 1293 1388 1292 
3 1389 1388 1293 
3 1390 1389 1293 
3 1293 1385 1391 
3 1390 1293 1391 
3 1295 1294 1302 
3 1389 1294 1388 
3 1294 1389 1392 
3 1294 1393 1302 
3 1393 1294 1392 
3 1294 1296 1388 
3 1298 1394 1297 
3 1378 1297 1395 
3 1395 1297 1394 
3 1298 1299 1396 
3 1394 1298 1396 
3 1397 1396 1299 
3 1299 1300 1397 
3 1301 1304 1300 
3 1304 1398 1300 
3 1398 1397 1300 
3 1303 1302 1393 
3 1399 1303 1400 
3 1398 1304 1303 
3 1393 1400 1303 
3 1399 1398 1303 
3 1305 1307 1337 
3 1306 1309 1401 
3 1401 1402 1306 
3 1403 1308 1306 
3 1403 1306 1402 
3 1337 1307 1404 
3 1307 1308 1404 
3 1403 1405 1308 
3 1406 1308 1405 
3 1308 1406 1404 
3 1401 1309 1407 
3 1310 1407 1309 
3 1311 1408 1310 
3 1310 1408 1407 
3 1312 1408 1311 
3 1409 1410 1312 
3 1312 1314 1409 
3 1410 1408 1312 
3 1320 1315 1313 
3 1409 1314 1411 
3 1412 1411 1314 
3 1412 1314 1320 
3 1315 1320 1314 
3 1316 1413 1318 
3 1413 1316 1321 
3 1320 1317 1319 
3 1414 1319 1318 
3 1414 1318 1415 
3 1318 1413 1415 
3 1319 1416 1417 
3 1319 1417 1320 
3 1319 1414 1418 
3 1319 1418 1419 
3 1419 1416 1319 
3 1320 1420 1412 
3 1417 1420 1320 
3 1333 1413 1321 
3 1323 1330 1322 
3 1323 1326 1330 
3 1326 1323 1324 
3 1326 1331 1330 
3 1327 1329 1326 
3 1421 1331 1326 
3 1329 1421 1326 
3 1329 1328 1422 
3 1328 1423 1422 
3 1424 1423 1328 
3 1328 1340 1424 
3 1422 1421 1329 
3 1421 1332 1331 
3 1332 1425 1426 
3 1335 1332 1427 
3 1425 1332 1421 
3 1427 1332 1426 
3 1428 1333 1429 
3 1415 1413 1333 
3 1333 1334 1429 
3 1333 1428 1415 
3 1334 1430 1431 
3 1334 1432 1430 
3 1433 1429 1334 
3 1334 1335 1434 
3 1434 1432 1334 
3 1433 1334 1431 
3 1427 1434 1335 
3 1435 1336 1337 
3 1435 1338 1336 
3 1337 1404 1435 
3 1382 1339 1338 
3 1382 1338 1435 
3 1340 1426 1424 
3 1348 1426 1340 
3 1341 1352 1343 
3 1342 1343 1436 
3 1437 1438 1342 
3 1342 1438 1344 
3 1436 1437 1342 
3 1352 1439 1343 
3 1436 1343 1439 
3 1344 1438 1347 
3 1345 1440 1351 
3 1441 1440 1345 
3 1347 1441 1345 
3 1438 1441 1347 
3 1426 1348 1442 
3 1348 1349 1442 
3 1442 1349 1350 
3 1351 1442 1350 
3 1351 1426 1442 
3 1426 1351 1443 
3 1443 1351 1440 
3 1353 1439 1352 
3 1444 1437 1353 
3 1444 1353 1445 
3 1354 1446 1353 
3 1353 1446 1447 
3 1353 1447 1445 
3 1437 1436 1353 
3 1436 1439 1353 
3 1354 1355 1448 
3 1449 1354 1450 
3 1354 1449 1446 
3 1354 1448 1450 
3 1355 1451 1448 
3 1451 1355 1356 
3 1357 1361 1356 
3 1356 1361 1360 
3 1451 1356 1360 
3 1452 1359 1358 
3 1365 1453 1358 
3 1358 1453 1452 
3 1452 1454 1359 
3 1359 1455 1360 
3 1454 1455 1359 
3 1360 1456 1450 
3 1360 1450 1448 
3 1448 1451 1360 
3 1360 1457 1456 
3 1360 1455 1457 
3 1458 1365 1362 
3 1458 1362 1363 
3 1363 1364 1458 
3 1458 1364 1377 
3 1458 1453 1365 
3 1459 1366 1381 
3 1366 1460 1461 
3 1366 1461 1367 
3 1460 1366 1459 
3 1366 1368 1381 
3 1372 1367 1461 
3 1462 1369 1371 
3 1370 1369 1462 
3 1462 1463 1370 
3 1370 1463 1374 
3 1373 1464 1371 
3 1371 1464 1462 
3 1373 1372 1465 
3 1372 1461 1466 
3 1465 1372 1466 
3 1373 1467 1464 
3 1465 1467 1373 
3 1374 1463 1468 
3 1374 1468 1375 
3 1377 1376 1375 
3 1469 1377 1375 
3 1469 1375 1468 
3 1458 1377 1453 
3 1377 1469 1453 
3 1379 1378 1470 
3 1470 1378 1395 
3 1381 1380 1379 
3 1471 1381 1379 
3 1471 1379 1470 
3 1381 1471 1459 
3 1472 1382 1435 
3 1382 1472 1383 
3 1384 1383 1472 
3 1384 1473 1386 
3 1474 1384 1472 
3 1384 1474 1475 
3 1473 1384 1476 
3 1384 1475 1476 
3 1391 1385 1476 
3 1385 1387 1476 
3 1387 1386 1473 
3 1476 1387 1473 
3 1389 1477 1392 
3 1477 1389 1390 
3 1478 1479 1390 
3 1479 1480 1390 
3 1390 1480 1477 
3 1391 1478 1390 
3 1478 1391 1481 
3 1481 1391 1482 
3 1391 1476 1482 
3 1400 1393 1392 
3 1392 1477 1400 
3 1394 1396 1483 
3 1395 1394 1484 
3 1483 1484 1394 
3 1485 1470 1395 
3 1395 1484 1486 
3 1486 1487 1395 
3 1395 1487 1485 
3 1483 1396 1397 
3 1397 1398 1483 
3 1488 1398 1399 
3 1398 1488 1483 
3 1399 1400 1489 
3 1489 1488 1399 
3 1490 1489 1400 
3 1490 1400 1491 
3 1400 1477 1492 
3 1491 1400 1492 
3 1401 1411 1493 
3 1401 1409 1411 
3 1407 1409 1401 
3 1402 1401 1493 
3 1402 1493 1494 
3 1402 1494 1405 
3 1402 1405 1403 
3 1435 1404 1495 
3 1404 1406 1495 
3 1405 1496 1406 
3 1497 1496 1405 
3 1497 1405 1494 
3 1498 1495 1406 
3 1406 1496 1499 
3 1498 1406 1499 
3 1408 1410 1407 
3 1410 1409 1407 
3 1500 1493 1411 
3 1412 1500 1411 
3 1500 1412 1501 
3 1420 1501 1412 
3 1502 1418 1414 
3 1415 1503 1414 
3 1504 1414 1505 
3 1414 1504 1502 
3 1505 1414 1503 
3 1503 1415 1428 
3 1420 1417 1416 
3 1416 1506 1507 
3 1419 1506 1416 
3 1416 1507 1420 
3 1418 1508 1419 
3 1418 1509 1508 
3 1510 1509 1418 
3 1502 1510 1418 
3 1419 1511 1506 
3 1508 1511 1419 
3 1420 1507 1512 
3 1512 1513 1420 
3 1501 1420 1513 
3 1422 1425 1421 
3 1423 1425 1422 
3 1424 1426 1423 
3 1425 1423 1426 
3 1426 1443 1514 
3 1514 1427 1426 
3 1427 1515 1434 
3 1515 1427 1514 
3 1428 1429 1516 
3 1516 1503 1428 
3 1429 1433 1516 
3 1517 1431 1430 
3 1518 1430 1432 
3 1518 1519 1430 
3 1519 1443 1430 
3 1517 1430 1440 
3 1440 1430 1443 
3 1431 1520 1433 
3 1521 1431 1522 
3 1522 1431 1517 
3 1520 1431 1521 
3 1432 1515 1518 
3 1434 1515 1432 
3 1433 1523 1516 
3 1433 1520 1523 
3 1495 1498 1435 
3 1435 1498 1524 
3 1524 1472 1435 
3 1444 1525 1437 
3 1437 1525 1438 
3 1438 1525 1441 
3 1440 1441 1525 
3 1525 1517 1440 
3 1514 1443 1519 
3 1445 1526 1444 
3 1522 1444 1526 
3 1444 1522 1525 
3 1447 1526 1445 
3 1446 1449 1527 
3 1447 1446 1527 
3 1447 1527 1526 
3 1450 1528 1449 
3 1527 1449 1528 
3 1528 1450 1529 
3 1530 1450 1531 
3 1450 1532 1531 
3 1532 1450 1456 
3 1450 1530 1529 
3 1452 1533 1454 
3 1453 1534 1452 
3 1452 1535 1533 
3 1535 1452 1534 
3 1536 1453 1537 
3 1536 1534 1453 
3 1453 1469 1537 
3 1454 1538 1539 
3 1454 1540 1538 
3 1533 1540 1454 
3 1455 1454 1539 
3 1539 1457 1455 
3 1456 1457 1532 
3 1541 1542 1457 
3 1457 1539 1541 
3 1543 1532 1457 
3 1542 1543 1457 
3 1544 1545 1459 
3 1459 1471 1544 
3 1545 1460 1459 
3 1546 1461 1460 
3 1460 1545 1547 
3 1546 1460 1547 
3 1461 1546 1548 
3 1461 1548 1549 
3 1549 1466 1461 
3 1462 1464 1550 
3 1462 1550 1463 
3 1551 1463 1550 
3 1468 1463 1551 
3 1552 1464 1467 
3 1464 1552 1550 
3 1465 1553 1467 
3 1466 1553 1465 
3 1553 1466 1549 
3 1552 1467 1554 
3 1467 1553 1554 
3 1537 1468 1551 
3 1469 1468 1537 
3 1471 1470 1544 
3 1544 1470 1555 
3 1470 1485 1555 
3 1472 1524 1556 
3 1557 1558 1472 
3 1472 1556 1557 
3 1558 1474 1472 
3 1474 1558 1559 
3 1559 1560 1474 
3 1474 1560 1475 
3 1475 1561 1476 
3 1475 1560 1562 
3 1475 1562 1561 
3 1476 1561 1563 
3 1563 1564 1476 
3 1482 1476 1564 
3 1565 1477 1480 
3 1492 1477 1565 
3 1478 1566 1479 
3 1481 1566 1478 
3 1479 1566 1480 
3 1480 1567 1565 
3 1480 1566 1568 
3 1480 1568 1567 
3 1566 1481 1569 
3 1481 1570 1569 
3 1570 1481 1482 
3 1571 1570 1482 
3 1482 1572 1571 
3 1564 1572 1482 
3 1484 1483 1573 
3 1574 1573 1483 
3 1574 1483 1489 
3 1489 1483 1488 
3 1573 1575 1484 
3 1576 1484 1575 
3 1486 1484 1576 
3 1487 1577 1485 
3 1485 1577 1578 
3 1485 1578 1555 
3 1487 1486 1579 
3 1576 1579 1486 
3 1580 1487 1579 
3 1487 1580 1577 
3 1489 1490 1581 
3 1581 1574 1489 
3 1582 1490 1491 
3 1490 1582 1581 
3 1583 1491 1492 
3 1582 1491 1584 
3 1584 1491 1583 
3 1565 1583 1492 
3 1493 1500 1494 
3 1494 1585 1497 
3 1494 1500 1585 
3 1497 1586 1496 
3 1496 1586 1587 
3 1499 1496 1587 
3 1497 1585 1586 
3 1499 1524 1498 
3 1556 1524 1499 
3 1587 1588 1499 
3 1499 1588 1556 
3 1501 1585 1500 
3 1513 1585 1501 
3 1502 1589 1510 
3 1504 1590 1502 
3 1590 1589 1502 
3 1503 1591 1592 
3 1505 1503 1592 
3 1503 1593 1594 
3 1503 1594 1595 
3 1595 1591 1503 
3 1503 1516 1593 
3 1504 1505 1596 
3 1597 1590 1504 
3 1504 1596 1597 
3 1596 1505 1592 
3 1598 1507 1506 
3 1511 1598 1506 
3 1512 1507 1598 
3 1508 1599 1511 
3 1509 1599 1508 
3 1557 1599 1509 
3 1510 1557 1509 
3 1589 1557 1510 
3 1587 1598 1511 
3 1511 1588 1587 
3 1588 1511 1599 
3 1600 1513 1512 
3 1600 1512 1598 
3 1585 1513 1586 
3 1586 1513 1600 
3 1515 1514 1519 
3 1518 1515 1519 
3 1601 1593 1516 
3 1602 1516 1523 
3 1601 1516 1602 
3 1522 1517 1525 
3 1603 1523 1520 
3 1604 1603 1520 
3 1604 1520 1521 
3 1522 1529 1521 
3 1604 1521 1605 
3 1605 1521 1529 
3 1526 1606 1522 
3 1522 1606 1529 
3 1602 1523 1607 
3 1607 1523 1603 
3 1527 1606 1526 
3 1606 1527 1528 
3 1529 1606 1528 
3 1529 1530 1605 
3 1608 1530 1531 
3 1609 1610 1530 
3 1611 1605 1530 
3 1609 1530 1608 
3 1611 1530 1610 
3 1531 1532 1608 
3 1532 1612 1608 
3 1532 1613 1612 
3 1543 1613 1532 
3 1533 1614 1540 
3 1535 1614 1533 
3 1615 1616 1534 
3 1534 1616 1617 
3 1534 1617 1535 
3 1618 1615 1534 
3 1534 1536 1618 
3 1619 1535 1617 
3 1535 1619 1614 
3 1537 1620 1536 
3 1618 1536 1621 
3 1620 1621 1536 
3 1551 1620 1537 
3 1538 1622 1539 
3 1538 1623 1622 
3 1540 1623 1538 
3 1622 1624 1539 
3 1539 1624 1541 
3 1540 1625 1623 
3 1614 1625 1540 
3 1542 1541 1624 
3 1624 1626 1542 
3 1542 1626 1627 
3 1543 1542 1627 
3 1628 1613 1543 
3 1543 1627 1628 
3 1545 1544 1629 
3 1555 1629 1544 
3 1630 1547 1545 
3 1630 1545 1629 
3 1546 1631 1548 
3 1631 1546 1547 
3 1631 1547 1630 
3 1632 1549 1548 
3 1548 1618 1632 
3 1548 1631 1615 
3 1618 1548 1615 
3 1553 1549 1621 
3 1621 1549 1632 
3 1552 1554 1550 
3 1550 1554 1551 
3 1551 1554 1620 
3 1554 1553 1621 
3 1554 1621 1620 
3 1633 1634 1555 
3 1629 1555 1634 
3 1633 1555 1578 
3 1588 1599 1556 
3 1556 1599 1557 
3 1558 1557 1589 
3 1589 1559 1558 
3 1590 1559 1589 
3 1635 1559 1590 
3 1560 1559 1635 
3 1636 1560 1635 
3 1562 1560 1636 
3 1561 1562 1637 
3 1563 1561 1637 
3 1562 1636 1637 
3 1563 1637 1638 
3 1638 1564 1563 
3 1564 1638 1639 
3 1564 1640 1572 
3 1564 1639 1640 
3 1565 1567 1583 
3 1641 1566 1569 
3 1568 1566 1641 
3 1567 1568 1642 
3 1583 1567 1642 
3 1568 1641 1642 
3 1569 1570 1643 
3 1569 1643 1644 
3 1645 1569 1644 
3 1641 1569 1645 
3 1643 1570 1571 
3 1571 1646 1643 
3 1571 1647 1648 
3 1572 1647 1571 
3 1648 1646 1571 
3 1572 1649 1647 
3 1640 1650 1572 
3 1572 1650 1649 
3 1573 1651 1575 
3 1651 1573 1652 
3 1652 1573 1574 
3 1652 1574 1581 
3 1575 1653 1576 
3 1575 1651 1654 
3 1575 1654 1653 
3 1576 1653 1579 
3 1655 1577 1580 
3 1578 1577 1655 
3 1578 1655 1633 
3 1579 1656 1580 
3 1579 1653 1657 
3 1579 1657 1656 
3 1580 1656 1655 
3 1652 1581 1658 
3 1659 1658 1581 
3 1581 1582 1659 
3 1660 1659 1582 
3 1661 1660 1582 
3 1584 1661 1582 
3 1584 1583 1642 
3 1662 1584 1642 
3 1584 1662 1663 
3 1663 1661 1584 
3 1587 1586 1598 
3 1586 1600 1598 
3 1635 1590 1636 
3 1636 1590 1597 
3 1591 1664 1592 
3 1595 1665 1591 
3 1665 1664 1591 
3 1596 1592 1666 
3 1664 1666 1592 
3 1593 1667 1594 
3 1593 1668 1667 
3 1601 1669 1593 
3 1669 1668 1593 
3 1594 1670 1595 
3 1594 1671 1670 
3 1594 1667 1671 
3 1672 1595 1670 
3 1665 1595 1672 
3 1596 1673 1597 
3 1666 1673 1596 
3 1636 1597 1674 
3 1597 1673 1674 
3 1675 1676 1601 
3 1669 1601 1677 
3 1676 1677 1601 
3 1675 1601 1602 
3 1602 1603 1678 
3 1675 1602 1678 
3 1602 1607 1603 
3 1678 1603 1604 
3 1679 1604 1605 
3 1678 1604 1679 
3 1605 1680 1679 
3 1681 1680 1605 
3 1611 1682 1605 
3 1605 1682 1681 
3 1608 1683 1609 
3 1612 1684 1608 
3 1684 1683 1608 
3 1610 1609 1685 
3 1609 1686 1685 
3 1683 1686 1609 
3 1611 1610 1687 
3 1688 1610 1689 
3 1685 1689 1610 
3 1610 1688 1687 
3 1682 1611 1690 
3 1687 1690 1611 
3 1613 1691 1612 
3 1612 1691 1692 
3 1612 1692 1684 
3 1691 1613 1628 
3 1614 1693 1625 
3 1619 1693 1614 
3 1615 1631 1616 
3 1694 1616 1631 
3 1617 1616 1694 
3 1617 1694 1619 
3 1621 1632 1618 
3 1694 1693 1619 
3 1622 1626 1624 
3 1626 1622 1623 
3 1625 1695 1623 
3 1626 1623 1696 
3 1696 1623 1695 
3 1625 1697 1695 
3 1693 1697 1625 
3 1627 1626 1698 
3 1698 1626 1696 
3 1699 1628 1627 
3 1627 1633 1656 
3 1656 1699 1627 
3 1698 1633 1627 
3 1628 1699 1700 
3 1628 1700 1691 
3 1629 1697 1630 
3 1695 1629 1634 
3 1697 1629 1695 
3 1697 1693 1630 
3 1693 1694 1630 
3 1631 1630 1694 
3 1633 1698 1634 
3 1633 1655 1656 
3 1695 1634 1696 
3 1634 1698 1696 
3 1637 1636 1701 
3 1701 1636 1674 
3 1637 1702 1638 
3 1701 1702 1637 
3 1703 1638 1702 
3 1639 1638 1703 
3 1640 1639 1704 
3 1639 1703 1704 
3 1640 1705 1650 
3 1704 1705 1640 
3 1642 1641 1645 
3 1662 1642 1648 
3 1645 1648 1642 
3 1643 1646 1644 
3 1644 1646 1645 
3 1648 1645 1646 
3 1648 1647 1706 
3 1647 1649 1707 
3 1647 1707 1706 
3 1706 1708 1648 
3 1648 1708 1709 
3 1709 1662 1648 
3 1649 1650 1710 
3 1711 1649 1710 
3 1707 1649 1711 
3 1712 1650 1705 
3 1710 1650 1712 
3 1654 1651 1713 
3 1713 1651 1652 
3 1652 1658 1713 
3 1714 1653 1654 
3 1657 1653 1714 
3 1713 1715 1654 
3 1654 1715 1714 
3 1656 1657 1699 
3 1699 1657 1700 
3 1700 1657 1714 
3 1658 1659 1716 
3 1716 1715 1658 
