NORM_ASCII
4230 8456
3 1195 1314 1318 
3 1319 1196 1318 
3 1320 1321 1196 
3 1197 1196 1321 
3 1196 1319 1320 
3 1228 1197 1321 
3 1205 1199 1198 
3 1209 1322 1198 
3 1205 1198 1322 
3 1323 1202 1324 
3 1323 1305 1202 
3 1202 1325 1324 
3 1325 1202 1204 
3 1326 1204 1203 
3 1327 1326 1203 
3 1322 1203 1205 
3 1203 1322 1327 
3 1325 1204 1326 
3 1206 1207 1328 
3 1209 1206 1328 
3 1328 1207 1329 
3 1329 1207 1208 
3 1330 1329 1208 
3 1330 1208 1211 
3 1331 1322 1209 
3 1331 1209 1328 
3 1332 1211 1210 
3 1332 1210 1212 
3 1330 1211 1332 
3 1333 1332 1212 
3 1333 1212 1213 
3 1216 1334 1213 
3 1333 1213 1335 
3 1213 1214 1216 
3 1335 1213 1334 
3 1334 1216 1215 
3 1334 1215 1336 
3 1218 1336 1215 
3 1217 1219 1224 
3 1217 1224 1221 
3 1217 1337 1218 
3 1221 1338 1217 
3 1337 1217 1338 
3 1337 1336 1218 
3 1225 1226 1220 
3 1339 1220 1340 
3 1220 1226 1340 
3 1223 1220 1339 
3 1222 1341 1221 
3 1342 1221 1341 
3 1343 1221 1342 
3 1344 1345 1221 
3 1345 1338 1221 
3 1221 1343 1344 
3 1341 1222 1346 
3 1222 1223 1346 
3 1339 1347 1223 
3 1346 1223 1347 
3 1340 1226 1227 
3 1348 1227 1229 
3 1227 1348 1340 
3 1228 1321 1349 
3 1349 1350 1228 
3 1229 1228 1351 
3 1350 1351 1228 
3 1351 1348 1229 
3 1230 1299 1352 
3 1352 1246 1230 
3 1232 1231 1235 
3 1234 1245 1231 
3 1231 1245 1235 
3 1245 1353 1235 
3 1353 1354 1235 
3 1235 1354 1236 
3 1237 1236 1355 
3 1354 1356 1236 
3 1355 1236 1356 
3 1237 1296 1238 
3 1355 1296 1237 
3 1296 1295 1238 
3 1238 1295 1357 
3 1238 1357 1239 
3 1357 1358 1239 
3 1243 1239 1358 
3 1359 1267 1240 
3 1359 1240 1241 
3 1241 1242 1360 
3 1241 1361 1359 
3 1241 1360 1362 
3 1361 1241 1362 
3 1242 1243 1363 
3 1360 1242 1363 
3 1363 1243 1358 
3 1353 1245 1244 
3 1248 1356 1244 
3 1244 1356 1354 
3 1244 1354 1353 
3 1248 1247 1246 
3 1356 1246 1352 
3 1356 1248 1246 
3 1274 1251 1253 
3 1254 1252 1255 
3 1274 1253 1364 
3 1365 1253 1254 
3 1253 1365 1364 
3 1255 1365 1254 
3 1256 1365 1255 
3 1256 1366 1365 
3 1256 1367 1368 
3 1258 1367 1256 
3 1368 1366 1256 
3 1369 1258 1257 
3 1257 1370 1369 
3 1370 1257 1260 
3 1371 1258 1372 
3 1369 1372 1258 
3 1371 1367 1258 
3 1260 1259 1373 
3 1259 1262 1374 
3 1375 1259 1374 
3 1259 1375 1373 
3 1370 1260 1376 
3 1373 1376 1260 
3 1377 1262 1261 
3 1261 1263 1377 
3 1374 1262 1377 
3 1265 1378 1263 
3 1378 1379 1263 
3 1263 1379 1377 
3 1267 1266 1264 
3 1265 1266 1380 
3 1265 1380 1378 
3 1359 1266 1267 
3 1359 1380 1266 
3 1271 1381 1268 
3 1382 1268 1381 
3 1270 1268 1382 
3 1270 1382 1269 
3 1286 1269 1382 
3 1272 1383 1271 
3 1384 1381 1271 
3 1271 1383 1384 
3 1272 1273 1383 
3 1384 1383 1273 
3 1274 1384 1273 
3 1274 1364 1384 
3 1385 1276 1275 
3 1385 1275 1284 
3 1276 1282 1277 
3 1276 1385 1386 
3 1276 1386 1282 
3 1278 1387 1309 
3 1388 1283 1278 
3 1278 1309 1308 
3 1308 1388 1278 
3 1387 1278 1281 
3 1279 1282 1386 
3 1280 1279 1389 
3 1279 1386 1389 
3 1390 1280 1389 
3 1391 1280 1390 
3 1391 1281 1280 
3 1392 1281 1391 
3 1281 1392 1387 
3 1388 1292 1283 
3 1284 1285 1385 
3 1389 1385 1285 
3 1389 1285 1291 
3 1286 1382 1381 
3 1381 1393 1286 
3 1394 1288 1286 
3 1394 1286 1393 
3 1289 1395 1287 
3 1396 1287 1395 
3 1290 1287 1396 
3 1288 1394 1289 
3 1397 1395 1289 
3 1289 1398 1397 
3 1394 1398 1289 
3 1291 1290 1399 
3 1396 1400 1290 
3 1399 1290 1400 
3 1401 1291 1399 
3 1401 1389 1291 
3 1292 1388 1307 
3 1294 1301 1293 
3 1355 1300 1294 
3 1300 1301 1294 
3 1296 1355 1294 
3 1297 1357 1295 
3 1402 1297 1298 
3 1402 1403 1297 
3 1357 1297 1403 
3 1402 1298 1404 
3 1298 1306 1404 
3 1352 1299 1300 
3 1352 1300 1355 
3 1304 1306 1302 
3 1304 1303 1405 
3 1305 1405 1303 
3 1405 1306 1304 
3 1405 1305 1323 
3 1404 1306 1405 
3 1308 1307 1388 
3 1309 1387 1392 
3 1310 1309 1392 
3 1312 1310 1392 
3 1312 1406 1311 
3 1311 1406 1407 
3 1311 1407 1408 
3 1409 1313 1311 
3 1311 1408 1409 
3 1312 1392 1406 
3 1315 1313 1409 
3 1314 1410 1411 
3 1318 1314 1411 
3 1410 1314 1317 
3 1315 1409 1408 
3 1316 1315 1412 
3 1315 1408 1413 
3 1413 1412 1315 
3 1414 1316 1412 
3 1317 1316 1415 
3 1415 1316 1414 
3 1416 1317 1417 
3 1317 1415 1417 
3 1410 1317 1416 
3 1318 1418 1319 
3 1318 1411 1418 
3 1319 1418 1419 
3 1419 1320 1319 
3 1320 1419 1321 
3 1420 1321 1419 
3 1349 1321 1420 
3 1322 1331 1327 
3 1324 1421 1323 
3 1323 1421 1422 
3 1323 1422 1402 
3 1405 1323 1402 
3 1324 1423 1424 
3 1424 1421 1324 
3 1425 1324 1325 
3 1423 1324 1426 
3 1425 1426 1324 
3 1326 1427 1325 
3 1428 1325 1427 
3 1425 1325 1428 
3 1327 1429 1326 
3 1427 1326 1429 
3 1327 1331 1328 
3 1327 1329 1330 
3 1328 1329 1327 
3 1327 1330 1430 
3 1327 1430 1431 
3 1431 1429 1327 
3 1330 1432 1430 
3 1332 1432 1330 
3 1433 1432 1332 
3 1433 1332 1333 
3 1333 1335 1433 
3 1434 1335 1334 
3 1434 1334 1336 
3 1335 1435 1433 
3 1436 1435 1335 
3 1335 1434 1436 
3 1337 1437 1336 
3 1336 1437 1434 
3 1337 1338 1438 
3 1437 1337 1438 
3 1438 1338 1345 
3 1339 1340 1439 
3 1339 1439 1440 
3 1347 1339 1440 
3 1348 1441 1340 
3 1439 1340 1442 
3 1340 1441 1442 
3 1342 1341 1443 
3 1444 1445 1341 
3 1341 1446 1444 
3 1346 1446 1341 
3 1443 1341 1445 
3 1343 1342 1443 
3 1447 1344 1343 
3 1343 1448 1447 
3 1448 1343 1443 
3 1345 1344 1449 
3 1344 1447 1450 
3 1450 1449 1344 
3 1438 1345 1451 
3 1449 1451 1345 
3 1346 1347 1452 
3 1446 1346 1452 
3 1440 1453 1347 
3 1452 1347 1454 
3 1347 1453 1454 
3 1441 1348 1351 
3 1441 1350 1349 
3 1441 1349 1442 
3 1442 1349 1420 
3 1351 1350 1441 
3 1355 1356 1352 
3 1357 1403 1358 
3 1358 1403 1402 
3 1358 1422 1455 
3 1455 1456 1358 
3 1402 1422 1358 
3 1457 1363 1358 
3 1358 1456 1458 
3 1458 1457 1358 
3 1359 1361 1459 
3 1359 1459 1380 
3 1360 1460 1461 
3 1360 1461 1362 
3 1360 1363 1460 
3 1362 1462 1361 
3 1463 1459 1361 
3 1463 1361 1462 
3 1362 1464 1465 
3 1362 1461 1464 
3 1465 1462 1362 
3 1460 1363 1457 
3 1384 1364 1393 
3 1364 1365 1466 
3 1364 1466 1393 
3 1366 1466 1365 
3 1366 1368 1466 
3 1467 1368 1367 
3 1367 1371 1467 
3 1368 1467 1468 
3 1466 1368 1394 
3 1468 1398 1368 
3 1398 1394 1368 
3 1372 1369 1370 
3 1372 1370 1376 
3 1469 1371 1372 
3 1371 1469 1467 
3 1376 1469 1372 
3 1376 1373 1375 
3 1374 1470 1471 
3 1471 1375 1374 
3 1470 1374 1472 
3 1374 1377 1472 
3 1375 1471 1473 
3 1375 1473 1474 
3 1474 1475 1375 
3 1376 1375 1475 
3 1376 1475 1476 
3 1476 1469 1376 
3 1377 1379 1472 
3 1462 1477 1378 
3 1378 1380 1463 
3 1378 1477 1478 
3 1379 1378 1478 
3 1462 1378 1463 
3 1379 1478 1479 
3 1379 1479 1480 
3 1472 1379 1480 
3 1380 1459 1463 
3 1393 1381 1384 
3 1389 1386 1385 
3 1389 1401 1390 
3 1390 1481 1391 
3 1390 1401 1481 
3 1391 1481 1482 
3 1391 1483 1392 
3 1483 1391 1482 
3 1392 1483 1484 
3 1406 1392 1484 
3 1394 1393 1466 
3 1395 1485 1396 
3 1485 1395 1397 
3 1485 1486 1396 
3 1396 1486 1400 
3 1468 1397 1398 
3 1486 1485 1397 
3 1486 1397 1468 
3 1400 1487 1399 
3 1399 1488 1489 
3 1489 1401 1399 
3 1488 1399 1487 
3 1490 1487 1400 
3 1400 1486 1490 
3 1481 1401 1489 
3 1402 1404 1405 
3 1491 1407 1406 
3 1406 1484 1491 
3 1492 1408 1407 
3 1493 1492 1407 
3 1407 1491 1493 
3 1408 1492 1494 
3 1408 1494 1413 
3 1411 1410 1495 
3 1416 1495 1410 
3 1418 1411 1495 
3 1412 1494 1496 
3 1494 1412 1413 
3 1412 1497 1498 
3 1414 1412 1498 
3 1497 1412 1496 
3 1415 1414 1417 
3 1417 1414 1498 
3 1499 1416 1417 
3 1495 1416 1499 
3 1500 1499 1417 
3 1417 1501 1500 
3 1498 1501 1417 
3 1502 1419 1418 
3 1495 1502 1418 
3 1420 1419 1502 
3 1442 1420 1503 
3 1420 1502 1503 
3 1422 1421 1455 
3 1424 1504 1421 
3 1504 1455 1421 
3 1505 1424 1423 
3 1423 1506 1505 
3 1423 1426 1506 
3 1424 1505 1504 
3 1425 1507 1508 
3 1508 1426 1425 
3 1509 1425 1428 
3 1507 1425 1509 
3 1426 1508 1506 
3 1429 1428 1427 
3 1428 1429 1431 
3 1428 1431 1430 
3 1510 1428 1430 
3 1428 1511 1509 
3 1511 1428 1510 
3 1435 1430 1512 
3 1430 1435 1510 
3 1430 1432 1512 
3 1512 1432 1433 
3 1512 1433 1435 
3 1513 1434 1514 
3 1434 1513 1436 
3 1434 1437 1515 
3 1515 1514 1434 
3 1436 1516 1435 
3 1510 1435 1516 
3 1436 1513 1517 
3 1518 1519 1436 
3 1436 1517 1518 
3 1516 1436 1519 
3 1438 1515 1437 
3 1520 1515 1438 
3 1438 1451 1520 
3 1521 1439 1442 
3 1521 1440 1439 
3 1521 1453 1440 
3 1521 1442 1522 
3 1503 1522 1442 
3 1523 1443 1524 
3 1443 1445 1524 
3 1443 1523 1448 
3 1445 1444 1524 
3 1452 1444 1446 
3 1524 1444 1452 
3 1450 1447 1525 
3 1523 1526 1447 
3 1448 1523 1447 
3 1527 1447 1526 
3 1447 1527 1525 
3 1451 1449 1528 
3 1450 1528 1449 
3 1528 1450 1529 
3 1525 1529 1450 
3 1530 1520 1451 
3 1530 1451 1528 
3 1531 1532 1452 
3 1533 1452 1454 
3 1452 1533 1531 
3 1452 1532 1524 
3 1453 1521 1534 
3 1454 1453 1534 
3 1454 1534 1535 
3 1533 1454 1536 
3 1454 1535 1536 
3 1455 1537 1456 
3 1455 1504 1538 
3 1538 1537 1455 
3 1458 1456 1537 
3 1460 1457 1539 
3 1539 1457 1458 
3 1540 1541 1458 
3 1458 1537 1538 
3 1538 1540 1458 
3 1541 1539 1458 
3 1460 1542 1461 
3 1460 1543 1542 
3 1539 1543 1460 
3 1464 1461 1542 
3 1477 1462 1465 
3 1544 1465 1464 
3 1464 1545 1544 
3 1546 1464 1547 
3 1464 1546 1545 
3 1542 1543 1464 
3 1464 1543 1547 
3 1479 1465 1544 
3 1479 1477 1465 
3 1468 1467 1486 
3 1548 1467 1469 
3 1467 1548 1486 
3 1549 1469 1476 
3 1490 1469 1549 
3 1490 1548 1469 
3 1470 1550 1471 
3 1551 1470 1472 
3 1550 1470 1552 
3 1552 1470 1551 
3 1471 1550 1553 
3 1471 1553 1554 
3 1471 1554 1473 
3 1551 1472 1480 
3 1473 1554 1474 
3 1555 1475 1474 
3 1555 1474 1554 
3 1475 1556 1476 
3 1556 1475 1555 
3 1557 1549 1476 
3 1556 1557 1476 
3 1479 1478 1477 
3 1545 1479 1544 
3 1480 1479 1551 
3 1545 1558 1479 
3 1479 1558 1551 
3 1491 1481 1559 
3 1482 1481 1491 
3 1481 1489 1488 
3 1559 1481 1488 
3 1484 1483 1482 
3 1484 1482 1491 
3 1486 1548 1490 
3 1560 1561 1487 
3 1487 1561 1488 
3 1560 1487 1490 
3 1561 1559 1488 
3 1490 1562 1560 
3 1562 1490 1549 
3 1493 1491 1559 
3 1494 1492 1563 
3 1493 1563 1492 
3 1559 1561 1493 
3 1563 1493 1561 
3 1564 1496 1494 
3 1494 1563 1564 
3 1499 1502 1495 
3 1496 1564 1497 
3 1498 1497 1501 
3 1565 1497 1564 
3 1497 1565 1566 
3 1501 1497 1566 
3 1567 1502 1499 
3 1568 1499 1500 
3 1568 1569 1499 
3 1499 1569 1570 
3 1567 1499 1570 
3 1500 1571 1568 
3 1572 1573 1500 
3 1573 1574 1500 
3 1500 1574 1571 
3 1572 1500 1501 
3 1566 1575 1501 
3 1501 1575 1576 
3 1501 1576 1572 
3 1503 1502 1567 
3 1577 1578 1503 
3 1522 1503 1579 
3 1567 1577 1503 
3 1579 1503 1578 
3 1540 1504 1541 
3 1540 1538 1504 
3 1541 1504 1505 
3 1505 1506 1580 
3 1580 1541 1505 
3 1506 1508 1581 
3 1506 1581 1580 
3 1508 1507 1582 
3 1583 1582 1507 
3 1507 1509 1583 
3 1508 1584 1581 
3 1508 1582 1584 
3 1583 1509 1511 
3 1519 1585 1510 
3 1516 1519 1510 
3 1510 1585 1511 
3 1583 1511 1585 
3 1514 1586 1513 
3 1586 1517 1513 
3 1515 1520 1514 
3 1514 1520 1530 
3 1587 1586 1514 
3 1587 1514 1588 
3 1528 1514 1530 
3 1588 1514 1528 
3 1517 1586 1589 
3 1518 1517 1589 
3 1519 1518 1590 
3 1591 1590 1518 
3 1589 1592 1518 
3 1591 1518 1592 
3 1590 1593 1519 
3 1593 1594 1519 
3 1594 1585 1519 
3 1521 1522 1579 
3 1521 1595 1534 
3 1595 1521 1579 
3 1523 1524 1596 
3 1526 1523 1597 
3 1598 1597 1523 
3 1523 1596 1598 
3 1524 1532 1596 
3 1525 1527 1599 
3 1529 1525 1599 
3 1597 1600 1526 
3 1600 1527 1526 
3 1601 1527 1600 
3 1599 1527 1601 
3 1602 1528 1529 
3 1528 1602 1588 
3 1529 1603 1602 
3 1603 1529 1599 
3 1596 1532 1531 
3 1533 1604 1531 
3 1531 1604 1605 
3 1531 1606 1607 
3 1607 1596 1531 
3 1606 1531 1605 
3 1536 1604 1533 
3 1534 1595 1535 
3 1535 1595 1608 
3 1535 1608 1609 
3 1610 1535 1609 
3 1536 1535 1610 
3 1611 1536 1610 
3 1604 1536 1611 
3 1539 1612 1547 
3 1547 1543 1539 
3 1613 1614 1539 
3 1539 1614 1615 
3 1539 1615 1612 
3 1613 1539 1541 
3 1541 1580 1616 
3 1616 1613 1541 
3 1617 1545 1546 
3 1558 1545 1617 
3 1618 1546 1547 
3 1546 1619 1617 
3 1618 1619 1546 
3 1612 1620 1547 
3 1618 1547 1620 
3 1549 1557 1562 
3 1550 1552 1621 
3 1621 1553 1550 
3 1622 1551 1558 
3 1623 1552 1551 
3 1622 1623 1551 
3 1552 1624 1621 
3 1624 1552 1623 
3 1555 1554 1553 
3 1625 1555 1553 
3 1625 1553 1621 
3 1626 1555 1625 
3 1556 1555 1626 
3 1565 1562 1556 
3 1626 1565 1556 
3 1562 1557 1556 
3 1627 1558 1628 
3 1617 1628 1558 
3 1558 1627 1622 
3 1561 1560 1629 
3 1560 1562 1629 
3 1629 1563 1561 
3 1564 1629 1562 
3 1562 1565 1564 
3 1563 1629 1564 
3 1566 1565 1630 
3 1630 1565 1626 
3 1566 1630 1631 
3 1632 1566 1631 
3 1566 1632 1575 
3 1577 1567 1570 
3 1633 1568 1571 
3 1568 1634 1635 
3 1568 1633 1634 
3 1635 1569 1568 
3 1570 1569 1636 
3 1636 1569 1635 
3 1637 1570 1638 
3 1638 1570 1636 
3 1570 1639 1640 
3 1640 1641 1570 
3 1639 1570 1637 
3 1570 1641 1577 
3 1633 1571 1574 
3 1642 1573 1572 
3 1572 1576 1642 
3 1642 1574 1573 
3 1574 1642 1643 
3 1644 1574 1643 
3 1633 1574 1645 
3 1644 1645 1574 
3 1575 1646 1647 
3 1575 1647 1648 
3 1575 1632 1646 
3 1648 1576 1575 
3 1576 1648 1642 
3 1578 1577 1641 
3 1578 1641 1609 
3 1578 1609 1608 
3 1608 1579 1578 
3 1608 1595 1579 
3 1616 1580 1649 
3 1580 1581 1649 
3 1581 1650 1649 
3 1650 1581 1651 
3 1652 1653 1581 
3 1581 1584 1652 
3 1653 1651 1581 
3 1584 1582 1654 
3 1654 1582 1655 
3 1583 1655 1582 
3 1583 1585 1594 
3 1594 1655 1583 
3 1654 1652 1584 
3 1656 1589 1586 
3 1587 1656 1586 
3 1657 1656 1587 
3 1657 1587 1658 
3 1587 1588 1602 
3 1587 1602 1658 
3 1589 1657 1592 
3 1657 1589 1656 
3 1659 1593 1590 
3 1591 1659 1590 
3 1591 1660 1661 
3 1592 1662 1591 
3 1663 1659 1591 
3 1591 1664 1663 
3 1661 1664 1591 
3 1665 1591 1662 
3 1591 1665 1660 
3 1662 1592 1657 
3 1594 1593 1666 
3 1667 1593 1663 
3 1593 1659 1663 
3 1667 1666 1593 
3 1666 1655 1594 
3 1596 1668 1598 
3 1596 1607 1668 
3 1669 1597 1670 
3 1597 1598 1670 
3 1597 1669 1671 
3 1671 1600 1597 
3 1598 1668 1670 
3 1599 1672 1603 
3 1672 1599 1601 
3 1671 1673 1600 
3 1673 1674 1600 
3 1601 1600 1674 
3 1675 1672 1601 
3 1601 1676 1675 
3 1676 1601 1674 
3 1677 1658 1602 
3 1677 1602 1603 
3 1603 1672 1678 
3 1603 1679 1677 
3 1678 1680 1603 
3 1679 1603 1680 
3 1681 1605 1604 
3 1604 1611 1682 
3 1682 1681 1604 
3 1683 1605 1681 
3 1683 1606 1605 
3 1668 1607 1606 
3 1684 1606 1683 
3 1606 1684 1668 
3 1609 1641 1610 
3 1685 1686 1610 
3 1610 1641 1685 
3 1611 1610 1686 
3 1682 1611 1686 
3 1612 1615 1620 
3 1613 1687 1614 
3 1613 1616 1649 
3 1687 1613 1649 
3 1688 1615 1614 
3 1614 1687 1688 
3 1615 1688 1689 
3 1620 1615 1689 
3 1690 1628 1617 
3 1619 1690 1617 
3 1618 1691 1692 
3 1618 1620 1689 
3 1689 1691 1618 
3 1690 1619 1618 
3 1618 1692 1690 
3 1624 1625 1621 
3 1693 1622 1694 
3 1693 1623 1622 
3 1622 1627 1694 
3 1695 1623 1693 
3 1624 1623 1695 
3 1696 1626 1624 
3 1626 1625 1624 
3 1695 1697 1624 
3 1697 1696 1624 
3 1631 1630 1626 
3 1626 1696 1631 
3 1628 1698 1627 
3 1694 1627 1699 
3 1627 1698 1699 
3 1698 1628 1690 
3 1632 1631 1696 
3 1632 1696 1646 
3 1645 1634 1633 
3 1700 1635 1634 
3 1634 1645 1700 
3 1701 1635 1700 
3 1702 1635 1701 
3 1702 1638 1635 
3 1638 1636 1635 
3 1637 1638 1703 
3 1703 1704 1637 
3 1704 1639 1637 
3 1703 1638 1702 
3 1705 1640 1639 
3 1639 1706 1705 
3 1707 1706 1639 
3 1707 1639 1704 
3 1641 1640 1705 
3 1685 1641 1705 
3 1643 1642 1648 
3 1648 1708 1643 
3 1643 1708 1644 
3 1700 1645 1644 
3 1644 1709 1700 
3 1710 1644 1708 
3 1711 1709 1644 
3 1644 1710 1712 
3 1712 1711 1644 
3 1713 1647 1646 
3 1646 1697 1713 
3 1646 1696 1697 
3 1647 1694 1714 
3 1647 1713 1694 
3 1715 1647 1714 
3 1647 1715 1648 
3 1716 1717 1648 
3 1715 1716 1648 
3 1718 1648 1719 
3 1648 1717 1719 
3 1708 1648 1718 
3 1720 1721 1649 
3 1649 1722 1720 
3 1649 1721 1687 
3 1723 1722 1649 
3 1723 1649 1650 
3 1650 1651 1724 
3 1724 1723 1650 
3 1651 1725 1724 
3 1725 1651 1653 
3 1653 1652 1726 
3 1652 1654 1727 
3 1726 1652 1727 
3 1726 1728 1653 
3 1728 1725 1653 
3 1666 1654 1655 
3 1727 1654 1666 
3 1658 1729 1657 
3 1657 1729 1730 
3 1730 1662 1657 
3 1729 1658 1677 
3 1661 1660 1731 
3 1665 1732 1660 
3 1660 1732 1733 
3 1731 1660 1733 
3 1664 1661 1734 
3 1735 1661 1736 
3 1737 1734 1661 
3 1661 1735 1737 
3 1736 1661 1731 
3 1730 1738 1662 
3 1665 1662 1738 
3 1664 1667 1663 
3 1664 1727 1666 
3 1666 1667 1664 
3 1734 1739 1664 
3 1664 1740 1726 
3 1739 1740 1664 
3 1664 1726 1727 
3 1738 1741 1665 
3 1742 1732 1665 
3 1665 1741 1742 
3 1743 1670 1668 
3 1668 1684 1744 
3 1743 1668 1744 
3 1745 1669 1670 
3 1746 1669 1747 
3 1748 1669 1745 
3 1748 1749 1669 
3 1749 1747 1669 
3 1746 1671 1669 
3 1670 1743 1750 
3 1670 1750 1745 
3 1673 1671 1746 
3 1672 1675 1678 
3 1746 1751 1673 
3 1674 1673 1751 
3 1676 1674 1752 
3 1674 1753 1752 
3 1751 1753 1674 
3 1678 1675 1754 
3 1754 1675 1676 
3 1755 1756 1676 
3 1757 1755 1676 
3 1754 1676 1756 
3 1676 1752 1758 
3 1758 1757 1676 
3 1677 1759 1729 
3 1679 1759 1677 
3 1680 1678 1754 
3 1760 1679 1680 
3 1679 1760 1761 
3 1679 1761 1759 
3 1680 1762 1760 
3 1762 1680 1763 
3 1763 1680 1754 
3 1764 1681 1682 
3 1681 1764 1683 
3 1764 1682 1765 
3 1682 1686 1765 
3 1683 1766 1767 
3 1764 1768 1683 
3 1768 1766 1683 
3 1767 1684 1683 
3 1769 1684 1767 
3 1769 1744 1684 
3 1770 1686 1685 
3 1770 1685 1705 
3 1771 1772 1686 
3 1686 1770 1771 
3 1765 1686 1772 
3 1688 1687 1721 
3 1688 1720 1689 
3 1721 1720 1688 
3 1689 1773 1691 
3 1689 1720 1773 
3 1698 1690 1692 
3 1691 1774 1692 
3 1773 1775 1691 
3 1775 1774 1691 
3 1774 1698 1692 
3 1695 1693 1694 
3 1699 1714 1694 
3 1695 1694 1697 
3 1713 1697 1694 
3 1698 1774 1699 
3 1699 1774 1714 
3 1709 1776 1700 
3 1701 1700 1776 
3 1702 1701 1777 
3 1776 1778 1701 
3 1701 1778 1779 
3 1779 1777 1701 
3 1777 1703 1702 
3 1780 1707 1703 
3 1704 1703 1707 
3 1780 1703 1777 
3 1705 1771 1770 
3 1771 1705 1781 
3 1706 1781 1705 
3 1781 1706 1782 
3 1783 1706 1707 
3 1782 1706 1784 
3 1783 1784 1706 
3 1707 1785 1786 
3 1785 1707 1780 
3 1786 1783 1707 
3 1708 1718 1710 
3 1709 1711 1776 
3 1787 1710 1718 
3 1710 1787 1788 
3 1712 1710 1788 
3 1711 1789 1778 
3 1778 1776 1711 
3 1711 1712 1789 
3 1790 1789 1712 
3 1712 1791 1790 
3 1712 1788 1791 
3 1714 1792 1715 
3 1714 1774 1792 
3 1792 1716 1715 
3 1716 1793 1717 
3 1793 1716 1792 
3 1794 1795 1717 
3 1717 1793 1794 
3 1719 1717 1795 
3 1787 1718 1719 
3 1719 1795 1796 
3 1787 1719 1796 
3 1773 1720 1722 
3 1722 1797 1773 
3 1723 1798 1722 
3 1799 1797 1722 
3 1798 1799 1722 
3 1723 1724 1800 
3 1798 1723 1801 
3 1800 1801 1723 
3 1802 1724 1725 
3 1802 1800 1724 
3 1803 1802 1725 
3 1725 1804 1803 
3 1804 1725 1728 
3 1726 1805 1728 
3 1726 1740 1805 
3 1728 1805 1806 
3 1728 1807 1804 
3 1728 1806 1807 
3 1808 1730 1729 
3 1759 1809 1729 
3 1808 1729 1809 
3 1730 1810 1738 
3 1808 1810 1730 
3 1811 1736 1731 
3 1812 1731 1733 
3 1731 1813 1811 
3 1813 1731 1812 
3 1742 1733 1732 
3 1814 1733 1741 
3 1733 1815 1812 
3 1733 1816 1815 
3 1733 1742 1741 
3 1733 1814 1816 
3 1739 1734 1806 
3 1817 1806 1734 
3 1817 1734 1818 
3 1734 1737 1818 
3 1736 1819 1735 
3 1820 1737 1735 
3 1735 1821 1822 
3 1822 1820 1735 
3 1735 1819 1821 
3 1819 1736 1811 
3 1823 1737 1820 
3 1818 1737 1823 
3 1738 1810 1824 
3 1741 1738 1824 
3 1806 1805 1739 
3 1805 1740 1739 
3 1741 1809 1814 
3 1741 1824 1809 
3 1750 1743 1769 
3 1744 1769 1743 
3 1750 1825 1745 
3 1745 1825 1748 
3 1747 1826 1746 
3 1826 1827 1746 
3 1827 1828 1746 
3 1828 1829 1746 
3 1830 1751 1746 
3 1746 1831 1832 
3 1746 1833 1831 
3 1746 1832 1830 
3 1833 1746 1834 
3 1746 1829 1835 
3 1746 1835 1834 
3 1747 1749 1826 
3 1825 1749 1748 
3 1825 1826 1749 
3 1827 1825 1750 
3 1827 1750 1769 
3 1753 1751 1836 
3 1836 1751 1830 
3 1752 1753 1837 
3 1838 1752 1837 
3 1839 1758 1752 
3 1838 1839 1752 
3 1753 1836 1837 
3 1756 1763 1754 
3 1840 1756 1755 
3 1755 1757 1840 
3 1763 1756 1841 
3 1841 1756 1840 
3 1842 1757 1758 
3 1757 1842 1840 
3 1839 1842 1758 
3 1759 1761 1843 
3 1809 1759 1843 
3 1843 1760 1762 
3 1843 1761 1760 
3 1762 1814 1809 
3 1762 1809 1843 
3 1762 1841 1814 
3 1841 1762 1763 
3 1772 1844 1764 
3 1764 1765 1772 
3 1768 1764 1844 
3 1766 1845 1767 
3 1845 1766 1846 
3 1766 1768 1846 
3 1769 1767 1847 
3 1845 1848 1767 
3 1848 1847 1767 
3 1768 1849 1850 
3 1849 1768 1844 
3 1768 1850 1851 
3 1846 1768 1851 
3 1852 1769 1847 
3 1769 1828 1827 
3 1769 1852 1828 
3 1772 1771 1853 
3 1771 1854 1855 
3 1771 1781 1854 
3 1853 1771 1855 
3 1856 1857 1772 
3 1853 1856 1772 
3 1844 1772 1857 
3 1858 1775 1773 
3 1797 1858 1773 
3 1775 1792 1774 
3 1858 1859 1775 
3 1859 1792 1775 
3 1777 1860 1861 
3 1779 1862 1777 
3 1863 1777 1862 
3 1777 1863 1860 
3 1777 1861 1780 
3 1778 1789 1864 
3 1778 1864 1779 
3 1862 1779 1864 
3 1865 1785 1780 
3 1861 1865 1780 
3 1782 1854 1781 
3 1782 1784 1866 
3 1854 1782 1855 
3 1855 1782 1867 
3 1867 1782 1866 
3 1783 1786 1868 
3 1869 1784 1783 
3 1868 1869 1783 
3 1784 1869 1870 
3 1784 1870 1866 
3 1786 1785 1871 
3 1785 1865 1872 
3 1871 1785 1872 
3 1868 1786 1871 
3 1788 1787 1796 
3 1788 1796 1791 
3 1790 1873 1789 
3 1864 1789 1873 
3 1790 1791 1874 
3 1873 1790 1875 
3 1790 1874 1875 
3 1796 1795 1791 
3 1876 1791 1877 
3 1791 1795 1878 
3 1791 1878 1877 
3 1874 1791 1876 
3 1792 1859 1793 
3 1859 1879 1793 
3 1880 1794 1793 
3 1879 1880 1793 
3 1795 1794 1880 
3 1795 1880 1878 
3 1858 1797 1881 
3 1797 1882 1881 
3 1883 1882 1797 
3 1797 1799 1883 
3 1799 1798 1883 
3 1883 1798 1884 
3 1798 1801 1884 
3 1877 1801 1800 
3 1877 1800 1802 
3 1877 1884 1801 
3 1802 1885 1877 
3 1885 1802 1807 
3 1803 1807 1802 
3 1803 1804 1807 
3 1807 1806 1817 
3 1886 1885 1807 
3 1807 1887 1886 
3 1887 1807 1888 
3 1807 1817 1889 
3 1888 1807 1889 
3 1808 1824 1810 
3 1824 1808 1809 
3 1811 1890 1891 
3 1811 1892 1893 
3 1891 1819 1811 
3 1811 1813 1892 
3 1893 1890 1811 
3 1894 1812 1815 
3 1813 1812 1894 
3 1894 1895 1813 
3 1892 1813 1895 
3 1896 1814 1897 
3 1814 1896 1816 
3 1814 1841 1898 
3 1814 1898 1897 
3 1894 1815 1899 
3 1899 1815 1816 
3 1816 1900 1899 
3 1900 1816 1896 
3 1818 1889 1817 
3 1901 1902 1818 
3 1901 1818 1823 
3 1902 1889 1818 
3 1903 1904 1819 
3 1904 1821 1819 
3 1819 1905 1903 
3 1891 1905 1819 
3 1820 1906 1823 
3 1907 1820 1822 
3 1820 1907 1908 
3 1906 1820 1908 
3 1821 1904 1822 
3 1907 1822 1904 
3 1906 1901 1823 
3 1825 1827 1826 
3 1829 1828 1909 
3 1909 1828 1852 
3 1909 1835 1829 
3 1830 1832 1910 
3 1830 1910 1836 
3 1911 1832 1831 
3 1911 1831 1912 
3 1912 1831 1833 
3 1910 1832 1911 
3 1913 1833 1834 
3 1912 1833 1913 
3 1914 1913 1834 
3 1834 1835 1915 
3 1834 1915 1916 
3 1914 1834 1916 
3 1835 1852 1917 
3 1918 1915 1835 
3 1852 1835 1909 
3 1919 1920 1835 
3 1917 1919 1835 
3 1835 1920 1921 
3 1835 1921 1918 
3 1837 1836 1910 
3 1922 1837 1910 
3 1837 1922 1838 
3 1923 1839 1838 
3 1924 1925 1838 
3 1926 1924 1838 
3 1927 1926 1838 
3 1927 1838 1922 
3 1923 1838 1925 
3 1928 1839 1929 
3 1839 1928 1842 
3 1839 1923 1929 
3 1841 1840 1930 
3 1931 1930 1840 
3 1928 1840 1842 
3 1931 1840 1928 
3 1898 1841 1930 
3 1857 1849 1844 
3 1846 1848 1845 
3 1932 1848 1846 
3 1933 1932 1846 
3 1851 1933 1846 
3 1848 1932 1847 
3 1847 1932 1917 
3 1852 1847 1917 
3 1850 1849 1934 
3 1934 1849 1857 
3 1935 1850 1934 
3 1850 1935 1936 
3 1851 1850 1936 
3 1851 1937 1919 
3 1938 1937 1851 
3 1919 1933 1851 
3 1936 1938 1851 
3 1855 1856 1853 
3 1856 1855 1867 
3 1857 1856 1939 
3 1939 1856 1867 
3 1857 1939 1934 
3 1859 1858 1881 
3 1881 1879 1859 
3 1860 1865 1861 
3 1940 1872 1860 
3 1860 1872 1865 
3 1940 1860 1863 
3 1941 1862 1942 
3 1863 1862 1941 
3 1875 1942 1862 
3 1862 1873 1875 
3 1864 1873 1862 
3 1943 1863 1944 
3 1863 1943 1940 
3 1941 1944 1863 
3 1866 1869 1945 
3 1869 1866 1870 
3 1867 1866 1945 
3 1867 1946 1939 
3 1946 1867 1945 
3 1945 1869 1868 
3 1947 1948 1868 
3 1943 1868 1871 
3 1868 1943 1947 
3 1945 1868 1948 
3 1871 1940 1943 
3 1940 1871 1872 
3 1876 1949 1874 
3 1942 1875 1874 
3 1874 1949 1950 
3 1951 1874 1950 
3 1942 1874 1951 
3 1877 1885 1876 
3 1949 1876 1885 
3 1884 1877 1878 
3 1879 1878 1880 
3 1879 1884 1878 
3 1879 1882 1884 
3 1881 1882 1879 
3 1883 1884 1882 
3 1950 1885 1886 
3 1949 1885 1950 
3 1952 1950 1886 
3 1952 1886 1887 
3 1952 1887 1888 
3 1953 1952 1888 
3 1888 1902 1901 
3 1902 1888 1889 
3 1953 1888 1901 
3 1954 1891 1890 
3 1890 1955 1954 
3 1955 1890 1893 
3 1905 1891 1908 
3 1954 1908 1891 
3 1956 1893 1892 
3 1892 1895 1957 
3 1957 1900 1892 
3 1956 1892 1900 
3 1958 1955 1893 
3 1959 1958 1893 
3 1959 1893 1956 
3 1895 1894 1899 
3 1957 1895 1899 
3 1960 1896 1897 
3 1961 1896 1960 
3 1900 1896 1961 
3 1897 1898 1962 
3 1897 1962 1963 
3 1897 1963 1960 
3 1898 1930 1962 
3 1899 1900 1957 
3 1961 1956 1900 
3 1901 1964 1953 
3 1964 1901 1906 
3 1907 1904 1903 
3 1903 1905 1907 
3 1907 1905 1908 
3 1906 1965 1964 
3 1965 1906 1954 
3 1908 1954 1906 
3 1922 1910 1911 
3 1922 1911 1966 
3 1966 1911 1912 
3 1912 1967 1966 
3 1913 1967 1912 
3 1968 1913 1969 
3 1968 1967 1913 
3 1913 1914 1969 
3 1914 1916 1970 
3 1969 1914 1970 
3 1918 1971 1915 
3 1915 1972 1973 
3 1971 1972 1915 
3 1915 1974 1916 
3 1974 1915 1973 
3 1974 1970 1916 
3 1932 1975 1917 
3 1933 1917 1975 
3 1919 1917 1933 
3 1921 1976 1918 
3 1918 1976 1971 
3 1920 1919 1937 
3 1977 1978 1920 
3 1920 1937 1977 
3 1920 1978 1921 
3 1976 1921 1978 
3 1979 1927 1922 
3 1966 1980 1922 
3 1922 1980 1979 
3 1929 1923 1925 
3 1925 1924 1981 
3 1981 1924 1926 
3 1925 1982 1983 
3 1984 1982 1925 
3 1983 1929 1925 
3 1984 1925 1981 
3 1926 1927 1985 
3 1985 1981 1926 
3 1979 1986 1927 
3 1985 1927 1986 
3 1928 1929 1987 
3 1928 1988 1931 
3 1987 1988 1928 
3 1987 1929 1963 
3 1983 1989 1929 
3 1929 1989 1990 
3 1990 1963 1929 
3 1962 1930 1987 
3 1930 1931 1987 
3 1987 1931 1988 
3 1933 1975 1932 
3 1934 1991 1935 
3 1934 1939 1991 
3 1935 1991 1936 
3 1936 1992 1993 
3 1977 1938 1936 
3 1936 1994 1977 
3 1992 1936 1991 
3 1994 1936 1993 
3 1937 1938 1977 
3 1991 1939 1946 
3 1995 1941 1942 
3 1941 1996 1944 
3 1995 1996 1941 
3 1942 1951 1995 
3 1944 1997 1943 
3 1998 1947 1943 
3 1943 1997 1998 
3 1944 1999 1997 
3 1996 1999 1944 
3 1945 1948 2000 
3 1946 1945 2001 
3 2001 1945 2000 
3 2002 1946 2003 
3 1946 2001 2004 
3 1946 2002 1991 
3 2004 2003 1946 
3 2005 1948 1947 
3 1947 2006 2007 
3 1947 1998 2006 
3 2005 1947 2007 
3 2000 1948 2005 
3 1995 1950 1953 
3 1995 1951 1950 
3 1953 1950 1952 
3 1953 1999 1996 
3 1996 1995 1953 
3 1953 2008 2009 
3 1953 2009 1999 
3 1964 2008 1953 
3 2010 1965 1954 
3 1954 2011 2010 
3 2012 2011 1954 
3 1955 2013 1954 
3 2012 1954 2013 
3 2013 1955 1958 
3 1959 1956 2014 
3 1956 1961 2014 
3 1958 2015 2013 
3 2015 1958 2016 
3 2016 1958 1959 
3 2017 1959 2018 
3 2017 2016 1959 
3 2014 2019 1959 
3 2018 1959 2019 
3 1960 1963 2020 
3 1960 2021 1961 
3 1960 2020 2021 
3 2021 2014 1961 
3 1963 1962 1987 
3 2020 1963 1990 
3 2008 1964 1965 
3 1965 2010 2022 
3 1965 2022 2008 
3 2023 1966 1967 
3 1966 2023 1980 
3 1967 2024 2023 
3 2024 1967 1968 
3 1969 2025 1968 
3 1968 2026 2024 
3 2025 2026 1968 
3 2025 1969 2027 
3 1969 2028 2027 
3 1969 2029 2030 
3 1969 1970 2031 
3 2032 2029 1969 
3 2033 2028 1969 
3 2034 2035 1969 
3 1969 2031 2032 
3 2036 2034 1969 
3 2030 2037 1969 
3 1969 2037 2036 
3 2033 1969 2035 
3 2038 2039 1970 
3 2039 2031 1970 
3 2038 1970 1974 
3 2040 1971 2041 
3 1971 1976 2041 
3 1972 1971 2042 
3 2042 1971 2040 
3 2042 1973 1972 
3 1973 2042 2043 
3 1973 2043 1974 
3 1974 2043 2038 
3 2044 1976 2045 
3 1978 2045 1976 
3 2041 1976 2044 
3 1977 2045 1978 
3 2044 2045 1977 
3 1994 2044 1977 
3 1986 1979 1980 
3 1980 2046 2047 
3 2048 1980 2026 
3 2049 1980 2048 
3 2047 1986 1980 
3 1980 2023 2024 
3 1980 2024 2026 
3 2046 1980 2049 
3 1981 1985 1984 
3 2050 1983 1982 
3 2051 2050 1982 
3 1984 2051 1982 
3 1989 1983 2050 
3 1984 2052 2053 
3 2053 2051 1984 
3 2054 1984 1985 
3 2054 2052 1984 
3 2054 1985 1986 
3 2054 1986 2047 
3 2055 1990 1989 
3 2056 2055 1989 
3 1989 2050 2051 
3 1989 2051 2053 
3 2053 2056 1989 
3 2055 2020 1990 
3 1991 2057 1992 
3 1991 2002 2057 
3 1993 1992 2058 
3 2058 1992 2057 
3 1993 2059 2060 
3 2061 2062 1993 
3 1993 2063 2061 
3 2058 2063 1993 
3 2062 2064 1993 
3 2059 1993 2064 
3 1993 2060 1994 
3 2044 1994 2060 
3 1997 1999 2065 
3 2065 1998 1997 
3 2066 2006 1998 
3 1998 2065 2066 
3 1999 2009 2065 
3 2005 2067 2000 
3 2001 2000 2067 
3 2067 2068 2001 
3 2069 2004 2001 
3 2070 2001 2068 
3 2001 2070 2069 
3 2002 2003 2071 
3 2002 2071 2072 
3 2072 2057 2002 
3 2073 2003 2004 
3 2003 2074 2071 
3 2003 2075 2074 
3 2076 2003 2073 
3 2077 2003 2076 
3 2075 2003 2077 
3 2004 2069 2073 
3 2005 2007 2068 
3 2067 2005 2068 
3 2007 2006 2078 
3 2078 2006 2066 
3 2079 2068 2007 
3 2007 2078 2079 
3 2008 2080 2009 
3 2080 2008 2022 
3 2065 2009 2081 
3 2080 2081 2009 
3 2011 2082 2010 
3 2022 2010 2082 
3 2082 2011 2012 
3 2083 2012 2013 
3 2080 2082 2012 
3 2012 2083 2080 
3 2083 2013 2084 
3 2084 2013 2015 
3 2021 2019 2014 
3 2085 2015 2016 
3 2084 2015 2085 
3 2016 2017 2086 
3 2086 2085 2016 
3 2018 2087 2017 
3 2088 2089 2017 
3 2090 2086 2017 
3 2090 2017 2089 
3 2017 2087 2088 
3 2019 2091 2018 
3 2087 2018 2091 
3 2019 2021 2020 
3 2055 2091 2019 
3 2020 2055 2019 
3 2080 2022 2082 
3 2027 2092 2025 
3 2026 2025 2093 
3 2093 2025 2094 
3 2094 2025 2092 
3 2048 2026 2095 
3 2026 2093 2095 
3 2094 2092 2027 
3 2094 2027 2028 
3 2028 2033 2094 
3 2096 2030 2029 
3 2096 2029 2032 
3 2097 2030 2096 
3 2098 2030 2097 
3 2037 2030 2098 
3 2032 2031 2096 
3 2031 2039 2096 
3 2099 2094 2033 
3 2100 2033 2035 
3 2099 2033 2100 
3 2101 2035 2034 
3 2034 2036 2102 
3 2103 2101 2034 
3 2034 2104 2103 
3 2105 2034 2102 
3 2106 2104 2034 
3 2106 2034 2105 
3 2035 2107 2100 
3 2107 2035 2108 
3 2101 2108 2035 
3 2098 2102 2036 
3 2098 2036 2037 
3 2039 2038 2096 
3 2109 2038 2043 
3 2038 2109 2110 
3 2038 2110 2111 
3 2096 2038 2111 
3 2041 2112 2040 
3 2040 2112 2113 
3 2114 2115 2040 
3 2115 2042 2040 
3 2114 2040 2113 
3 2041 2044 2060 
3 2112 2041 2060 
3 2043 2042 2109 
3 2110 2109 2042 
3 2115 2110 2042 
3 2047 2046 2116 
3 2049 2116 2046 
3 2116 2054 2047 
3 2095 2049 2048 
3 2116 2049 2117 
3 2049 2118 2119 
3 2118 2049 2095 
3 2119 2117 2049 
3 2120 2053 2052 
3 2121 2052 2054 
3 2120 2052 2121 
3 2053 2120 2056 
3 2122 2054 2117 
3 2121 2054 2122 
3 2054 2116 2117 
3 2091 2055 2123 
3 2123 2055 2056 
3 2124 2123 2056 
3 2120 2125 2056 
3 2126 2124 2056 
3 2056 2127 2126 
3 2056 2125 2128 
3 2056 2128 2127 
3 2057 2072 2129 
3 2063 2057 2129 
3 2058 2057 2063 
3 2060 2059 2112 
3 2059 2113 2112 
3 2059 2064 2130 
3 2130 2131 2059 
3 2114 2059 2131 
3 2114 2113 2059 
3 2062 2061 2132 
3 2061 2129 2132 
3 2063 2129 2061 
3 2133 2062 2134 
3 2132 2134 2062 
3 2135 2064 2062 
3 2135 2062 2133 
3 2130 2064 2135 
3 2081 2066 2065 
3 2066 2081 2136 
3 2136 2078 2066 
3 2137 2138 2068 
3 2068 2139 2070 
3 2068 2140 2137 
3 2140 2068 2079 
3 2138 2139 2068 
3 2069 2070 2141 
3 2142 2073 2069 
3 2069 2141 2143 
3 2069 2143 2144 
3 2069 2144 2142 
3 2070 2139 2138 
3 2070 2138 2145 
3 2070 2146 2141 
3 2145 2146 2070 
3 2147 2148 2071 
3 2148 2072 2071 
3 2074 2147 2071 
3 2132 2129 2072 
3 2148 2149 2072 
3 2072 2149 2134 
3 2134 2132 2072 
3 2142 2076 2073 
3 2074 2075 2150 
3 2150 2147 2074 
3 2077 2151 2075 
3 2151 2150 2075 
3 2152 2076 2142 
3 2076 2151 2077 
3 2076 2152 2153 
3 2076 2153 2151 
3 2154 2078 2136 
3 2078 2154 2079 
3 2079 2154 2140 
3 2080 2155 2136 
3 2081 2080 2136 
3 2155 2080 2083 
3 2084 2156 2083 
3 2083 2156 2157 
3 2158 2155 2083 
3 2158 2083 2157 
3 2085 2156 2084 
3 2159 2085 2086 
3 2159 2156 2085 
3 2086 2160 2159 
3 2086 2090 2160 
3 2091 2123 2087 
3 2087 2123 2088 
3 2124 2089 2088 
3 2123 2124 2088 
3 2090 2089 2161 
3 2162 2089 2124 
3 2161 2089 2163 
3 2163 2089 2162 
3 2164 2090 2161 
3 2160 2090 2164 
3 2093 2094 2165 
3 2165 2095 2093 
3 2166 2094 2099 
3 2165 2094 2166 
3 2167 2095 2165 
3 2095 2167 2118 
3 2168 2097 2096 
3 2096 2111 2168 
3 2168 2169 2097 
3 2097 2169 2170 
3 2097 2170 2098 
3 2098 2171 2172 
3 2098 2170 2171 
3 2173 2098 2172 
3 2102 2098 2173 
3 2174 2166 2099 
3 2174 2099 2100 
3 2107 2175 2100 
3 2175 2176 2100 
3 2174 2100 2176 
3 2177 2108 2101 
3 2177 2101 2178 
3 2178 2101 2103 
3 2105 2102 2173 
3 2104 2179 2103 
3 2103 2179 2178 
3 2179 2104 2106 
3 2180 2181 2105 
3 2105 2182 2180 
3 2106 2105 2181 
3 2105 2173 2182 
3 2181 2178 2106 
3 2178 2179 2106 
3 2108 2177 2107 
3 2183 2175 2107 
3 2177 2178 2107 
3 2184 2183 2107 
3 2107 2178 2184 
3 2185 2111 2110 
3 2110 2115 2185 
3 2111 2185 2168 
3 2186 2115 2114 
3 2187 2188 2114 
3 2188 2186 2114 
3 2114 2131 2187 
3 2185 2115 2186 
3 2117 2119 2122 
3 2119 2118 2189 
3 2189 2118 2167 
3 2190 2122 2119 
3 2190 2119 2189 
3 2125 2120 2121 
3 2128 2121 2122 
3 2128 2125 2121 
3 2122 2190 2128 
3 2191 2162 2124 
3 2191 2124 2126 
3 2126 2192 2191 
3 2193 2192 2126 
3 2126 2127 2193 
3 2194 2127 2128 
3 2127 2195 2193 
3 2195 2127 2194 
3 2190 2196 2128 
3 2194 2128 2196 
3 2187 2131 2130 
3 2130 2135 2197 
3 2197 2187 2130 
3 2134 2149 2133 
3 2198 2133 2149 
3 2199 2200 2133 
3 2199 2133 2198 
3 2201 2133 2200 
3 2133 2197 2135 
3 2197 2133 2201 
3 2154 2136 2155 
3 2138 2137 2202 
3 2137 2140 2203 
3 2202 2137 2203 
3 2145 2138 2202 
3 2140 2154 2203 
3 2204 2205 2141 
3 2205 2143 2141 
3 2141 2146 2204 
3 2142 2144 2206 
3 2142 2207 2152 
3 2207 2142 2206 
3 2205 2208 2143 
3 2209 2143 2208 
3 2209 2144 2143 
3 2210 2206 2144 
3 2210 2144 2209 
3 2146 2145 2211 
3 2211 2145 2202 
3 2212 2213 2146 
3 2146 2211 2212 
3 2204 2146 2214 
3 2214 2146 2213 
3 2149 2148 2147 
3 2149 2147 2198 
3 2198 2147 2150 
3 2150 2215 2198 
3 2150 2151 2153 
3 2150 2153 2215 
3 2215 2153 2152 
3 2215 2152 2207 
3 2154 2155 2203 
3 2155 2158 2216 
3 2203 2155 2216 
3 2159 2157 2156 
3 2157 2216 2158 
3 2157 2159 2216 
3 2217 2218 2159 
3 2159 2218 2219 
3 2219 2216 2159 
3 2217 2159 2160 
3 2160 2220 2217 
3 2221 2222 2160 
3 2160 2222 2220 
3 2221 2160 2164 
3 2164 2161 2223 
3 2223 2161 2224 
3 2224 2161 2163 
3 2163 2162 2191 
3 2225 2163 2191 
3 2226 2224 2163 
3 2163 2227 2226 
3 2225 2227 2163 
3 2164 2228 2221 
3 2229 2164 2223 
3 2230 2164 2231 
3 2230 2228 2164 
3 2231 2164 2229 
3 2166 2232 2165 
3 2165 2233 2167 
3 2165 2232 2234 
3 2234 2233 2165 
3 2166 2174 2235 
3 2236 2232 2166 
3 2237 2166 2235 
3 2166 2237 2236 
3 2167 2238 2239 
3 2238 2167 2233 
3 2239 2189 2167 
3 2169 2168 2185 
3 2169 2240 2170 
3 2240 2169 2185 
3 2241 2171 2170 
3 2242 2170 2240 
3 2242 2241 2170 
3 2172 2171 2241 
3 2172 2241 2243 
3 2243 2173 2172 
3 2243 2244 2173 
3 2182 2173 2244 
3 2176 2235 2174 
3 2175 2183 2245 
3 2246 2176 2175 
3 2175 2245 2246 
3 2176 2246 2235 
3 2178 2247 2248 
3 2249 2247 2178 
3 2181 2249 2178 
3 2184 2178 2248 
3 2181 2180 2250 
3 2182 2251 2180 
3 2250 2180 2251 
3 2252 2249 2181 
3 2250 2252 2181 
3 2244 2251 2182 
3 2245 2183 2253 
3 2184 2253 2183 
3 2248 2254 2184 
3 2255 2256 2184 
3 2255 2184 2254 
3 2253 2184 2256 
3 2185 2186 2240 
3 2257 2186 2188 
3 2186 2257 2240 
3 2188 2187 2197 
3 2258 2259 2188 
3 2258 2188 2197 
3 2260 2188 2259 
3 2188 2260 2257 
3 2196 2190 2189 
3 2261 2189 2239 
3 2189 2261 2262 
3 2189 2262 2196 
3 2191 2192 2225 
3 2192 2263 2225 
3 2263 2192 2264 
3 2265 2264 2192 
3 2192 2193 2265 
3 2193 2195 2266 
3 2193 2266 2265 
3 2194 2196 2195 
3 2196 2267 2195 
3 2266 2195 2267 
3 2196 2268 2267 
3 2262 2268 2196 
3 2201 2269 2197 
3 2269 2270 2197 
3 2271 2197 2270 
3 2271 2258 2197 
3 2215 2272 2198 
3 2272 2199 2198 
3 2200 2199 2272 
3 2201 2200 2273 
3 2200 2272 2273 
3 2269 2201 2274 
3 2201 2273 2275 
3 2201 2275 2274 
3 2203 2212 2202 
3 2211 2202 2212 
3 2203 2216 2219 
3 2276 2212 2203 
3 2203 2219 2276 
3 2208 2205 2204 
3 2208 2204 2214 
3 2277 2206 2210 
3 2207 2206 2277 
3 2278 2207 2277 
3 2278 2279 2207 
3 2215 2207 2279 
3 2209 2208 2214 
3 2210 2209 2280 
3 2280 2209 2214 
3 2210 2280 2281 
3 2210 2282 2283 
3 2283 2277 2210 
3 2210 2281 2282 
3 2213 2212 2284 
3 2285 2212 2276 
3 2284 2212 2285 
3 2214 2213 2280 
3 2286 2280 2213 
3 2287 2213 2284 
3 2287 2288 2213 
3 2213 2288 2286 
3 2272 2215 2279 
3 2289 2218 2217 
3 2289 2217 2220 
3 2218 2289 2219 
3 2285 2219 2289 
3 2276 2219 2285 
3 2220 2222 2285 
3 2285 2289 2220 
3 2222 2221 2290 
3 2221 2228 2291 
3 2291 2290 2221 
3 2290 2285 2222 
3 2229 2223 2224 
3 2224 2226 2229 
3 2227 2225 2263 
3 2292 2226 2227 
3 2292 2229 2226 
3 2227 2293 2292 
3 2293 2227 2263 
3 2294 2291 2228 
3 2294 2228 2230 
3 2229 2292 2295 
3 2295 2231 2229 
3 2231 2295 2230 
3 2296 2294 2230 
3 2296 2230 2292 
3 2230 2295 2292 
3 2234 2232 2236 
3 2233 2297 2238 
3 2297 2233 2234 
3 2236 2298 2234 
3 2234 2299 2300 
3 2298 2301 2234 
3 2301 2299 2234 
3 2234 2300 2297 
3 2237 2235 2246 
3 2298 2236 2237 
3 2237 2246 2245 
3 2302 2303 2237 
3 2237 2245 2302 
3 2304 2237 2303 
3 2237 2305 2298 
3 2304 2306 2237 
3 2305 2237 2306 
3 2239 2238 2307 
3 2308 2238 2309 
3 2309 2238 2297 
3 2308 2307 2238 
3 2307 2261 2239 
3 2240 2257 2260 
3 2242 2240 2260 
3 2242 2243 2241 
3 2244 2243 2242 
3 2310 2244 2242 
3 2242 2260 2310 
3 2311 2251 2244 
3 2311 2244 2312 
3 2313 2312 2244 
3 2313 2244 2310 
3 2253 2302 2245 
3 2247 2314 2248 
3 2314 2247 2249 
3 2248 2314 2252 
3 2248 2252 2254 
3 2314 2249 2252 
3 2315 2252 2250 
3 2251 2311 2250 
3 2316 2250 2311 
3 2317 2250 2316 
3 2250 2317 2315 
3 2318 2254 2252 
3 2315 2318 2252 
3 2253 2319 2302 
3 2319 2253 2256 
3 2320 2254 2318 
3 2255 2254 2320 
3 2256 2255 2321 
3 2322 2255 2320 
3 2322 2321 2255 
3 2323 2319 2256 
3 2324 2256 2321 
3 2323 2256 2324 
3 2259 2258 2325 
3 2258 2271 2325 
3 2259 2325 2260 
3 2325 2326 2260 
3 2260 2326 2327 
3 2310 2260 2327 
3 2268 2262 2261 
3 2328 2329 2261 
3 2268 2261 2330 
3 2261 2329 2330 
3 2331 2261 2332 
3 2331 2328 2261 
3 2307 2332 2261 
3 2333 2293 2263 
3 2263 2334 2333 
3 2335 2334 2263 
3 2264 2335 2263 
3 2336 2264 2337 
3 2264 2265 2337 
3 2336 2338 2264 
3 2339 2264 2338 
3 2264 2339 2335 
3 2266 2340 2265 
3 2265 2340 2337 
3 2267 2341 2266 
3 2266 2341 2340 
3 2341 2267 2340 
3 2268 2340 2267 
3 2268 2330 2342 
3 2340 2268 2342 
3 2274 2343 2269 
3 2344 2270 2269 
3 2345 2269 2343 
3 2345 2344 2269 
3 2271 2270 2346 
3 2344 2346 2270 
3 2347 2271 2346 
3 2271 2348 2326 
3 2349 2348 2271 
3 2271 2347 2349 
3 2271 2326 2325 
3 2279 2273 2272 
3 2350 2275 2273 
3 2350 2273 2279 
3 2351 2343 2274 
3 2274 2275 2350 
3 2274 2350 2351 
3 2277 2283 2278 
3 2279 2278 2283 
3 2352 2279 2283 
3 2350 2279 2352 
3 2281 2280 2286 
3 2353 2354 2281 
3 2281 2355 2353 
3 2281 2286 2355 
3 2282 2281 2354 
3 2282 2356 2283 
3 2356 2282 2354 
3 2352 2283 2356 
3 2285 2287 2284 
3 2287 2285 2357 
3 2285 2290 2357 
3 2288 2355 2286 
3 2358 2287 2357 
3 2288 2287 2358 
3 2355 2288 2359 
3 2359 2288 2358 
3 2357 2290 2291 
3 2291 2360 2357 
3 2294 2360 2291 
3 2293 2333 2292 
3 2292 2361 2296 
3 2333 2361 2292 
3 2294 2362 2360 
3 2363 2362 2294 
3 2294 2364 2363 
3 2296 2364 2294 
3 2364 2296 2365 
3 2365 2296 2366 
3 2296 2361 2366 
3 2309 2297 2300 
3 2367 2298 2305 
3 2367 2301 2298 
3 2368 2300 2299 
3 2369 2368 2299 
3 2370 2299 2371 
3 2372 2299 2370 
3 2299 2301 2371 
3 2369 2299 2372 
3 2300 2368 2373 
3 2300 2373 2374 
3 2374 2309 2300 
3 2301 2367 2371 
3 2303 2302 2375 
3 2375 2302 2319 
3 2303 2376 2304 
3 2375 2376 2303 
3 2376 2377 2304 
3 2377 2306 2304 
3 2305 2306 2378 
3 2305 2378 2371 
3 2371 2367 2305 
3 2378 2306 2379 
3 2306 2380 2379 
3 2306 2377 2380 
3 2381 2332 2307 
3 2307 2308 2381 
3 2309 2382 2308 
3 2382 2381 2308 
3 2309 2374 2382 
3 2383 2384 2310 
3 2327 2385 2310 
3 2386 2310 2385 
3 2310 2384 2313 
3 2310 2386 2383 
3 2387 2316 2311 
3 2312 2387 2311 
3 2313 2387 2312 
3 2388 2387 2313 
3 2389 2388 2313 
3 2389 2313 2384 
3 2318 2315 2390 
3 2390 2315 2317 
3 2316 2387 2391 
3 2317 2316 2392 
3 2392 2316 2391 
3 2393 2317 2392 
3 2393 2394 2317 
3 2317 2394 2395 
3 2395 2390 2317 
3 2322 2320 2318 
3 2322 2318 2390 
3 2319 2323 2375 
3 2321 2396 2324 
3 2322 2397 2321 
3 2398 2396 2321 
3 2398 2321 2397 
3 2322 2390 2399 
3 2399 2400 2322 
3 2400 2397 2322 
3 2375 2323 2401 
3 2323 2402 2401 
3 2323 2403 2404 
3 2405 2323 2324 
3 2403 2323 2405 
3 2323 2404 2402 
3 2406 2405 2324 
3 2406 2324 2396 
3 2326 2407 2327 
3 2326 2348 2407 
3 2327 2407 2408 
3 2408 2385 2327 
3 2329 2328 2409 
3 2328 2410 2409 
3 2411 2328 2412 
3 2328 2331 2412 
3 2410 2328 2411 
3 2409 2330 2329 
3 2409 2342 2330 
3 2332 2413 2331 
3 2331 2413 2412 
3 2381 2414 2332 
3 2332 2414 2415 
3 2413 2332 2415 
3 2366 2361 2333 
3 2333 2334 2416 
3 2416 2366 2333 
3 2334 2417 2416 
3 2417 2334 2335 
3 2417 2335 2339 
3 2342 2336 2337 
3 2418 2338 2336 
3 2419 2418 2336 
3 2420 2419 2336 
3 2336 2342 2420 
3 2342 2337 2340 
3 2339 2338 2418 
3 2421 2417 2339 
3 2421 2339 2422 
3 2423 2424 2339 
3 2424 2422 2339 
3 2339 2425 2423 
3 2425 2339 2418 
3 2409 2420 2342 
3 2343 2351 2426 
3 2426 2427 2343 
3 2345 2343 2427 
3 2346 2344 2345 
3 2345 2428 2347 
3 2347 2346 2345 
3 2345 2427 2428 
3 2429 2430 2347 
3 2347 2428 2429 
3 2349 2347 2430 
3 2407 2348 2349 
3 2407 2349 2430 
3 2352 2351 2350 
3 2352 2431 2351 
3 2351 2431 2426 
3 2356 2432 2352 
3 2431 2352 2432 
3 2433 2354 2353 
3 2434 2435 2353 
3 2353 2355 2434 
3 2433 2353 2435 
3 2356 2354 2433 
3 2355 2359 2434 
3 2436 2432 2356 
3 2437 2436 2356 
3 2438 2356 2433 
3 2356 2438 2437 
3 2360 2358 2357 
3 2439 2440 2358 
3 2358 2440 2359 
3 2439 2358 2360 
3 2434 2359 2440 
3 2439 2360 2362 
3 2362 2363 2439 
3 2441 2442 2363 
3 2443 2363 2364 
3 2444 2441 2363 
3 2363 2442 2439 
3 2363 2445 2444 
3 2443 2445 2363 
3 2364 2446 2443 
3 2365 2446 2364 
3 2446 2365 2447 
3 2366 2447 2365 
3 2447 2366 2448 
3 2448 2366 2421 
3 2366 2416 2421 
3 2369 2373 2368 
3 2382 2373 2369 
3 2369 2449 2450 
3 2415 2414 2369 
3 2415 2369 2413 
3 2451 2369 2452 
3 2382 2369 2414 
3 2369 2372 2452 
3 2451 2449 2369 
3 2413 2369 2450 
3 2370 2371 2378 
3 2372 2370 2453 
3 2379 2370 2378 
3 2379 2454 2370 
3 2453 2370 2454 
3 2372 2453 2452 
3 2382 2374 2373 
3 2376 2375 2401 
3 2455 2456 2376 
3 2376 2401 2455 
3 2456 2380 2376 
3 2380 2377 2376 
3 2457 2379 2380 
3 2379 2457 2458 
3 2458 2454 2379 
3 2456 2459 2380 
3 2457 2380 2459 
3 2414 2381 2382 
3 2389 2384 2383 
3 2383 2460 2389 
3 2383 2386 2461 
3 2461 2460 2383 
3 2385 2408 2386 
3 2462 2463 2386 
3 2386 2408 2464 
3 2462 2386 2464 
3 2461 2386 2463 
3 2388 2391 2387 
3 2391 2388 2389 
3 2389 2465 2392 
3 2465 2389 2460 
3 2391 2389 2392 
3 2399 2390 2395 
3 2466 2392 2465 
3 2467 2392 2466 
3 2392 2467 2393 
3 2394 2393 2467 
3 2468 2394 2467 
3 2394 2468 2395 
3 2395 2468 2399 
3 2406 2396 2398 
3 2397 2469 2398 
3 2469 2397 2470 
3 2470 2397 2400 
3 2398 2469 2406 
3 2471 2399 2468 
3 2472 2399 2471 
3 2473 2399 2472 
3 2474 2475 2399 
3 2476 2400 2399 
3 2475 2477 2399 
3 2399 2473 2474 
3 2476 2399 2477 
3 2470 2400 2478 
3 2400 2479 2478 
3 2479 2400 2476 
3 2480 2455 2401 
3 2480 2401 2481 
3 2481 2401 2402 
3 2404 2481 2402 
3 2482 2404 2403 
3 2403 2405 2482 
3 2404 2483 2484 
3 2404 2485 2483 
3 2404 2482 2486 
3 2481 2404 2484 
3 2486 2485 2404 
3 2406 2482 2405 
3 2482 2406 2487 
3 2469 2487 2406 
3 2408 2407 2430 
3 2430 2488 2408 
3 2464 2408 2488 
3 2420 2409 2489 
3 2410 2489 2409 
3 2489 2410 2490 
3 2491 2490 2410 
3 2410 2492 2491 
3 2493 2492 2410 
3 2411 2493 2410 
3 2412 2494 2411 
3 2495 2496 2411 
3 2411 2496 2493 
3 2411 2494 2497 
3 2498 2495 2411 
3 2497 2499 2411 
3 2498 2411 2499 
3 2412 2413 2494 
3 2450 2494 2413 
3 2416 2417 2421 
3 2418 2419 2500 
3 2501 2425 2418 
3 2418 2500 2501 
3 2500 2419 2420 
3 2420 2502 2500 
3 2502 2420 2489 
3 2421 2503 2448 
3 2421 2422 2504 
3 2505 2506 2421 
3 2504 2507 2421 
3 2506 2503 2421 
3 2505 2421 2507 
3 2504 2422 2424 
3 2508 2424 2423 
3 2508 2423 2509 
3 2509 2423 2425 
3 2504 2424 2508 
3 2425 2510 2509 
3 2510 2425 2501 
3 2511 2426 2431 
3 2427 2426 2511 
3 2427 2511 2428 
3 2428 2511 2512 
3 2428 2513 2429 
3 2428 2512 2513 
3 2430 2429 2514 
3 2429 2515 2516 
3 2429 2513 2515 
3 2514 2429 2516 
3 2488 2430 2517 
3 2514 2517 2430 
3 2518 2519 2431 
3 2431 2432 2436 
3 2518 2431 2437 
3 2436 2437 2431 
3 2511 2431 2519 
3 2520 2438 2433 
3 2521 2520 2433 
3 2521 2433 2435 
3 2521 2435 2434 
3 2434 2440 2442 
3 2522 2434 2442 
3 2434 2523 2524 
3 2524 2525 2434 
3 2523 2434 2522 
3 2434 2525 2521 
3 2526 2518 2437 
3 2526 2437 2438 
3 2527 2528 2438 
3 2528 2526 2438 
3 2527 2438 2520 
3 2442 2440 2439 
3 2522 2442 2441 
3 2522 2441 2523 
3 2523 2441 2444 
3 2446 2529 2443 
3 2443 2529 2530 
3 2531 2445 2443 
3 2531 2443 2532 
3 2532 2443 2530 
3 2445 2531 2444 
3 2444 2531 2533 
3 2523 2444 2533 
3 2446 2447 2529 
3 2447 2448 2529 
3 2534 2529 2448 
3 2503 2534 2448 
3 2494 2450 2449 
3 2449 2451 2535 
3 2494 2449 2535 
3 2451 2452 2536 
3 2451 2536 2537 
3 2535 2451 2538 
3 2538 2451 2537 
3 2536 2452 2453 
3 2539 2536 2453 
3 2454 2539 2453 
3 2458 2539 2454 
3 2459 2456 2455 
3 2455 2480 2540 
3 2540 2459 2455 
3 2458 2457 2541 
3 2542 2543 2457 
3 2541 2457 2543 
3 2459 2542 2457 
3 2541 2544 2458 
3 2458 2537 2539 
3 2537 2458 2544 
3 2542 2459 2540 
3 2460 2461 2545 
3 2545 2465 2460 
3 2463 2546 2461 
3 2461 2546 2547 
3 2545 2461 2547 
3 2463 2462 2548 
3 2464 2548 2462 
3 2546 2463 2548 
3 2464 2549 2548 
3 2488 2550 2464 
3 2464 2550 2549 
3 2545 2551 2465 
3 2551 2552 2465 
3 2466 2465 2552 
3 2468 2467 2466 
3 2466 2553 2468 
3 2552 2553 2466 
3 2468 2553 2554 
3 2468 2554 2555 
3 2555 2556 2468 
3 2468 2556 2471 
3 2469 2557 2487 
3 2470 2557 2469 
3 2478 2558 2470 
3 2470 2558 2559 
3 2559 2557 2470 
3 2471 2556 2560 
3 2471 2560 2472 
3 2473 2472 2561 
3 2472 2560 2555 
3 2562 2561 2472 
3 2472 2555 2562 
3 2563 2564 2473 
3 2561 2565 2473 
3 2566 2473 2565 
3 2566 2563 2473 
3 2473 2564 2567 
3 2474 2473 2567 
3 2474 2568 2475 
3 2569 2474 2570 
3 2569 2568 2474 
3 2474 2567 2570 
3 2571 2477 2475 
3 2571 2475 2568 
3 2476 2571 2479 
3 2476 2477 2571 
3 2572 2478 2573 
3 2572 2558 2478 
3 2573 2478 2479 
3 2574 2575 2479 
3 2573 2479 2576 
3 2577 2576 2479 
3 2479 2571 2578 
3 2577 2479 2575 
3 2578 2574 2479 
3 2540 2480 2579 
3 2481 2579 2480 
3 2580 2481 2484 
3 2580 2579 2481 
3 2487 2581 2482 
3 2486 2482 2581 
3 2485 2484 2483 
3 2582 2580 2484 
3 2583 2582 2484 
3 2484 2485 2583 
3 2485 2486 2583 
3 2583 2486 2584 
3 2581 2584 2486 
3 2581 2487 2585 
3 2557 2585 2487 
3 2586 2587 2488 
3 2517 2586 2488 
3 2587 2550 2488 
3 2502 2489 2490 
3 2490 2588 2502 
3 2490 2491 2588 
3 2492 2496 2491 
3 2589 2491 2496 
3 2588 2491 2589 
3 2496 2492 2493 
3 2494 2535 2497 
3 2590 2496 2495 
3 2495 2498 2590 
3 2589 2496 2591 
3 2591 2496 2590 
3 2592 2497 2535 
3 2497 2593 2499 
3 2497 2592 2594 
3 2497 2594 2593 
3 2499 2595 2498 
3 2498 2595 2596 
3 2498 2596 2597 
3 2498 2597 2590 
3 2593 2598 2499 
3 2595 2499 2598 
3 2501 2500 2502 
3 2501 2599 2600 
3 2502 2599 2501 
3 2510 2501 2600 
3 2599 2502 2588 
3 2503 2506 2530 
3 2530 2534 2503 
3 2507 2504 2508 
3 2601 2506 2505 
3 2601 2505 2602 
3 2505 2603 2602 
3 2604 2505 2507 
3 2603 2505 2604 
3 2605 2530 2506 
3 2506 2601 2605 
3 2508 2604 2507 
3 2508 2606 2607 
3 2607 2604 2508 
3 2606 2508 2509 
3 2510 2608 2509 
3 2509 2608 2609 
3 2609 2606 2509 
3 2610 2510 2600 
3 2610 2608 2510 
3 2526 2512 2511 
3 2511 2519 2526 
3 2528 2512 2526 
3 2512 2528 2527 
3 2611 2513 2512 
3 2611 2512 2527 
3 2513 2611 2612 
3 2515 2513 2612 
3 2514 2516 2517 
3 2516 2515 2613 
3 2515 2612 2613 
3 2517 2516 2614 
3 2615 2614 2516 
3 2516 2613 2615 
3 2616 2586 2517 
3 2517 2617 2616 
3 2517 2614 2617 
3 2519 2518 2526 
3 2520 2525 2612 
3 2520 2521 2525 
3 2612 2611 2520 
3 2527 2520 2611 
3 2524 2523 2618 
3 2523 2533 2605 
3 2605 2619 2523 
3 2620 2618 2523 
3 2620 2523 2621 
3 2621 2523 2619 
3 2618 2525 2524 
3 2612 2525 2618 
3 2529 2534 2530 
3 2605 2532 2530 
3 2533 2531 2532 
3 2533 2532 2605 
3 2535 2622 2592 
3 2538 2622 2535 
3 2539 2537 2536 
3 2623 2624 2537 
3 2537 2625 2538 
3 2626 2537 2544 
3 2627 2625 2537 
3 2623 2537 2626 
3 2537 2624 2627 
3 2538 2625 2622 
3 2628 2542 2540 
3 2629 2540 2579 
3 2628 2540 2629 
3 2541 2543 2544 
3 2543 2542 2628 
3 2628 2544 2543 
3 2626 2544 2630 
3 2544 2628 2631 
3 2631 2630 2544 
3 2632 2545 2547 
3 2545 2632 2551 
3 2547 2546 2548 
3 2548 2633 2547 
3 2634 2547 2633 
