NORM_ASCII
1025 2046
   0.0046263   -0.0131512   -0.0010697    0.7866023   -0.0723342   -0.6132085
   0.0040141   -0.0152944   -0.0010164    0.2243850   -0.2674528   -0.9370808
   0.0041778   -0.0147704   -0.0011141    0.4410752   -0.1649291   -0.8821854
   0.0047615   -0.0132799    0.0012319    0.8532410    0.2157253    0.4748078
   0.0050121   -0.0148092    0.0011439    0.8774340    0.2325809    0.4195423
   0.0045486   -0.0127647    0.0014026    0.7583774    0.2274452    0.6108456
   0.0026792   -0.0179450    0.0029317    0.1234713    0.0377948    0.9916282
   0.0025336   -0.0169299    0.0029445    0.1164521    0.0715490    0.9906158
   0.0019374   -0.0180416    0.0029659   -0.0482101    0.0027305    0.9988335
   0.0021115   -0.0175024    0.0029576    0.0294345    0.0312438    0.9990783
   0.0014786   -0.0201833    0.0029057   -0.0738778    0.0102249    0.9972149
   0.0010516   -0.0207637    0.0028767   -0.2246814    0.0212725    0.9742000
   0.0036710   -0.0147876    0.0024311    0.4131437    0.1916438    0.8902724
   0.0030430   -0.0153458    0.0027128    0.2219122    0.1379700    0.9652561
   0.0039792   -0.0137695    0.0020740    0.5354428    0.2028484    0.8198497
   0.0043170   -0.0122509    0.0015761    0.6768918    0.2007858    0.7081685
   0.0071403   -0.0254849    0.0004388    0.9997191    0.0098510   -0.0215554
   0.0070036   -0.0259679    0.0007663    0.9720442   -0.2227543    0.0742330
   0.0065006   -0.0261862    0.0017849    0.8071723   -0.2664111    0.5267808
   0.0064988   -0.0265617    0.0013885    0.7746450   -0.5579817    0.2976264
   0.0064510   -0.0266614    0.0009516    0.7367412   -0.6723156   -0.0721396
   0.0068448   -0.0262248    0.0005995    0.7704188   -0.5894607   -0.2428806
   0.0045846   -0.0241749    0.0028410    0.2810432   -0.0433815    0.9587141
   0.0051801   -0.0249575    0.0026661    0.1827441   -0.2351806    0.9546176
   0.0046171   -0.0244164    0.0028263    0.0831442   -0.1158184    0.9897844
   0.0060684   -0.0265802    0.0019057    0.5034737   -0.5891682    0.6319771
   0.0058061   -0.0263087    0.0021232    0.1244430   -0.4923646    0.8614471
   0.0012982   -0.0237562    0.0033368    0.1502104    0.0906156    0.9844926
   0.0010496   -0.0222783    0.0030961   -0.1516716    0.1823934    0.9714568
   0.0008748   -0.0213063    0.0028594   -0.2782139    0.0909220    0.9562062
   0.0042965   -0.0239414    0.0028384    0.6274279   -0.0031714    0.7786682
   0.0029507   -0.0250295    0.0029608    0.4039783   -0.2369243    0.8835544
   0.0036534   -0.0247624    0.0028269    0.1717950   -0.1907861    0.9664818
   0.0042965   -0.0239414    0.0028384    0.9478350    0.0125284    0.3185150
   0.0042965   -0.0239414    0.0028384    0.8251738   -0.0080864    0.5648211
   0.0029779   -0.0200321   -0.0006588   -0.0529817   -0.0429103   -0.9976731
   0.0051745   -0.0249407   -0.0009164    0.0150364   -0.2096045   -0.9776706
   0.0060166   -0.0253103   -0.0007216    0.2928213   -0.1894814   -0.9372046
   0.0045997   -0.0245077   -0.0009540   -0.0390792   -0.1037118   -0.9938394
   0.0043529   -0.0245403   -0.0009372   -0.0417862   -0.1711936   -0.9843509
   0.0030370   -0.0241441   -0.0008731   -0.1252904    0.0403581   -0.9912989
   0.0018744   -0.0227399   -0.0004840   -0.1614505    0.0799265   -0.9836389
   0.0025548   -0.0242405   -0.0007963   -0.1631114    0.0091693   -0.9865651
   0.0022481   -0.0237524   -0.0006739   -0.1353506    0.1457207   -0.9800233
   0.0021456   -0.0211596   -0.0005291   -0.1305363   -0.0555302   -0.9898872
   0.0061010   -0.0257137   -0.0005405    0.4648600   -0.3046501   -0.8313203
   0.0061923   -0.0260697   -0.0002629    0.4486060   -0.5517342   -0.7030946
   0.0067475   -0.0260251    0.0001190    0.6362985   -0.5457577   -0.5452273
   0.0070021   -0.0258659    0.0002898    0.8937230   -0.3179638   -0.3164778
   0.0050215   -0.0138255    0.0008303    0.9252555    0.2325420    0.2997105
   0.0049199   -0.0132967    0.0009851    0.8971730    0.2305262    0.3767470
   0.0026839   -0.0197381   -0.0006441   -0.1148838   -0.0685077   -0.9910138
   0.0024108   -0.0195881   -0.0006265   -0.1268514   -0.0747215   -0.9891033
   0.0021931   -0.0197834   -0.0005744   -0.2140146   -0.0864556   -0.9729970
   0.0011335   -0.0176808   -0.0005308   -0.3159502   -0.1679401   -0.9337942
   0.0008108   -0.0187206   -0.0002974   -0.3627899   -0.1545638   -0.9189633
   0.0008884   -0.0192215   -0.0002613   -0.3281194   -0.1503469   -0.9325950
   0.0004847   -0.0181058   -0.0001785   -0.4188079   -0.1646577   -0.8930217
  -0.0001032   -0.0172511   -0.0000168   -0.4535892   -0.2749321   -0.8477436
   0.0001776   -0.0162473   -0.0004386   -0.2956241   -0.2351926   -0.9259000
   0.0027645   -0.0139631   -0.0013135   -0.1261018   -0.2652668   -0.9558932
   0.0004389   -0.0137016   -0.0009071   -0.2559178   -0.2065117   -0.9443829
   0.0012103   -0.0136452   -0.0012206   -0.2286776   -0.2227050   -0.9476861
   0.0037231   -0.0151051   -0.0010888    0.0324366   -0.3156576   -0.9483186
   0.0033357   -0.0144006   -0.0013095   -0.0780655   -0.2970395   -0.9516687
   0.0050867   -0.0129615   -0.0000110    0.9875148    0.1057826   -0.1167243
   0.0048236   -0.0125895   -0.0009588    0.9107357   -0.0445265   -0.4105824
   0.0051256   -0.0119435   -0.0004154    0.9849052    0.0071963   -0.1729450
   0.0050720   -0.0124856    0.0003710    0.9733285    0.1307377    0.1885186
   0.0042224   -0.0132682   -0.0014581    0.5700632   -0.1773201   -0.8022379
   0.0036702   -0.0134816   -0.0015828    0.0920487   -0.2972809   -0.9503426
   0.0043341   -0.0127455   -0.0015130    0.6612626   -0.1849367   -0.7270008
   0.0048607   -0.0116137   -0.0013555    0.8573871   -0.1299301   -0.4980015
   0.0047191   -0.0127812    0.0011540    0.9691172    0.0979771    0.2263013
   0.0047191   -0.0127812    0.0011540    0.9567116    0.1179079    0.2660841
   0.0045556   -0.0122612    0.0013177    0.8367274    0.1697004    0.5206622
   0.0020527   -0.0154612    0.0028437    0.0345558    0.0884106    0.9954845
   0.0017990   -0.0171195    0.0029361   -0.0398949    0.0382867    0.9984701
   0.0014144   -0.0179948    0.0029014   -0.1545997   -0.0185527    0.9878030
   0.0012004   -0.0160951    0.0028415   -0.0780572    0.0261941    0.9966047
   0.0008365   -0.0194053    0.0027500   -0.2535685   -0.0351350    0.9666791
   0.0002469   -0.0190474    0.0025352   -0.4609572   -0.1197138    0.8793105
   0.0003222   -0.0204027    0.0025223   -0.4970297   -0.0274364    0.8672997
   0.0025541   -0.0138744    0.0026442    0.1846914    0.1381349    0.9730405
   0.0033767   -0.0129224    0.0022666    0.3678805    0.1632598    0.9154290
   0.0039091   -0.0117447    0.0018654    0.5528791    0.1915804    0.8109388
   0.0042888   -0.0112356    0.0014857    0.7184455    0.2047236    0.6647739
   0.0062550   -0.0267859    0.0012270    0.5252628   -0.8427089    0.1180704
   0.0061835   -0.0267418    0.0007694    0.4147885   -0.8514401   -0.3209366
   0.0060850   -0.0265382    0.0002881    0.2982869   -0.8202675   -0.4880432
   0.0055471   -0.0262505    0.0021460    0.1402767   -0.4705625    0.8711449
   0.0049828   -0.0254401    0.0025667    0.1879141   -0.2865610    0.9394525
   0.0047315   -0.0254467    0.0025751    0.0872007   -0.3254696    0.9415230
   0.0058171   -0.0267629    0.0017381    0.1377985   -0.8362872    0.5306933
   0.0019944   -0.0252412    0.0031511    0.2340882   -0.0773300    0.9691351
   0.0022440   -0.0252745    0.0030908    0.2526950   -0.0777414    0.9644177
   0.0011299   -0.0242880    0.0033932    0.0449619   -0.0340204    0.9984093
   0.0007245   -0.0233223    0.0033102   -0.1128472    0.1279660    0.9853376
   0.0008870   -0.0228014    0.0032043   -0.1156728    0.2300386    0.9662826
   0.0004017   -0.0216747    0.0027240   -0.4096775    0.1744672    0.8953913
   0.0029897   -0.0258467    0.0024028    0.2955048   -0.4223284    0.8569222
   0.0020715   -0.0259282    0.0029922    0.3627187   -0.2233143    0.9047463
   0.0027441   -0.0256719    0.0026346    0.6130706   -0.3431811    0.7115977
   0.0023226   -0.0261347    0.0027651    0.5914197   -0.3439385    0.7293346
   0.0055336   -0.0254879   -0.0007356    0.0737923   -0.3590308   -0.9304040
   0.0050535   -0.0255981   -0.0006567   -0.0404028   -0.5333035   -0.8449585
   0.0042905   -0.0255026   -0.0005760   -0.0646726   -0.4722297   -0.8790999
   0.0058610   -0.0258211   -0.0005568    0.1663861   -0.5205110   -0.8374867
   0.0028768   -0.0247216   -0.0008051   -0.0582717   -0.2635975   -0.9628711
   0.0034607   -0.0251400   -0.0006932   -0.0279868   -0.4758798   -0.8790649
   0.0012267   -0.0235475   -0.0005138   -0.1818732    0.1735104   -0.9678927
   0.0006608   -0.0229460   -0.0003127   -0.1555445    0.1342379   -0.9786655
   0.0020418   -0.0241499   -0.0007463   -0.0650950    0.0781537   -0.9948139
   0.0003402   -0.0223912   -0.0002188   -0.1623253    0.0544884   -0.9852317
   0.0019816   -0.0253268   -0.0005861    0.0265142   -0.3099151   -0.9503944
   0.0018240   -0.0206858   -0.0005244   -0.3173132   -0.0288252   -0.9478826
   0.0014138   -0.0212405   -0.0004113   -0.3128266    0.0373003   -0.9490775
   0.0059645   -0.0261986   -0.0002126    0.2250904   -0.7075646   -0.6698408
   0.0048748   -0.0124104    0.0008430    0.8780295    0.1854389    0.4412218
   0.0012827   -0.0202037   -0.0002722   -0.3314305   -0.0547207   -0.9418914
   0.0004861   -0.0197649   -0.0000785   -0.3194319   -0.1114485   -0.9410327
   0.0001041   -0.0187652    0.0000389   -0.3560349   -0.0894585   -0.9301808
  -0.0004414   -0.0182875    0.0002542   -0.4612672   -0.0716367   -0.8843646
  -0.0009339   -0.0153244   -0.0001842   -0.4446057   -0.3017317   -0.8433764
  -0.0010543   -0.0167852    0.0004852   -0.7044854   -0.3311372   -0.6277328
  -0.0010386   -0.0160431    0.0001298   -0.5722042   -0.3750797   -0.7293131
  -0.0001132   -0.0145030   -0.0007036   -0.2462733   -0.2182374   -0.9443103
   0.0001486   -0.0142381   -0.0007809   -0.1470110   -0.1740667   -0.9736984
   0.0016425   -0.0132668   -0.0013616   -0.1423652   -0.1814461   -0.9730413
   0.0029199   -0.0134521   -0.0014796   -0.1706907   -0.2831612   -0.9437608
   0.0023522   -0.0130094   -0.0014549   -0.1679772   -0.2890598   -0.9424585
   0.0002308   -0.0127184   -0.0010446   -0.2141793   -0.2281437   -0.9497777
   0.0052543   -0.0113899   -0.0002944    0.9974480    0.0026284   -0.0713483
   0.0051677   -0.0117564    0.0000074    0.9968615    0.0209620    0.0763392
   0.0049999   -0.0118034    0.0005598    0.8585478    0.1624017    0.4863345
   0.0051455   -0.0107903    0.0003088    0.9254140    0.0931530    0.3673302
   0.0038592   -0.0118863   -0.0021913    0.3648803   -0.2825959   -0.8871313
   0.0033610   -0.0119553   -0.0022018   -0.1431715   -0.3622573   -0.9210166
   0.0028939   -0.0133051   -0.0015139   -0.1855326   -0.3620182   -0.9135209
   0.0033069   -0.0129316   -0.0017938   -0.2117836   -0.4038397   -0.8899782
   0.0040783   -0.0116315   -0.0021727    0.5379087   -0.2125093   -0.8157782
   0.0043020   -0.0117858   -0.0019455    0.6842355   -0.2018276   -0.7007763
   0.0051423   -0.0105396   -0.0013410    0.8967617   -0.1381645   -0.4203915
   0.0053644   -0.0103275   -0.0007152    0.9914345   -0.0494841   -0.1208678
   0.0047997   -0.0111540   -0.0016545    0.8668773   -0.1199019   -0.4838877
   0.0045988   -0.0113781   -0.0018213    0.7264577   -0.1913940   -0.6600209
   0.0047191   -0.0127812    0.0011540    0.9543535    0.0882526    0.2853433
   0.0048599   -0.0122915    0.0008597    0.9165465    0.1320292    0.3775060
   0.0046500   -0.0122676    0.0011921    0.7876914    0.1962162    0.5839876
   0.0011510   -0.0145643    0.0027695   -0.0208246    0.0534807    0.9983517
   0.0005181   -0.0172431    0.0027152   -0.4261228   -0.0967198    0.8994802
   0.0006684   -0.0182521    0.0027415   -0.4230043   -0.1199888    0.8981481
   0.0008027   -0.0156422    0.0027841   -0.2790826   -0.0324858    0.9597174
  -0.0000400   -0.0173515    0.0025189   -0.3937092   -0.1081961    0.9128454
  -0.0001161   -0.0184140    0.0024096   -0.5273512   -0.1865706    0.8289102
  -0.0002864   -0.0200414    0.0020796   -0.6410591   -0.1387749    0.7548409
  -0.0009032   -0.0186382    0.0016938   -0.6931245   -0.2355408    0.6812481
  -0.0002850   -0.0210765    0.0020737   -0.7131503   -0.0431750    0.6996803
   0.0014388   -0.0114457    0.0026283    0.1457368    0.0613462    0.9874196
   0.0036377   -0.0112498    0.0019547    0.4812644    0.1583493    0.8621544
   0.0029676   -0.0118018    0.0023167    0.3074987    0.1399182    0.9412053
   0.0047469   -0.0122746    0.0010661    0.8275944    0.1937977    0.5268112
   0.0039180   -0.0102196    0.0017003    0.5947117    0.1337320    0.7927381
   0.0043707   -0.0107349    0.0013165    0.7660033    0.1833114    0.6161459
   0.0059849   -0.0268526    0.0010428    0.0949991   -0.9947321   -0.0385116
   0.0056929   -0.0267872    0.0008392   -0.0046307   -0.9610667   -0.2762775
   0.0056414   -0.0266696    0.0005963   -0.0128115   -0.9508617   -0.3093507
   0.0050940   -0.0265678    0.0004188    0.0119453   -0.9415023   -0.3367949
   0.0054808   -0.0262854   -0.0001369    0.0608026   -0.7661447   -0.6397854
   0.0053019   -0.0264649    0.0019833    0.0610167   -0.6973625    0.7141166
   0.0050222   -0.0258934    0.0023828    0.0967193   -0.4665480    0.8791919
   0.0042607   -0.0260014    0.0022677    0.0419987   -0.5474462    0.8357863
   0.0052800   -0.0267223    0.0015694   -0.0347785   -0.9500049    0.3102922
   0.0018132   -0.0257924    0.0031001    0.2375564   -0.1697119    0.9564334
   0.0012552   -0.0253340    0.0032084    0.0690256   -0.1734574    0.9824195
   0.0009890   -0.0252145    0.0032400   -0.1892248   -0.2431277    0.9513585
   0.0007629   -0.0243452    0.0033532   -0.2259062   -0.1433179    0.9635488
   0.0005494   -0.0238646    0.0033118   -0.3185067   -0.0190861    0.9477284
   0.0003798   -0.0228849    0.0031190   -0.3615636    0.1636889    0.9178658
   0.0000220   -0.0224661    0.0028133   -0.6971150    0.0842993    0.7119862
   0.0027911   -0.0262984    0.0023277    0.5097620   -0.4075071    0.7576811
   0.0042744   -0.0264694    0.0018846    0.2346793   -0.8344377    0.4986375
   0.0018661   -0.0263298    0.0029225    0.3452192   -0.4042505    0.8469978
   0.0021113   -0.0265558    0.0026323    0.5357982   -0.5891633    0.6048197
   0.0049843   -0.0262951   -0.0000724   -0.0381486   -0.7479473   -0.6626609
   0.0038115   -0.0255687   -0.0004491   -0.0583522   -0.5992589   -0.7984258
   0.0024270   -0.0257355   -0.0003009    0.1019378   -0.5871151   -0.8030595
   0.0036387   -0.0258831   -0.0002001   -0.0089271   -0.7079981   -0.7061579
   0.0002811   -0.0239931   -0.0004875   -0.3053506    0.1617989   -0.9383934
   0.0015678   -0.0243738   -0.0007406   -0.1188721    0.0257576   -0.9925754
   0.0018127   -0.0243456   -0.0007734   -0.0584467   -0.0314702   -0.9977944
   0.0002241   -0.0234619   -0.0003447   -0.3052318    0.0306804   -0.9517837
  -0.0001323   -0.0226673   -0.0002586   -0.1296727    0.0789647   -0.9884076
   0.0005384   -0.0213137   -0.0001101   -0.1925317    0.0846525   -0.9776326
   0.0017363   -0.0253565   -0.0005584    0.0085118   -0.3639495   -0.9313798
   0.0020880   -0.0257841   -0.0003041    0.1137217   -0.5433059   -0.8317969
   0.0014318   -0.0207086   -0.0003242   -0.3876982    0.0210277   -0.9215465
   0.0011118   -0.0207375   -0.0002385   -0.3114846    0.0347802   -0.9496145
   0.0003426   -0.0204464   -0.0000000   -0.2260308    0.0073649   -0.9740923
  -0.0005517   -0.0193496    0.0001812   -0.3783451   -0.0099894   -0.9256107
  -0.0000506   -0.0193832    0.0001024   -0.1992542   -0.0114119   -0.9798814
  -0.0007781   -0.0188388    0.0003332   -0.5927091   -0.0056355   -0.8053969
  -0.0009696   -0.0177848    0.0006199   -0.7936984   -0.1087943   -0.5985037
  -0.0003914   -0.0142929   -0.0006653   -0.2627797   -0.2369863   -0.9352991
  -0.0009902   -0.0143313   -0.0003910   -0.4507860   -0.3357319   -0.8270889
  -0.0016195   -0.0148351    0.0002318   -0.7857995   -0.3814766   -0.4868211
  -0.0013472   -0.0162784    0.0006677   -0.9047706   -0.3614581   -0.2252516
  -0.0012058   -0.0174576    0.0010760   -0.9598898   -0.2476919   -0.1313784
   0.0018325   -0.0129131   -0.0014447   -0.1649090   -0.2607212   -0.9512253
   0.0013288   -0.0101655   -0.0021810   -0.1591390   -0.3533843   -0.9218429
   0.0027411   -0.0124865   -0.0017520   -0.3111393   -0.3471716   -0.8846831
   0.0023308   -0.0115285   -0.0018780   -0.2152392   -0.3020893   -0.9286626
   0.0006972   -0.0107123   -0.0018362   -0.2431036   -0.3318201   -0.9114802
  -0.0000829   -0.0117623   -0.0012586   -0.2120882   -0.2964267   -0.9312088
  -0.0012106   -0.0123760   -0.0009046   -0.2897242   -0.2996491   -0.9089941
   0.0052627   -0.0108544   -0.0001857    0.9877949    0.0438908    0.1494481
   0.0048134   -0.0103465    0.0007362    0.7713323    0.1388612    0.6210991
   0.0053110   -0.0092607    0.0000330    0.8861070    0.0816456    0.4562328
   0.0053844   -0.0100585   -0.0003029    0.9971274    0.0012360    0.0757326
   0.0057600   -0.0080116   -0.0009214    0.9878118   -0.0110750    0.1552584
   0.0037399   -0.0112845   -0.0024173    0.2615662   -0.2403608   -0.9347779
   0.0024751   -0.0109735   -0.0020792   -0.3039070   -0.3644391   -0.8802412
   0.0031114   -0.0124615   -0.0019119   -0.3305671   -0.3541967   -0.8747972
   0.0034237   -0.0109669   -0.0025322   -0.1532793   -0.2771611   -0.9485184
   0.0032676   -0.0114728   -0.0023262   -0.3630332   -0.3430048   -0.8663455
   0.0045358   -0.0107527   -0.0021474    0.6804841   -0.1799805   -0.7103158
   0.0053864   -0.0099707   -0.0012366    0.9360870   -0.1311279   -0.3264148
   0.0048210   -0.0110202   -0.0016792    0.8506666   -0.1335919   -0.5084482
   0.0050210   -0.0105339   -0.0015561    0.8848110   -0.1561268   -0.4390147
   0.0055796   -0.0084749   -0.0017403    0.9582311   -0.1196268   -0.2597740
   0.0054737   -0.0089901   -0.0016409    0.9432035   -0.0836056   -0.3215233
   0.0046360   -0.0112080   -0.0018544    0.7594392   -0.1705356   -0.6278294
   0.0047343   -0.0106937   -0.0019526    0.9619564   -0.0673915   -0.2647606
   0.0047343   -0.0106937   -0.0019526    0.9689592   -0.0621947   -0.2392695
   0.0006484   -0.0146396    0.0027226   -0.2844327   -0.0414813    0.9577982
   0.0007695   -0.0120503    0.0026515   -0.0380344    0.0175787    0.9991218
   0.0005717   -0.0176122    0.0027147   -0.5804784   -0.1522248    0.7999203
   0.0000006   -0.0173436    0.0025407   -0.3207666   -0.0747362    0.9442051
   0.0001412   -0.0147231    0.0026372   -0.1987754    0.0003996    0.9800450
   0.0007181   -0.0151055    0.0027376   -0.4058403   -0.0668548    0.9114955
  -0.0001935   -0.0142702    0.0025297   -0.3349432   -0.0638329    0.9400736
  -0.0007613   -0.0140814    0.0022947   -0.5011282   -0.1437287    0.8533538
  -0.0004516   -0.0179739    0.0022155   -0.6123086   -0.1556814    0.7751397
  -0.0006782   -0.0180368    0.0020245   -0.6295745   -0.1830544    0.7550676
  -0.0004727   -0.0199865    0.0018644   -0.7578780   -0.2077116    0.6184471
  -0.0011360   -0.0187360    0.0012803   -0.9237700   -0.2178541    0.3149422
  -0.0010771   -0.0171115    0.0016910   -0.8193949   -0.1936108    0.5395432
  -0.0007571   -0.0201621    0.0014700   -0.8726968   -0.2331133    0.4290203
  -0.0009347   -0.0202943    0.0010553   -0.9374244   -0.1322218    0.3221070
   0.0017822   -0.0103734    0.0025697    0.2292538   -0.0043178    0.9733571
   0.0013162   -0.0106234    0.0026037    0.0737284   -0.0263639    0.9969298
   0.0028478   -0.0113055    0.0022934    0.3328404    0.0957131    0.9381131
   0.0002977   -0.0105676    0.0026305   -0.0058023   -0.0079497    0.9999516
   0.0025800   -0.0108093    0.0023850    0.3077283    0.0495933    0.9501809
   0.0035285   -0.0107421    0.0019936    0.4432960    0.1157709    0.8888677
   0.0033001   -0.0090703    0.0020934    0.5633404    0.0644872    0.8237044
   0.0028045   -0.0088904    0.0023562    0.4473106   -0.0387026    0.8935409
   0.0027035   -0.0099793    0.0023204    0.3801948    0.0681974    0.9223888
   0.0038001   -0.0086789    0.0017352    0.6669877    0.1248462    0.7345345
   0.0047057   -0.0266504    0.0011706    0.0240796   -0.9960875   -0.0850285
   0.0054258   -0.0266904    0.0008437   -0.1012377   -0.9803961   -0.1690397
   0.0053866   -0.0266370    0.0006231   -0.0066860   -0.9848965   -0.1730149
   0.0045318   -0.0263752    0.0002282   -0.0483396   -0.9052608   -0.4220974
   0.0047952   -0.0264118    0.0020389    0.0335825   -0.7833252    0.6207043
   0.0015972   -0.0260719    0.0030760    0.0943756   -0.2982183    0.9498206
   0.0011028   -0.0262873    0.0029452   -0.1177718   -0.4463171    0.8870912
   0.0007059   -0.0254294    0.0030820   -0.4669883   -0.3353512    0.8182062
   0.0004206   -0.0244193    0.0031795   -0.5244185   -0.2356413    0.8182044
   0.0003968   -0.0248407    0.0030230   -0.5728746   -0.2909772    0.7662551
   0.0002034   -0.0234279    0.0031071   -0.5907998   -0.0460326    0.8055040
  -0.0001632   -0.0230216    0.0027252   -0.7626502   -0.0249268    0.6463307
  -0.0006631   -0.0227088    0.0018829   -0.8661202   -0.0929850    0.4911105
  -0.0006708   -0.0222072    0.0018001   -0.8307236   -0.0083632    0.5566223
  -0.0007710   -0.0217464    0.0015389   -0.8285875   -0.0028767    0.5598522
   0.0020809   -0.0267618    0.0022107    0.3783485   -0.8287736    0.4122946
   0.0017684   -0.0269578    0.0015943    0.3054087   -0.9370175    0.1694808
   0.0019787   -0.0269180    0.0013313    0.3102646   -0.9320926   -0.1869204
   0.0029068   -0.0267020    0.0009479    0.1906169   -0.9495394   -0.2490787
   0.0018757   -0.0266355    0.0026756    0.3024994   -0.7333046    0.6088994
   0.0013664   -0.0263769    0.0029265    0.0652553   -0.5824471    0.8102451
   0.0028052   -0.0264748    0.0004637    0.1350461   -0.8049836   -0.5777230
   0.0017046   -0.0262977    0.0000397    0.1974212   -0.7162228   -0.6693652
   0.0034413   -0.0260638    0.0000105    0.0513087   -0.7316335   -0.6797645
   0.0040313   -0.0263615    0.0002893    0.0877417   -0.8458742   -0.5261161
   0.0042800   -0.0263604    0.0002575    0.0291329   -0.8830919   -0.4682948
   0.0003394   -0.0245232   -0.0006169   -0.3314511    0.0292548   -0.9430187
  -0.0003868   -0.0243323   -0.0001789   -0.6511776    0.0315970   -0.7582674
   0.0009038   -0.0249709   -0.0006732   -0.0448333   -0.1993771   -0.9788967
  -0.0004796   -0.0235773   -0.0000629   -0.6444019   -0.1599534   -0.7477708
  -0.0003328   -0.0230025   -0.0002273   -0.3580355   -0.0746492   -0.9307191
  -0.0004660   -0.0219681   -0.0001061   -0.5014411    0.0416687   -0.8641878
  -0.0000426   -0.0213926   -0.0001097   -0.1876672    0.0915169   -0.9779600
   0.0014128   -0.0261703   -0.0000999    0.0983680   -0.6235334   -0.7755836
   0.0004738   -0.0259961   -0.0002403    0.0078706   -0.5234430   -0.8520244
  -0.0004853   -0.0198666    0.0001184   -0.4136666   -0.0247020   -0.9100933
  -0.0004020   -0.0203784    0.0000828   -0.2714109    0.0216655   -0.9622197
  -0.0009326   -0.0193590    0.0004398   -0.7628231   -0.1384936   -0.6316015
  -0.0010375   -0.0188316    0.0005949   -0.8928385   -0.1169831   -0.4349189
  -0.0011139   -0.0182793    0.0008824   -0.9709725   -0.1039440   -0.2154254
  -0.0016579   -0.0138681   -0.0001541   -0.6103875   -0.3957220   -0.6861715
  -0.0018271   -0.0129022   -0.0004246   -0.5359047   -0.3773878   -0.7552381
  -0.0015085   -0.0156316    0.0008102   -0.9343698   -0.3357079    0.1193872
  -0.0018658   -0.0138552    0.0001119   -0.8354746   -0.4385677   -0.3311203
  -0.0016940   -0.0147370    0.0009138   -0.9183620   -0.3716478    0.1359751
  -0.0012918   -0.0167035    0.0011909   -0.9451675   -0.2860336    0.1576171
   0.0005211   -0.0097429   -0.0020857   -0.2488393   -0.3683736   -0.8957566
   0.0018119   -0.0101174   -0.0023031   -0.1642195   -0.4293691   -0.8880733
   0.0022430   -0.0110430   -0.0020009   -0.1389475   -0.3515159   -0.9258132
   0.0020038   -0.0086573   -0.0030271   -0.2088476   -0.4461598   -0.8702437
   0.0004800   -0.0082934   -0.0026747   -0.2450458   -0.4252741   -0.8712603
  -0.0003486   -0.0103099   -0.0016470   -0.2259102   -0.3627266   -0.9040984
  -0.0013622   -0.0118924   -0.0009805   -0.3203623   -0.2571860   -0.9117145
  -0.0008290   -0.0103524   -0.0015029   -0.2379139   -0.3346676   -0.9118084
  -0.0014581   -0.0108976   -0.0011321   -0.2782346   -0.3261718   -0.9034365
  -0.0017868   -0.0124095   -0.0006110   -0.4719151   -0.3516444   -0.8084815
   0.0051322   -0.0077651    0.0002653    0.7588014    0.0767077    0.6467892
   0.0049051   -0.0076864    0.0005295    0.7701996    0.0677267    0.6341969
   0.0052414   -0.0087302    0.0001826    0.8194958    0.1136905    0.5616948
   0.0047181   -0.0076742    0.0007623    0.8018062    0.0805339    0.5921327
   0.0054061   -0.0082301   -0.0000681    0.8309647    0.0858011    0.5496688
   0.0056814   -0.0077445   -0.0004968    0.9279238    0.0391342    0.3707102
   0.0058980   -0.0073605   -0.0015072    0.9961756    0.0699312   -0.0523806
   0.0057512   -0.0077737   -0.0007392    0.9796752    0.0308695    0.1982010
   0.0037460   -0.0099267   -0.0027701    0.1941695   -0.3035011   -0.9328372
   0.0026286   -0.0105254   -0.0023243   -0.2429206   -0.3664137   -0.8981818
   0.0047343   -0.0106937   -0.0019526    0.9177332   -0.1296325   -0.3754481
   0.0046467   -0.0103575   -0.0022271    0.5785488   -0.2447806   -0.7780512
   0.0053212   -0.0093402   -0.0017932    0.8690199   -0.1612195   -0.4677742
   0.0049055   -0.0106369   -0.0017537    0.9037228   -0.1380112   -0.4052629
   0.0049642   -0.0103829   -0.0018036    0.8352897   -0.1758490   -0.5209303
   0.0050696   -0.0082091   -0.0028685    0.8035026   -0.2285258   -0.5496905
   0.0053865   -0.0076348   -0.0027750    0.8643048   -0.1938460   -0.4641130
   0.0057094   -0.0074884   -0.0021509    0.9455708   -0.0203222   -0.3247812
   0.0003416   -0.0143382    0.0026571   -0.1940598   -0.0116351    0.9809207
   0.0000993   -0.0109892    0.0025889   -0.1042392   -0.0362132    0.9938927
  -0.0015591   -0.0119516    0.0020407   -0.4532740   -0.1769283    0.8736355
  -0.0014068   -0.0114993    0.0021756   -0.3798819   -0.1143744    0.9179369
  -0.0010182   -0.0113141    0.0023254   -0.2931362   -0.0624194    0.9540309
  -0.0010349   -0.0149843    0.0020205   -0.6562440   -0.1750301    0.7339674
  -0.0009865   -0.0144448    0.0021262   -0.6334960   -0.1884150    0.7504549
  -0.0019302   -0.0117349    0.0018216   -0.6298962   -0.3039004    0.7147554
  -0.0016326   -0.0130395    0.0017717   -0.6896309   -0.2732034    0.6706483
  -0.0013020   -0.0140084    0.0018914   -0.7230073   -0.2556012    0.6418165
  -0.0009708   -0.0165510    0.0018688   -0.7235105   -0.1804733    0.6663047
  -0.0011649   -0.0187754    0.0010608   -0.9770775   -0.2121929    0.0171365
  -0.0015509   -0.0146482    0.0013406   -0.8461764   -0.2483182    0.4715120
  -0.0010037   -0.0198355    0.0007577   -0.9677673   -0.2418054   -0.0704037
  -0.0009171   -0.0218024    0.0013046   -0.9403292   -0.0729325    0.3323581
  -0.0009277   -0.0199084    0.0005306   -0.8750947   -0.1513306   -0.4596829
  -0.0009357   -0.0213773    0.0007596   -0.9944910   -0.0898947   -0.0539124
   0.0014034   -0.0093684    0.0027140    0.1693233   -0.0546571    0.9840438
   0.0020670   -0.0087728    0.0026405    0.2618097   -0.1052202    0.9593667
  -0.0003377   -0.0096620    0.0026527   -0.0868450   -0.1428856    0.9859217
   0.0010859   -0.0088493    0.0027962    0.1222706   -0.1484444    0.9813328
   0.0031967   -0.0082522    0.0021999    0.5943111    0.0035991    0.8042272
   0.0038030   -0.0076439    0.0017349    0.7115763    0.0459920    0.7011019
   0.0038893   -0.0081652    0.0016382    0.6722439    0.1011417    0.7333883
   0.0024195   -0.0055555    0.0030521    0.4336725    0.0372587    0.9002999
   0.0018329   -0.0066533    0.0031553    0.3269832   -0.1128448    0.9382686
   0.0033089   -0.0065784    0.0023657    0.6794483    0.0385445    0.7327102
   0.0008395   -0.0263952    0.0027669   -0.4220661   -0.5479447    0.7222304
   0.0013676   -0.0267701    0.0025327    0.1170144   -0.8382643    0.5325605
   0.0002744   -0.0250121    0.0028373   -0.6901275   -0.3277302    0.6452263
   0.0003297   -0.0255445    0.0026894   -0.6757164   -0.3901520    0.6254509
  -0.0002209   -0.0235588    0.0026576   -0.7819485   -0.2275364    0.5803306
  -0.0009650   -0.0224922    0.0011958   -0.9539383   -0.0991982    0.2831281
  -0.0010233   -0.0228936    0.0010407   -0.9544487   -0.1627376    0.2500883
  -0.0007235   -0.0238040    0.0015562   -0.8831893   -0.2668161    0.3857276
   0.0012581   -0.0270804    0.0014493    0.2353820   -0.9717344    0.0180968
   0.0008154   -0.0270242    0.0019559   -0.1046626   -0.9443844    0.3117432
   0.0023545   -0.0266165    0.0007165    0.2249639   -0.8659709   -0.4466382
   0.0009403   -0.0270512    0.0010256    0.1282351   -0.9442705   -0.3031648
   0.0018465   -0.0267032    0.0006228    0.2863775   -0.8351994   -0.4694996
   0.0008303   -0.0267785    0.0005343    0.0557897   -0.8331478   -0.5502293
  -0.0005287   -0.0250875   -0.0001657   -0.6783237   -0.1139529   -0.7258730
   0.0006582   -0.0250007   -0.0006460   -0.0943194   -0.2290059   -0.9688448
  -0.0000665   -0.0250715   -0.0004667   -0.3881287   -0.1611688   -0.9074033
  -0.0007923   -0.0245217    0.0003638   -0.9627617   -0.1101061   -0.2469142
  -0.0007615   -0.0248813    0.0001901   -0.9031373   -0.1176909   -0.4129067
  -0.0008559   -0.0239902    0.0005128   -0.9281610   -0.2875979   -0.2362302
  -0.0007512   -0.0232468    0.0001462   -0.7763684   -0.2293462   -0.5870711
  -0.0006379   -0.0225050   -0.0000799   -0.6174461   -0.1002874   -0.7801940
  -0.0008357   -0.0219730    0.0001740   -0.8756740   -0.0508501   -0.4802181
  -0.0006522   -0.0203958    0.0001874   -0.5228721   -0.0025704   -0.8524073
  -0.0007381   -0.0225015    0.0000201   -0.7757049   -0.0867796   -0.6251009
   0.0002330   -0.0264728    0.0002103   -0.0305021   -0.7734459   -0.6331280
   0.0001015   -0.0259670   -0.0001978   -0.1647487   -0.5540807   -0.8159978
   0.0002566   -0.0255425   -0.0004589   -0.1820020   -0.3793172   -0.9071900
  -0.0000594   -0.0263061    0.0001088   -0.2818774   -0.7171182   -0.6374061
  -0.0029650   -0.0109617   -0.0002437   -0.7163430   -0.4680300   -0.5174945
  -0.0015910   -0.0146748    0.0012043   -0.8053385   -0.3784297    0.4563123
  -0.0019846   -0.0137977    0.0005647   -0.9233368   -0.3817855    0.0410963
  -0.0027442   -0.0119070    0.0001159   -0.8703491   -0.4924250   -0.0031890
  -0.0021408   -0.0131264    0.0007023   -0.8982324   -0.4187099    0.1336436
  -0.0017539   -0.0142039    0.0010624   -0.8250912   -0.3969260    0.4020874
   0.0000977   -0.0088060   -0.0023202   -0.2113635   -0.3932878   -0.8947906
   0.0012907   -0.0077416   -0.0031569   -0.2845255   -0.3768302   -0.8815011
   0.0029646   -0.0085013   -0.0032424   -0.0412738   -0.4386558   -0.8977068
   0.0017787   -0.0075506   -0.0034804   -0.3496005   -0.4582643   -0.8171740
   0.0022829   -0.0076822   -0.0036344   -0.1884227   -0.4674020   -0.8637316
  -0.0003349   -0.0078829   -0.0026364   -0.2082332   -0.4395632   -0.8737409
  -0.0002196   -0.0084341   -0.0023907   -0.1922394   -0.4356649   -0.8793407
  -0.0018820   -0.0074235   -0.0023492   -0.2276119   -0.3968325   -0.8892226
  -0.0009587   -0.0084185   -0.0022216   -0.2144576   -0.4049621   -0.8888271
  -0.0004777   -0.0083747   -0.0023600   -0.1841411   -0.4101178   -0.8932499
  -0.0017258   -0.0094476   -0.0015356   -0.2299817   -0.3607657   -0.9038565
  -0.0025876   -0.0100013   -0.0010299   -0.3875630   -0.4465321   -0.8064763
  -0.0027797   -0.0090565   -0.0014148   -0.3009089   -0.3754958   -0.8766166
  -0.0022092   -0.0094954   -0.0014168   -0.1955740   -0.3375549   -0.9207646
  -0.0029529   -0.0104885   -0.0005313   -0.5577417   -0.4717837   -0.6828941
   0.0050673   -0.0071652    0.0004199    0.8081046    0.0052060    0.5890160
   0.0054047   -0.0077048   -0.0000089    0.7949129    0.0192087    0.6064194
   0.0048468   -0.0071563    0.0006596    0.9627484    0.0128250    0.2700944
   0.0046249   -0.0071502    0.0008891    0.8273175    0.0352452    0.5606278
   0.0048468   -0.0071563    0.0006596    0.9836213    0.0162654    0.1795119
   0.0055462   -0.0071848   -0.0001136    0.8854321    0.0984710    0.4542174
   0.0058078   -0.0072621   -0.0008228    0.9618940    0.1586837    0.2226642
   0.0058206   -0.0069004   -0.0018034    0.9336154    0.2968511   -0.2006031
   0.0058366   -0.0068273   -0.0013583    0.9282327    0.3704968    0.0334102
   0.0046848   -0.0102317   -0.0022531    0.6329498   -0.2503619   -0.7325937
   0.0045628   -0.0088220   -0.0030320    0.4646199   -0.3734218   -0.8029225
   0.0044253   -0.0093265   -0.0028305    0.5958792   -0.3246519   -0.7345265
   0.0038747   -0.0092879   -0.0029968    0.0980050   -0.4121138   -0.9058461
   0.0049376   -0.0091107   -0.0024721    0.7458172   -0.2197878   -0.6288482
   0.0051168   -0.0075754   -0.0032102    0.7178345   -0.2585488   -0.6464257
   0.0053748   -0.0071683   -0.0030808    0.8362728   -0.0607400   -0.5449390
   0.0057790   -0.0069422   -0.0020212    0.9368639    0.2395212   -0.2547854
  -0.0005346   -0.0112243    0.0024787   -0.1980635   -0.0704312    0.9776555
  -0.0017977   -0.0114764    0.0019914   -0.4717460   -0.2176363    0.8544531
  -0.0023586   -0.0105495    0.0018013   -0.4587999   -0.2526154    0.8518733
  -0.0019954   -0.0131882    0.0011534   -0.7967230   -0.3619252    0.4839861
  -0.0025607   -0.0115161    0.0011761   -0.7732278   -0.4150197    0.4794553
  -0.0025678   -0.0111676    0.0013487   -0.7010937   -0.3655008    0.6122718
  -0.0017122   -0.0136240    0.0014197   -0.8052752   -0.3561973    0.4739783
  -0.0016568   -0.0141564    0.0012720   -0.1591248   -0.5346897    0.8299315
  -0.0009925   -0.0219188    0.0006445   -0.9968975   -0.0723682   -0.0309545
   0.0014459   -0.0076287    0.0030066    0.2253103   -0.1867560    0.9562204
  -0.0008050   -0.0086291    0.0027695   -0.1111749   -0.1833874    0.9767340
  -0.0011983   -0.0089775    0.0026478   -0.2045515   -0.2516703    0.9459496
   0.0007568   -0.0081721    0.0029549    0.0442536   -0.2215193    0.9741513
   0.0002227   -0.0079321    0.0030082   -0.0513537   -0.2044334    0.9775325
   0.0008985   -0.0071358    0.0032237    0.0904700   -0.2048885    0.9745952
   0.0047871   -0.0066290    0.0007798    0.7290264    0.0892333    0.6786441
   0.0014630   -0.0056360    0.0033780    0.2322975   -0.0078349    0.9726132
   0.0028893   -0.0055282    0.0028181    0.5439666    0.0783187    0.8354439
   0.0028113   -0.0050290    0.0027784    0.5336607    0.3352304    0.7764192
   0.0021050   -0.0050719    0.0031183    0.3211709    0.2722922    0.9070315
   0.0012879   -0.0061761    0.0033749    0.1634139   -0.1121117    0.9801668
   0.0040359   -0.0055960    0.0014207    0.7084212    0.3343248    0.6215837
   0.0035009   -0.0055492    0.0021700    0.7771991    0.2896811    0.5586112
   0.0042876   -0.0062088    0.0012614    0.7114962    0.1965047    0.6746548
   0.0030665   -0.0055267    0.0026807    0.6905141    0.1922994    0.6972885
   0.0008485   -0.0268396    0.0023801   -0.2327360   -0.7892404    0.5682724
   0.0004672   -0.0266427    0.0021660   -0.6742464   -0.5926616    0.4406177
   0.0003215   -0.0261212    0.0023271   -0.7477200   -0.4472863    0.4907644
  -0.0002474   -0.0247350    0.0021681   -0.8080270   -0.3482693    0.4751852
  -0.0005643   -0.0242802    0.0016728   -0.8961036   -0.3129201    0.3147687
  -0.0009940   -0.0234301    0.0008964   -0.9553991   -0.2768911    0.1026831
   0.0007250   -0.0270614    0.0012844   -0.1236154   -0.9920306   -0.0243817
   0.0003870   -0.0266889    0.0019540   -0.6536735   -0.6429989    0.3990781
   0.0005187   -0.0269312    0.0017482   -0.4106012   -0.8952024    0.1732610
   0.0003733   -0.0268311    0.0008309   -0.2159669   -0.9528639   -0.2130930
   0.0000631   -0.0266555    0.0006112   -0.3358890   -0.8993900   -0.2797789
  -0.0005883   -0.0255778    0.0000544   -0.8083091   -0.4000697   -0.4319498
  -0.0003219   -0.0255822   -0.0002080   -0.5075717   -0.3821298   -0.7722356
  -0.0008108   -0.0250275    0.0004505   -0.9490211   -0.2822220    0.1403914
  -0.0010130   -0.0227856    0.0005616   -0.9416908   -0.1722722   -0.2890342
  -0.0001737   -0.0258083   -0.0001892   -0.3664550   -0.5123942   -0.7766356
  -0.0003577   -0.0260057    0.0000969   -0.5763581   -0.5964094   -0.5586655
  -0.0002761   -0.0263064    0.0003662   -0.5914207   -0.7574613   -0.2765393
  -0.0036966   -0.0095341   -0.0003887   -0.7699441   -0.5482878   -0.3264454
  -0.0029425   -0.0113676    0.0004269   -0.8463156   -0.4986378    0.1873772
  -0.0016568   -0.0141564    0.0012720    0.9697145   -0.1278453    0.2081092
  -0.0021325   -0.0129839    0.0009070   -0.8573875   -0.4260064    0.2887997
  -0.0016568   -0.0141564    0.0012720    0.7550305   -0.3713110    0.5404230
  -0.0018377   -0.0136735    0.0012144   -0.8159083   -0.3538651    0.4572452
   0.0014833   -0.0072488   -0.0034659   -0.4046815   -0.4149439   -0.8148953
  -0.0000414   -0.0068861   -0.0031205   -0.1836103   -0.3233397   -0.9282988
   0.0004791   -0.0070289   -0.0031731   -0.1282358   -0.2670191   -0.9551211
  -0.0007615   -0.0069491   -0.0029013   -0.2460579   -0.3686350   -0.8964172
   0.0009828   -0.0070625   -0.0032313   -0.2347498   -0.3327048   -0.9133455
   0.0009797   -0.0058146   -0.0037613   -0.3759027   -0.2800135   -0.8833400
   0.0026709   -0.0071603   -0.0039417   -0.0052533   -0.4187369   -0.9080924
   0.0030213   -0.0075906   -0.0036999    0.0249817   -0.4203583   -0.9070142
   0.0019501   -0.0072267   -0.0037272   -0.3559318   -0.4271143   -0.8311955
   0.0020945   -0.0067304   -0.0039893   -0.2519486   -0.3062041   -0.9180202
  -0.0009081   -0.0074477   -0.0026570   -0.2421306   -0.4051943   -0.8815840
  -0.0023879   -0.0085299   -0.0016884   -0.2239020   -0.3948500   -0.8910451
  -0.0026782   -0.0071148   -0.0022828   -0.0052763   -0.3843278   -0.9231816
  -0.0027026   -0.0069812   -0.0023188   -0.2302396   -0.3646909   -0.9022141
  -0.0012664   -0.0068244   -0.0027566   -0.2548836   -0.3752351   -0.8911975
  -0.0027695   -0.0066342   -0.0024381   -0.1517809   -0.3321721   -0.9309266
  -0.0030504   -0.0100188   -0.0007362   -0.5122953   -0.5256012   -0.6791884
  -0.0029627   -0.0093362   -0.0012042   -0.4307649   -0.4704699   -0.7701297
  -0.0036888   -0.0081308   -0.0013129   -0.4336564   -0.3670433   -0.8229346
  -0.0026312   -0.0085253   -0.0016109   -0.3150217   -0.3980595   -0.8615741
   0.0048468   -0.0071563    0.0006596    0.9307117    0.0072649    0.3656815
   0.0050230   -0.0066332    0.0005499    0.7354838    0.1123843    0.6681567
   0.0052652   -0.0066421    0.0002909    0.7910151    0.1395417    0.5956704
   0.0055577   -0.0066800   -0.0001991    0.9042079    0.3217799    0.2808305
   0.0051652   -0.0055885   -0.0026285    0.7791830    0.6023728   -0.1732654
   0.0056422   -0.0064180   -0.0018614    0.8602373    0.4934907   -0.1282920
   0.0056336   -0.0063115   -0.0011889    0.8389981    0.5440970    0.0063775
   0.0040491   -0.0089160   -0.0031719    0.1748398   -0.3987142   -0.9002544
   0.0046103   -0.0078565   -0.0034914    0.3956951   -0.3062573   -0.8658129
   0.0049695   -0.0072851   -0.0034692    0.6422067   -0.1076483   -0.7589350
   0.0052733   -0.0061725   -0.0032340    0.7241699    0.2441277   -0.6449649
   0.0054828   -0.0066158   -0.0029568    0.8819977    0.1612891   -0.4427933
   0.0053793   -0.0061241   -0.0030256    0.8381335    0.4439955   -0.3168600
  -0.0026503   -0.0105891    0.0014923   -0.6519616   -0.4058484    0.6404945
  -0.0027424   -0.0095520    0.0019007   -0.4384748   -0.3660837    0.8208061
  -0.0017135   -0.0136236    0.0014169   -0.6763385   -0.4403492    0.5904734
  -0.0029503   -0.0108619    0.0008866   -0.7536728   -0.4376871    0.4903135
  -0.0018020   -0.0083412    0.0026179   -0.2398938   -0.2353426    0.9418412
  -0.0006655   -0.0080751    0.0028889   -0.1127678   -0.1788753    0.9773879
  -0.0015916   -0.0079162    0.0027501   -0.1398977   -0.1813742    0.9734126
  -0.0006619   -0.0070096    0.0030782   -0.1140085   -0.2128770    0.9704048
  -0.0004712   -0.0064449    0.0032139   -0.1515699   -0.1116787    0.9821173
  -0.0002109   -0.0064542    0.0032506   -0.1138620   -0.1092684    0.9874694
  -0.0011911   -0.0069379    0.0029960   -0.1756514   -0.1440991    0.9738491
   0.0004553   -0.0062928    0.0033688   -0.0506807   -0.1006979    0.9936254
   0.0046454   -0.0056070    0.0008250    0.6966981    0.3055198    0.6490527
   0.0011816   -0.0056699    0.0034028    0.1605698   -0.2848766    0.9450199
   0.0009701   -0.0056975    0.0034123    0.0013324   -0.1002775    0.9949586
   0.0015377   -0.0046275    0.0031465    0.1485939    0.4348785    0.8881444
   0.0012940   -0.0046548    0.0031890    0.0263568    0.3831297    0.9233185
   0.0009398   -0.0051943    0.0033540    0.0065329    0.1998618    0.9798023
   0.0024870   -0.0045589    0.0027596    0.3835294    0.4885649    0.7837152
   0.0032540   -0.0050424    0.0023122    0.7446504    0.4213823    0.5176222
   0.0030281   -0.0045598    0.0022946    0.6171242    0.6316479    0.4692321
   0.0037047   -0.0053113    0.0016450    0.7343073    0.4443513    0.5131712
   0.0043128   -0.0050523    0.0008359    0.5982438    0.6607499    0.4533365
   0.0040852   -0.0049876    0.0010838    0.6165202    0.5704394    0.5426801
  -0.0002554   -0.0250768    0.0017664   -0.8112269   -0.4034736    0.4232257
  -0.0003437   -0.0247229    0.0019483   -0.8340117   -0.4270193    0.3493980
   0.0001432   -0.0267508    0.0010762   -0.5254754   -0.8413437    0.1265558
  -0.0001515   -0.0262823    0.0012651   -0.7203917   -0.5574066    0.4127149
  -0.0002242   -0.0264345    0.0008405   -0.6697469   -0.7288249    0.1423142
  -0.0002253   -0.0264182    0.0006083   -0.6255387   -0.7753093   -0.0871598
  -0.0007295   -0.0255218    0.0005224   -0.9111310   -0.4116403    0.0198137
  -0.0004885   -0.0260331    0.0003476   -0.7641703   -0.5966731   -0.2450000
  -0.0004638   -0.0259233    0.0010150   -0.8254529   -0.4221292    0.3747460
  -0.0005482   -0.0259719    0.0005747   -0.7838583   -0.6198011    0.0375872
  -0.0037093   -0.0093718    0.0006386   -0.8139576   -0.5397246    0.2148732
  -0.0037009   -0.0090829   -0.0007899   -0.5996985   -0.5210366   -0.6073570
  -0.0039837   -0.0089922    0.0000166   -0.8694749   -0.4929751   -0.0314487
  -0.0034871   -0.0092243    0.0013703   -0.6856781   -0.4743725    0.5521016
  -0.0001316   -0.0064046   -0.0032628   -0.2312496   -0.2733686   -0.9336987
   0.0006875   -0.0068086   -0.0032658   -0.2011323   -0.3424598   -0.9177511
   0.0017394   -0.0060041   -0.0039631   -0.2931688   -0.0432314   -0.9550828
   0.0007225   -0.0056863   -0.0036574   -0.3424009   -0.1629018   -0.9253241
   0.0011488   -0.0052548   -0.0037836   -0.3043894    0.1656902   -0.9380266
   0.0039132   -0.0069907   -0.0039470    0.1268722   -0.3338971   -0.9340322
   0.0028228   -0.0066543   -0.0041398   -0.0101578   -0.2130218   -0.9769946
   0.0037638   -0.0075054   -0.0037394    0.0476239   -0.3726507   -0.9267488
   0.0022535   -0.0062142   -0.0041277   -0.1534951   -0.0850091   -0.9844860
  -0.0029181   -0.0071351   -0.0022105   -0.2936442   -0.4397933   -0.8487373
  -0.0030063   -0.0066514   -0.0023354    0.4295205   -0.2722212   -0.8610504
  -0.0030063   -0.0066514   -0.0023354    0.7864387   -0.2416689   -0.5684280
  -0.0014100   -0.0060110   -0.0029369   -0.1455469   -0.1555395   -0.9770484
  -0.0030063   -0.0066514   -0.0023354    0.7678560   -0.1829008   -0.6139581
  -0.0030884   -0.0061569   -0.0024081   -0.4184051   -0.1612737   -0.8938277
  -0.0028519   -0.0061414   -0.0025125   -0.3512348   -0.1067504   -0.9301819
  -0.0038935   -0.0081375   -0.0011796   -0.4422901   -0.4252728   -0.7896344
  -0.0035201   -0.0076394   -0.0016085   -0.4937107   -0.4701980   -0.7315488
  -0.0042017   -0.0076790   -0.0010937   -0.6724844   -0.3991428   -0.6232574
   0.0051909   -0.0056423    0.0001340    0.7939751    0.3596390    0.4901667
   0.0053935   -0.0061599   -0.0000354    0.8940489    0.3742128    0.2462546
   0.0054519   -0.0059603   -0.0009947    0.8749581    0.4821166    0.0448543
   0.0045129   -0.0050461   -0.0030956    0.4886438    0.8213045   -0.2944250
   0.0048831   -0.0051969   -0.0024282    0.6691877    0.7229678   -0.1717714
   0.0050962   -0.0056526   -0.0030683    0.6783657    0.6403569   -0.3602264
   0.0050217   -0.0050637   -0.0013195    0.7325197    0.6701099   -0.1198646
   0.0041615   -0.0082070   -0.0034429    0.1417390   -0.3549890   -0.9240632
   0.0044198   -0.0069088   -0.0038651    0.3850014   -0.1566691   -0.9095212
   0.0049510   -0.0067878   -0.0035758    0.6212758   -0.0035515   -0.7835839
   0.0046540   -0.0063520   -0.0038150    0.5194549    0.0810172   -0.8506485
   0.0048614   -0.0062268   -0.0036320    0.5876505    0.2434311   -0.7716270
   0.0048027   -0.0056805   -0.0034861    0.5380690    0.4727243   -0.6978634
   0.0047914   -0.0054160   -0.0032989    0.5722663    0.6312294   -0.5235081
  -0.0031804   -0.0091172    0.0017733   -0.5170269   -0.3742656    0.7698107
  -0.0022389   -0.0083622    0.0024469   -0.3641526   -0.2596446    0.8944146
  -0.0023984   -0.0078622    0.0024800   -0.4494389   -0.1847843    0.8739905
  -0.0019378   -0.0072307    0.0027970   -0.2831140   -0.1440054    0.9482135
  -0.0017002   -0.0070665    0.0028519   -0.1684425   -0.1209062    0.9782683
  -0.0006978   -0.0067148    0.0031260   -0.1879324   -0.1108515    0.9759064
  -0.0010764   -0.0059357    0.0030439   -0.2701228    0.0621095    0.9608205
  -0.0000407   -0.0058597    0.0032734   -0.1672244    0.0379446    0.9851884
  -0.0018320   -0.0061769    0.0028341   -0.3579706    0.0413906    0.9328150
  -0.0013160   -0.0060787    0.0029930   -0.2739492    0.0518917    0.9603432
   0.0048488   -0.0051424    0.0003236    0.6805755    0.5596593    0.4728620
   0.0001977   -0.0057208    0.0033064   -0.1682584    0.0618232    0.9838023
   0.0006396   -0.0052382    0.0033420   -0.2134536    0.2245243    0.9508030
   0.0009395   -0.0042307    0.0029112   -0.1268209    0.5801809    0.8045537
   0.0016948   -0.0042347    0.0028689    0.1183366    0.5960676    0.7941662
   0.0007985   -0.0047202    0.0032029   -0.1599777    0.3848544    0.9090073
   0.0026903   -0.0044264    0.0025449    0.4498949    0.6301539    0.6328512
   0.0018615   -0.0039329    0.0025677    0.2033918    0.7579919    0.6197419
   0.0031498   -0.0045830    0.0020516    0.6582653    0.6840806    0.3141984
   0.0022867   -0.0038810    0.0020458    0.3643640    0.9294421    0.0581053
   0.0023319   -0.0039611    0.0022828    0.4060573    0.8277000    0.3873374
   0.0037671   -0.0045728    0.0010545    0.5377809    0.7098117    0.4549274
   0.0042946   -0.0047035    0.0003203    0.4276002    0.7579177    0.4926651
   0.0047368   -0.0049924    0.0003126    0.5013094    0.7267007    0.4696754
   0.0033792   -0.0041240    0.0005694    0.4109194    0.9085930    0.0748595
   0.0034816   -0.0042196    0.0008023    0.4552633    0.8461979    0.2769196
   0.0025353   -0.0040736    0.0018163    0.4323100    0.8931325    0.1241872
   0.0032715   -0.0043930    0.0013172    0.4213997    0.7904184    0.4445908
  -0.0038536   -0.0087984    0.0011161   -0.8131089   -0.4597384    0.3570637
  -0.0041688   -0.0081138   -0.0007954   -0.7895546   -0.5005995   -0.3549700
  -0.0038110   -0.0086119   -0.0009872   -0.5305298   -0.5048003   -0.6809661
  -0.0043493   -0.0076311   -0.0008531   -0.8896775   -0.3973524   -0.2249111
  -0.0041382   -0.0084696    0.0001788   -0.8870794   -0.4505113    0.1006466
  -0.0034022   -0.0086304    0.0017678   -0.5448869   -0.2921775    0.7859584
  -0.0037482   -0.0081938    0.0015634   -0.6687130   -0.2233858    0.7091697
