NORM_ASCII
1122 2240
  -0.0029168   -0.0036009    0.0006304   -0.0426105    0.9483933   -0.3142204
  -0.0022897   -0.0035873    0.0007093   -0.1121419    0.9163299   -0.3844005
  -0.0021540   -0.0032761    0.0012533   -0.1501463    0.8411096   -0.5196063
  -0.0037032   -0.0035328    0.0002300    0.0866594    0.9901164   -0.1102706
  -0.0009637   -0.0031682    0.0018304    0.4227256    0.8302865   -0.3632181
  -0.0016077   -0.0027798    0.0019353    0.0068761    0.8962376   -0.4435209
  -0.0022007   -0.0029957    0.0016028   -0.1766016    0.8113763   -0.5572077
  -0.0004987   -0.0037598    0.0014711    0.4879591    0.8411671   -0.2330960
  -0.0027443   -0.0039788   -0.0032547   -0.0514623    0.5195218   -0.8529061
  -0.0033915   -0.0037456   -0.0031550   -0.1723848    0.5797070   -0.7963814
  -0.0040764   -0.0036898   -0.0028524   -0.5042743    0.7273459   -0.4654840
  -0.0038377   -0.0037423   -0.0030240   -0.4006247    0.5305743   -0.7469878
  -0.0043482   -0.0036684   -0.0024731   -0.6576664    0.7196699   -0.2225985
  -0.0045737   -0.0035436   -0.0010084   -0.8740706    0.4583177   -0.1610762
  -0.0047240   -0.0039321   -0.0014776   -0.8446233    0.5058192   -0.1753809
  -0.0047001   -0.0040049   -0.0023348   -0.8847024    0.4025126   -0.2351281
  -0.0047634   -0.0040581   -0.0019184   -0.8883368    0.4533639   -0.0729311
  -0.0046057   -0.0035012   -0.0007984   -0.7099050    0.6814024   -0.1781169
  -0.0044620   -0.0034082   -0.0003390   -0.3298458    0.9439392   -0.0134352
  -0.0039088   -0.0034799    0.0001928    0.0622512    0.9928619   -0.1017352
  -0.0019024   -0.0049114   -0.0033631    0.1207357   -0.0527949   -0.9912798
  -0.0010753   -0.0049737   -0.0032190    0.1646218   -0.1609368   -0.9731387
  -0.0029562   -0.0048479   -0.0034150   -0.0737996   -0.0636701   -0.9952385
  -0.0031629   -0.0042096   -0.0033403   -0.1120017    0.2127809   -0.9706595
   0.0004823   -0.0043632    0.0016382    0.2889350    0.9451772   -0.1521730
  -0.0001534   -0.0039012    0.0019614    0.4608243    0.8379462   -0.2923817
   0.0007369   -0.0044120    0.0018996    0.1528066    0.9608070   -0.2313009
   0.0013446   -0.0045267    0.0017955   -0.0035051    0.9896374   -0.1435464
   0.0017896   -0.0045686    0.0016634   -0.0647563    0.9978795    0.0065598
   0.0019552   -0.0044807    0.0006229   -0.0527746    0.9797262    0.1932651
   0.0018852   -0.0042222   -0.0002419    0.0955897    0.9553267    0.2796667
   0.0022286   -0.0044224    0.0002465    0.0846764    0.9765232    0.1980714
   0.0005580   -0.0051146   -0.0027978    0.4108973   -0.0670586   -0.9092120
   0.0007986   -0.0051512   -0.0026221    0.5291559    0.0562264   -0.8466597
   0.0015188   -0.0048124   -0.0020837    0.5326736    0.4035167   -0.7439308
  -0.0002468   -0.0050355   -0.0030835    0.2867116   -0.1118399   -0.9514664
   0.0022518   -0.0043869   -0.0012521    0.4281598    0.8016538   -0.4171694
   0.0025668   -0.0044145   -0.0005491    0.3268065    0.9450891    0.0020060
   0.0022964   -0.0049140   -0.0016326    0.4234555    0.3924220   -0.8165112
   0.0017136   -0.0050973   -0.0020187    0.4775506    0.3701160   -0.7968435
   0.0024828   -0.0047509   -0.0014339    0.4738828    0.5502374   -0.6875128
  -0.0004501   -0.0050168   -0.0031418    0.1802888   -0.1919344   -0.9647057
  -0.0025263   -0.0034574    0.0008832   -0.0932825    0.9051188   -0.4147991
  -0.0037981   -0.0033958    0.0008604   -0.1536869    0.9845598   -0.0837989
  -0.0032413   -0.0033043    0.0013978   -0.3282089    0.9023165   -0.2794707
  -0.0014331   -0.0027455    0.0021840    0.1375402    0.9773333   -0.1609418
  -0.0010245   -0.0029468    0.0022552    0.4511634    0.8677061   -0.2086568
  -0.0026465   -0.0029988    0.0017334   -0.3962622    0.8747839   -0.2788000
  -0.0020526   -0.0027237    0.0020681   -0.3440563    0.9334428   -0.1015373
  -0.0036017   -0.0039452   -0.0032107   -0.3227185    0.2873189   -0.9018318
  -0.0042900   -0.0039793   -0.0029008   -0.5753676    0.3027977   -0.7597800
  -0.0043163   -0.0037334   -0.0026843   -0.6926255    0.5362757   -0.4823673
  -0.0045600   -0.0039092   -0.0025203   -0.8495850    0.3539049   -0.3910967
  -0.0049388   -0.0042724   -0.0015278   -0.9119772    0.3963623   -0.1058045
  -0.0051309   -0.0045633   -0.0013578   -0.9417933    0.3109219   -0.1278787
  -0.0052205   -0.0046974   -0.0011637   -0.9440359    0.3218325   -0.0722502
  -0.0050722   -0.0044008   -0.0006976   -0.9433134    0.3187374   -0.0925540
  -0.0049606   -0.0044619   -0.0021819   -0.9380212    0.2218552   -0.2662640
  -0.0044344   -0.0043866   -0.0029402   -0.7398315    0.1036388   -0.6647619
  -0.0046379   -0.0034812   -0.0005888   -0.7886356    0.6060975   -0.1034388
  -0.0047041   -0.0035311   -0.0001733   -0.7525177    0.6489675    0.1120637
  -0.0041788   -0.0033977    0.0005741   -0.2960579    0.9502376    0.0969439
  -0.0044560   -0.0034757    0.0003047   -0.6479218    0.7412827    0.1752065
  -0.0017470   -0.0058441   -0.0031631    0.3020993   -0.1959405   -0.9329219
  -0.0021284   -0.0053489   -0.0033555    0.0723229   -0.1973490   -0.9776619
  -0.0012222   -0.0068827   -0.0026231    0.4250301   -0.2124581   -0.8798926
  -0.0009033   -0.0054553   -0.0030449    0.2620303   -0.3316325   -0.9062891
  -0.0038199   -0.0043652   -0.0032532   -0.3427943    0.1126520   -0.9326315
  -0.0040517   -0.0048189   -0.0032129   -0.3739738   -0.0465566   -0.9262700
  -0.0034101   -0.0052880   -0.0033167   -0.1078643   -0.1976827   -0.9743135
  -0.0026200   -0.0061538   -0.0030799    0.0084347   -0.3240441   -0.9460044
   0.0004291   -0.0041048    0.0022801    0.3364947    0.8906904   -0.3056828
  -0.0004148   -0.0034151    0.0023562    0.5065970    0.8496012   -0.1467555
  -0.0000705   -0.0035787    0.0028460    0.5275598    0.8494219    0.0127757
   0.0006716   -0.0040738    0.0027561    0.3152743    0.9280258   -0.1984194
   0.0016315   -0.0043510    0.0027139    0.1903301    0.9797461   -0.0622257
   0.0011880   -0.0042151    0.0028495    0.1765807    0.9841182    0.0181858
   0.0018998   -0.0045088    0.0023303    0.1900059    0.9817762   -0.0036359
   0.0024415   -0.0046145    0.0015699    0.0517454    0.9983198   -0.0260772
   0.0027447   -0.0046924    0.0009802    0.2833970    0.9541374    0.0964777
   0.0026064   -0.0045634    0.0005282    0.1125901    0.9814029    0.1554728
   0.0029104   -0.0045882   -0.0000596    0.4244533    0.9054140    0.0080517
   0.0002864   -0.0060278   -0.0025911    0.4189359   -0.2589790   -0.8703003
   0.0001303   -0.0055335   -0.0028616    0.3054083   -0.2659461   -0.9143295
  -0.0000507   -0.0051501   -0.0029967    0.2336591   -0.2541597   -0.9385128
   0.0017015   -0.0056128   -0.0020359    0.4419957   -0.1462173   -0.8850199
   0.0024950   -0.0053752   -0.0016256    0.5187181    0.1111134   -0.8476942
  -0.0005274   -0.0059538   -0.0028135    0.1231613   -0.3649066   -0.9228621
   0.0030051   -0.0047479   -0.0006911    0.5006700    0.8235554   -0.2666196
   0.0028596   -0.0049243   -0.0011531    0.6431450    0.5192813   -0.5627712
   0.0026822   -0.0050665   -0.0014056    0.5887259    0.3260157   -0.7396727
  -0.0034166   -0.0033468    0.0011489   -0.2623074    0.9636321   -0.0510682
  -0.0035169   -0.0034603    0.0017710   -0.5677078    0.8010517    0.1898001
  -0.0043884   -0.0035397    0.0007455   -0.6146849    0.6998307    0.3638673
  -0.0012607   -0.0028149    0.0024294    0.1773263    0.9326610    0.3141637
  -0.0018788   -0.0027177    0.0023159   -0.2503216    0.9228185    0.2928226
  -0.0025162   -0.0029334    0.0021894   -0.5607732    0.8024527    0.2039685
  -0.0044655   -0.0039661   -0.0027188   -0.7829182    0.2738797   -0.5585955
  -0.0050929   -0.0048404   -0.0020034   -0.9453528    0.1596969   -0.2842620
  -0.0052095   -0.0049473   -0.0018134   -0.9521063    0.1370378   -0.2733390
  -0.0054080   -0.0050477   -0.0009943   -0.9819197    0.1883680   -0.0187388
  -0.0052081   -0.0046729   -0.0005161   -0.9691344    0.2418988    0.0475756
  -0.0048997   -0.0038319   -0.0002186   -0.9544018    0.2981227    0.0154911
  -0.0049300   -0.0048823   -0.0024035   -0.8666506   -0.0107798   -0.4987991
  -0.0044746   -0.0048314   -0.0029606   -0.6763740   -0.0827431   -0.7318960
  -0.0048101   -0.0038729    0.0004414   -0.9160633    0.2900170    0.2769805
  -0.0046325   -0.0037288    0.0006936   -0.7870872    0.4843655    0.3819474
  -0.0017783   -0.0063068   -0.0030452    0.2012830   -0.2867824   -0.9366114
  -0.0010835   -0.0077892   -0.0023123    0.3156503   -0.2756047   -0.9079686
  -0.0021695   -0.0059635   -0.0032045    0.0161142   -0.3251666   -0.9455194
  -0.0010210   -0.0068633   -0.0025454    0.2542175   -0.1590524   -0.9539789
  -0.0010004   -0.0064086   -0.0025958    0.3230058   -0.2723211   -0.9063710
  -0.0043007   -0.0052750   -0.0030629   -0.4420891   -0.1747071   -0.8797924
  -0.0040047   -0.0057326   -0.0031133   -0.2179350   -0.2086505   -0.9533988
  -0.0032316   -0.0057711   -0.0031838    0.0567446   -0.2606997   -0.9637509
  -0.0034403   -0.0057500   -0.0032067   -0.0288323   -0.2529519   -0.9670491
  -0.0018462   -0.0070318   -0.0027448    0.0458795   -0.3966931   -0.9168040
  -0.0022961   -0.0071936   -0.0026193    0.0522880   -0.3708544   -0.9272179
  -0.0037196   -0.0066683   -0.0029480   -0.0474310   -0.2808743   -0.9585718
  -0.0029589   -0.0076226   -0.0025417    0.1180306   -0.3108606   -0.9430983
  -0.0040296   -0.0078381   -0.0025351   -0.1163759   -0.3000562   -0.9467961
  -0.0002729   -0.0034037    0.0028128    0.4295187    0.9017843    0.0479458
  -0.0010906   -0.0029927    0.0026708    0.1983035    0.9060402    0.3738541
  -0.0001392   -0.0037224    0.0032587    0.2862416    0.8128350    0.5073116
  -0.0003071   -0.0034633    0.0030195    0.3173806    0.8426909    0.4349042
   0.0013596   -0.0043234    0.0030934    0.2693442    0.8761029    0.3998718
   0.0018352   -0.0044752    0.0027489    0.4359415    0.8744656    0.2127556
   0.0006755   -0.0042824    0.0033952    0.2564740    0.6611975    0.7050099
   0.0025109   -0.0049180    0.0024334    0.6006165    0.6762238    0.4265926
   0.0026143   -0.0046883    0.0018151    0.4271467    0.8730784    0.2351166
   0.0029475   -0.0048635    0.0010135    0.4465597    0.8692116    0.2122632
   0.0028503   -0.0048365    0.0016402    0.6594016    0.6880781    0.3028831
   0.0030819   -0.0046944    0.0001845    0.4232745    0.8996178    0.1073617
   0.0030292   -0.0046897   -0.0002551    0.5567373    0.8245016   -0.1011964
   0.0031142   -0.0047246   -0.0000254    0.9110727    0.4117706   -0.0197849
   0.0031142   -0.0047246   -0.0000254    0.9678403    0.2500549   -0.0275244
   0.0010401   -0.0065857   -0.0020642    0.4283167   -0.2615686   -0.8649432
   0.0004145   -0.0069822   -0.0022205    0.3572299   -0.3345446   -0.8720474
  -0.0002326   -0.0073714   -0.0022362    0.2335757   -0.3251344   -0.9163678
  -0.0003992   -0.0069084   -0.0024448    0.1547085   -0.2907657   -0.9442037
   0.0020709   -0.0061144   -0.0017662    0.4286309   -0.1927458   -0.8826803
   0.0026720   -0.0058520   -0.0014795    0.6186888   -0.0601678   -0.7833288
   0.0030529   -0.0054715   -0.0011284    0.6977535    0.1942764   -0.6894902
   0.0022587   -0.0062589   -0.0016323    0.4994301   -0.2068378   -0.8413012
  -0.0008002   -0.0065156   -0.0025331    0.0831255   -0.2549188   -0.9633829
   0.0032061   -0.0049900   -0.0006602    0.7130755    0.5614717   -0.4198485
   0.0031461   -0.0047484   -0.0002348    0.4668797    0.8685686   -0.1661682
   0.0032289   -0.0054237   -0.0008835    0.7795981    0.2903804   -0.5548928
  -0.0031326   -0.0032995    0.0020628   -0.6903965    0.6464006    0.3248369
  -0.0036735   -0.0037387    0.0019482   -0.7527206    0.4552153    0.4755952
  -0.0041135   -0.0038394    0.0014330   -0.7348289    0.4249242    0.5286453
  -0.0017436   -0.0029854    0.0027632   -0.2023405    0.8148812    0.5431639
  -0.0018154   -0.0032717    0.0031710   -0.1722199    0.7386201    0.6517520
  -0.0023297   -0.0029346    0.0024393   -0.4519892    0.7802050    0.4324187
  -0.0029573   -0.0032386    0.0023125   -0.6398674    0.6764978    0.3645825
  -0.0050419   -0.0053490   -0.0022234   -0.8885953   -0.1075166   -0.4459132
  -0.0054241   -0.0054472   -0.0013593   -0.9649591   -0.0511641   -0.2573640
  -0.0054751   -0.0053729   -0.0010166   -0.9955074   -0.0214074   -0.0922317
  -0.0055013   -0.0055157   -0.0008110   -0.9975959   -0.0226793    0.0654829
  -0.0053465   -0.0051393   -0.0003407   -0.9656183    0.1287688    0.2258317
  -0.0048264   -0.0057710   -0.0025154   -0.7968734   -0.1711213   -0.5794051
  -0.0045663   -0.0057448   -0.0028119   -0.6572551   -0.2116908   -0.7233276
  -0.0048525   -0.0042912    0.0006361   -0.9262976    0.0544687    0.3728351
  -0.0052460   -0.0056641    0.0001834   -0.9095438    0.0216323    0.4150447
  -0.0046727   -0.0040531    0.0008915   -0.8419661    0.2268829    0.4895071
  -0.0006461   -0.0073841   -0.0023146    0.2740894   -0.3109753   -0.9100381
  -0.0006812   -0.0078298   -0.0021708    0.4363879   -0.2932793   -0.8506191
  -0.0006440   -0.0073614   -0.0023233    0.4104834   -0.2873346   -0.8654145
  -0.0015666   -0.0086105   -0.0020940    0.1506187   -0.3237651   -0.9340718
  -0.0043458   -0.0066584   -0.0027750   -0.4661906   -0.2774740   -0.8400443
  -0.0041242   -0.0061911   -0.0029946   -0.3003160   -0.2604956   -0.9175796
  -0.0025982   -0.0076877   -0.0024760    0.1160526   -0.2916217   -0.9494675
  -0.0038759   -0.0086983   -0.0023160    0.0671725   -0.2174290   -0.9737620
  -0.0042939   -0.0085169   -0.0023296   -0.3569876   -0.2064965   -0.9109989
  -0.0044618   -0.0075940   -0.0024498   -0.5236840   -0.2707304   -0.8077501
  -0.0005477   -0.0035210    0.0031874    0.1781533    0.7518895    0.6347626
  -0.0009923   -0.0034464    0.0033207    0.0788164    0.7434460    0.6641356
   0.0004340   -0.0043665    0.0035624    0.2669277    0.5340999    0.8021764
  -0.0002074   -0.0041445    0.0036213    0.1764592    0.5876027    0.7896741
   0.0015630   -0.0044720    0.0031275    0.4877341    0.6806304    0.5466788
   0.0013228   -0.0044991    0.0032964    0.3281294    0.5582002    0.7620653
   0.0008344   -0.0049244    0.0036215    0.3277434    0.3108969    0.8921476
   0.0012805   -0.0049421    0.0034901    0.3361500    0.2760026    0.9004586
   0.0026822   -0.0050095    0.0022483    0.6856614    0.5485755    0.4784698
   0.0025593   -0.0055039    0.0026402    0.6712918    0.2695009    0.6904611
   0.0022371   -0.0049987    0.0028090    0.6469759    0.4419316    0.6213845
   0.0027813   -0.0049779    0.0020530    0.7031412    0.6111025    0.3635192
   0.0033183   -0.0052895    0.0012858    0.6525645    0.6652609    0.3627500
   0.0034237   -0.0049928    0.0006695    0.6133589    0.7340098    0.2915827
   0.0034573   -0.0049515    0.0004623    0.5386975    0.8245535    0.1729641
   0.0031664   -0.0047567    0.0001982    0.5113489    0.8546699    0.0897866
   0.0031334   -0.0062335    0.0022974    0.7602233    0.3729663    0.5319368
   0.0034068   -0.0061691    0.0019212    0.7169908    0.4176446    0.5581192
   0.0034563   -0.0058682    0.0016618    0.7656941    0.4670132    0.4422795
   0.0031142   -0.0047246   -0.0000254    0.7686174    0.6377971   -0.0494184
   0.0022362   -0.0064897   -0.0015311    0.4918106   -0.3485318   -0.7979022
   0.0009350   -0.0077016   -0.0015965    0.4624864   -0.3441292   -0.8171177
  -0.0002345   -0.0073960   -0.0022264    0.4625895   -0.3239033   -0.8252864
   0.0003411   -0.0084211   -0.0015142    0.4213511   -0.2949199   -0.8576045
  -0.0004815   -0.0078506   -0.0020916    0.3306510   -0.3234985   -0.8865769
  -0.0004395   -0.0073797   -0.0022753    0.7796456   -0.2135815   -0.5886729
   0.0032484   -0.0059621   -0.0008954    0.7781918   -0.0011249   -0.6280257
   0.0028209   -0.0063523   -0.0011639    0.6185366   -0.2486257   -0.7453843
   0.0035315   -0.0055935   -0.0004018    0.8599865    0.2569711   -0.4408957
   0.0035479   -0.0052658   -0.0001744    0.8364863    0.4098057   -0.3637993
   0.0033493   -0.0048971   -0.0002008    0.6102371    0.7533395   -0.2451332
  -0.0034811   -0.0038112    0.0024120   -0.7834979    0.4199663    0.4579950
  -0.0039774   -0.0040932    0.0018806   -0.7865232    0.2844942    0.5481281
  -0.0035889   -0.0042796    0.0025930   -0.8000264    0.1249724    0.5868045
  -0.0023654   -0.0030696    0.0026434   -0.4540192    0.7424379    0.4925978
  -0.0019095   -0.0035728    0.0033594   -0.2925935    0.5203594    0.8022563
  -0.0026494   -0.0034882    0.0030203   -0.4770283    0.5590314    0.6781799
  -0.0012349   -0.0035836    0.0034858   -0.1216257    0.5805290    0.8051045
  -0.0030063   -0.0034011    0.0025135   -0.6711643    0.6512671    0.3541041
  -0.0053433   -0.0058599   -0.0016506   -0.8944345   -0.1647863   -0.4157312
  -0.0053836   -0.0063324   -0.0014570   -0.9340206   -0.2331795   -0.2706158
  -0.0054588   -0.0060672   -0.0012485   -0.9755795   -0.1576556   -0.1529359
  -0.0054010   -0.0056071   -0.0001739   -0.9561383   -0.0121204    0.2926647
  -0.0055119   -0.0064382   -0.0006251   -0.9861093   -0.1611818    0.0401112
  -0.0048919   -0.0066992   -0.0022618   -0.8004245   -0.2385662   -0.5499152
  -0.0046684   -0.0071403   -0.0024108   -0.6780960   -0.2753431   -0.6814485
  -0.0048991   -0.0053095    0.0007507   -0.8699892   -0.0983908    0.4831542
  -0.0047944   -0.0044305    0.0008576   -0.9011791    0.0291093    0.4324685
  -0.0053863   -0.0065345    0.0000403   -0.8977844   -0.1198053    0.4238275
  -0.0045400   -0.0045067    0.0013191   -0.8220450    0.0825623    0.5634053
  -0.0004395   -0.0073797   -0.0022753    0.8681041   -0.1623735   -0.4690737
  -0.0001562   -0.0088290   -0.0016270    0.3326213   -0.2449185   -0.9107019
  -0.0004395   -0.0073797   -0.0022753    0.8804461   -0.1675624   -0.4435509
  -0.0016625   -0.0099526   -0.0017215    0.1693569   -0.2130867   -0.9622434
  -0.0020228   -0.0090454   -0.0019776    0.1371841   -0.2417615   -0.9605894
  -0.0036860   -0.0090125   -0.0022232    0.1650176   -0.1949574   -0.9668303
  -0.0041451   -0.0098945   -0.0021720    0.0218630   -0.1058601   -0.9941407
  -0.0049386   -0.0085470   -0.0018673   -0.7742418   -0.2350117   -0.5876386
  -0.0047923   -0.0089912   -0.0019517   -0.7723731   -0.2376295   -0.5890434
  -0.0046029   -0.0098979   -0.0019662   -0.5899719   -0.2218526   -0.7763470
  -0.0049886   -0.0078772   -0.0018573   -0.8367286   -0.2510483   -0.4866827
  -0.0008258   -0.0037624    0.0035580    0.1709832    0.6204867    0.7653502
  -0.0010692   -0.0039282    0.0037221    0.0394086    0.4938392    0.8686598
  -0.0000458   -0.0046351    0.0038567    0.2060003    0.3992661    0.8933926
  -0.0002560   -0.0045513    0.0038567    0.1108781    0.4028327    0.9085328
   0.0017640   -0.0047432    0.0031571    0.5363440    0.4303912    0.7260155
   0.0010183   -0.0060046    0.0036120    0.3240790    0.0083963    0.9459928
   0.0001470   -0.0050033    0.0039194    0.3162236    0.1748971    0.9324235
   0.0017569   -0.0055579    0.0033469    0.5073384    0.1010137    0.8558060
   0.0017298   -0.0051022    0.0033096    0.5288772    0.2641186    0.8065545
   0.0023929   -0.0064308    0.0029128    0.5226894    0.0594319    0.8504491
   0.0030143   -0.0064054    0.0024848    0.6921819    0.2012348    0.6931009
   0.0019554   -0.0053868    0.0031746    0.6473735    0.2365838    0.7245244
   0.0019337   -0.0059969    0.0032067    0.5741345    0.0755184    0.8152709
   0.0037067   -0.0058088    0.0011286    0.8978290    0.3617622    0.2510604
   0.0035893   -0.0053661    0.0009046    0.8086136    0.5359655    0.2426624
   0.0036475   -0.0052419    0.0002748    0.8508880    0.5223384    0.0561447
   0.0034898   -0.0049530    0.0002536    0.6397953    0.7681129   -0.0257795
   0.0033186   -0.0048242    0.0000103    0.5043691    0.8567927   -0.1073221
   0.0035760   -0.0063338    0.0017334    0.8320993    0.2565975    0.4916995
   0.0037017   -0.0062915    0.0013771    0.9439752    0.2155012    0.2499403
   0.0015852   -0.0076216   -0.0012570    0.4939882   -0.3418835   -0.7994319
   0.0024056   -0.0066855   -0.0012900    0.5362566   -0.3479945   -0.7689790
   0.0012943   -0.0080591   -0.0012378    0.4771385   -0.3049995   -0.8242052
  -0.0001864   -0.0092912   -0.0015174    0.3846798   -0.2151410   -0.8976279
   0.0013671   -0.0094958   -0.0006022    0.4409660   -0.2638107   -0.8578770
   0.0030720   -0.0068721   -0.0007403    0.6479406   -0.2395441   -0.7230433
   0.0034496   -0.0064824   -0.0004430    0.8491683   -0.0940874   -0.5196737
   0.0036523   -0.0060786   -0.0001786    0.9232996    0.0773587   -0.3762094
   0.0037665   -0.0056984    0.0002839    0.9495665    0.2901084   -0.1189984
   0.0036081   -0.0052107    0.0000536    0.8155972    0.5349940   -0.2204147
  -0.0033003   -0.0043415    0.0029484   -0.7127248    0.1001429    0.6942584
  -0.0030857   -0.0039135    0.0030108   -0.7045501    0.2100068    0.6778690
  -0.0032395   -0.0036862    0.0026759   -0.7323414    0.4658794    0.4966210
  -0.0040197   -0.0046332    0.0020507   -0.8027870    0.0093958    0.5961918
  -0.0033148   -0.0047913    0.0029579   -0.6807009   -0.1159082    0.7233336
  -0.0036590   -0.0051690    0.0025538   -0.6933366   -0.1918823    0.6945974
  -0.0028184   -0.0033618    0.0027647   -0.5912316    0.6390541    0.4919909
  -0.0026858   -0.0037458    0.0032079   -0.3042006    0.4441853    0.8427107
  -0.0023105   -0.0039802    0.0034868   -0.3509967    0.3176076    0.8808671
  -0.0018947   -0.0038861    0.0035677   -0.2556371    0.4047720    0.8779575
  -0.0030662   -0.0037232    0.0029223   -0.6186327    0.4263263    0.6599542
  -0.0028335   -0.0034547    0.0028429   -0.6000440    0.5375785    0.5924158
  -0.0028973   -0.0039434    0.0031626    0.2047976    0.4065041    0.8904001
  -0.0012988   -0.0041120    0.0037988   -0.1200536    0.3378127    0.9335254
  -0.0052088   -0.0070238   -0.0016588   -0.8923317   -0.2487486   -0.3766541
  -0.0053043   -0.0077977   -0.0006252   -0.9528978   -0.2727093   -0.1327233
  -0.0054915   -0.0069162   -0.0004201   -0.9644020   -0.2294652    0.1314321
  -0.0049466   -0.0071751   -0.0020437   -0.8055532   -0.2400209   -0.5417324
  -0.0048495   -0.0057680    0.0008083   -0.8005092   -0.1441107    0.5817363
  -0.0044649   -0.0054387    0.0015351   -0.7762089   -0.1732822    0.6061956
  -0.0047291   -0.0049151    0.0010967   -0.8383940   -0.0584530    0.5419213
  -0.0047378   -0.0057991    0.0009909   -0.8439734   -0.1580670    0.5125657
  -0.0052787   -0.0070049    0.0001517   -0.8218028   -0.1538924    0.5485958
  -0.0010768   -0.0105938   -0.0015039    0.3176352   -0.1730253   -0.9322929
  -0.0019196   -0.0107072   -0.0015770    0.1707004   -0.1650818   -0.9713956
  -0.0021279   -0.0107828   -0.0016186    0.1879955   -0.1237570   -0.9743418
  -0.0033656   -0.0106471   -0.0018473    0.2940521   -0.0743682   -0.9528918
  -0.0041627   -0.0103464   -0.0021396   -0.2866513   -0.1754129   -0.9418393
  -0.0037675   -0.0108312   -0.0020333    0.2356714   -0.1180906   -0.9646313
  -0.0051054   -0.0087021   -0.0012591   -0.9429209   -0.2629889   -0.2042963
  -0.0048380   -0.0094665   -0.0017483   -0.8617205   -0.2592491   -0.4361510
  -0.0044892   -0.0108170   -0.0018491   -0.7160209   -0.2694889   -0.6439641
  -0.0051307   -0.0076657   -0.0016630   -0.9059537   -0.2523236   -0.3399716
  -0.0052153   -0.0081927   -0.0010499   -0.9442356   -0.2800042   -0.1732534
  -0.0010383   -0.0045914    0.0039231    0.0047445    0.2380533    0.9712405
  -0.0000803   -0.0051003    0.0039946    0.1094202    0.1726323    0.9788898
   0.0014675   -0.0060074    0.0034617    0.4211903   -0.0515054    0.9055086
  -0.0000926   -0.0055482    0.0039927    0.1291963   -0.0937413    0.9871782
  -0.0000900   -0.0063139    0.0038369    0.1227335   -0.1526569    0.9806286
   0.0001223   -0.0068733    0.0037392    0.2237682   -0.1231672    0.9668286
   0.0028499   -0.0068658    0.0026361    0.6441588    0.0675359    0.7619044
   0.0028418   -0.0073107    0.0026071    0.6243411   -0.0209226    0.7808716
   0.0014155   -0.0073206    0.0032314    0.4040826   -0.0742178    0.9117066
   0.0033625   -0.0068196    0.0020869    0.7938401    0.0820262    0.6025692
   0.0037817   -0.0062285    0.0008784    0.9906638    0.1241415    0.0563385
   0.0037331   -0.0066583    0.0011091    0.9970805    0.0503644    0.0573928
   0.0035967   -0.0067822    0.0017241    0.9261242    0.0697865    0.3707072
   0.0036972   -0.0068014    0.0013129    0.9936241    0.0152691    0.1117047
   0.0019433   -0.0073997   -0.0011832    0.4768025   -0.3310002   -0.8143084
   0.0016908   -0.0079670   -0.0010325    0.4578609   -0.2946180   -0.8387870
   0.0001709   -0.0097110   -0.0011545    0.5086573   -0.2683284   -0.8180878
   0.0005052   -0.0102964   -0.0006787    0.4341253   -0.2253458   -0.8722124
   0.0017389   -0.0099982   -0.0003477    0.3445074   -0.1356094   -0.9289374
   0.0004991   -0.0098610   -0.0008821    0.5190957   -0.3112765   -0.7960192
   0.0017639   -0.0095150   -0.0004192    0.3894816   -0.1915224   -0.9009014
   0.0034104   -0.0074315   -0.0000485    0.8629350   -0.1569354   -0.4803274
   0.0030052   -0.0078186   -0.0003508    0.6895435   -0.2113866   -0.6927087
   0.0025012   -0.0077410   -0.0007307    0.5031385   -0.2633690   -0.8230968
   0.0037281   -0.0065900    0.0002506    0.9775842   -0.0359113   -0.2074599
   0.0037950   -0.0061778    0.0004903    0.9889570    0.0954813   -0.1133466
  -0.0031131   -0.0043349    0.0031105   -0.4450053    0.1469968    0.8833812
  -0.0029296   -0.0044072    0.0032861   -0.5925972    0.0675955    0.8026577
  -0.0025630   -0.0049137    0.0035732   -0.5372806   -0.0690197    0.8405747
  -0.0038623   -0.0055640    0.0022391   -0.7156350   -0.2432400    0.6547525
  -0.0036744   -0.0064710    0.0022355   -0.6604161   -0.2245515    0.7165383
  -0.0031162   -0.0059017    0.0028495   -0.6850870   -0.2802052    0.6724141
  -0.0031223   -0.0056953    0.0029268   -0.6824995   -0.3134799    0.6602460
  -0.0032986   -0.0062663    0.0025896   -0.6293260   -0.2261778    0.7435001
  -0.0027594   -0.0055274    0.0033570   -0.6149020   -0.2587369    0.7449502
  -0.0025729   -0.0053606    0.0035543   -0.4859580   -0.1462904    0.8616519
  -0.0025204   -0.0041107    0.0034435   -0.4055457    0.2221924    0.8866585
  -0.0027079   -0.0039728    0.0033066   -0.3230954    0.2527425    0.9119926
  -0.0028973   -0.0039434    0.0031626    0.9466453    0.1208997    0.2987405
  -0.0019405   -0.0044614    0.0037570   -0.2914183    0.1755387    0.9403518
  -0.0023639   -0.0048815    0.0036652   -0.3602201    0.0565456    0.9311520
  -0.0015245   -0.0043531    0.0038384   -0.1978490    0.2283693    0.9532593
  -0.0028973   -0.0039434    0.0031626    0.7475576    0.1398503    0.6493070
  -0.0013516   -0.0050306    0.0039705   -0.1080529    0.0398872    0.9933446
  -0.0052603   -0.0083347    0.0000119   -0.9456937   -0.2705247    0.1802218
  -0.0051935   -0.0079202    0.0002511   -0.8517699   -0.1935000    0.4868735
  -0.0047597   -0.0078274    0.0007652   -0.7838196   -0.1218698    0.6089127
  -0.0040148   -0.0072905    0.0017804   -0.7121119   -0.1448668    0.6869572
  -0.0037873   -0.0068905    0.0020500   -0.6755848   -0.1973919    0.7103672
  -0.0039320   -0.0059836    0.0020488   -0.7090327   -0.2336988    0.6653251
  -0.0050058   -0.0079650    0.0005003   -0.7641751   -0.1586381    0.6251963
  -0.0011278   -0.0115100   -0.0013389    0.2610662   -0.1237212   -0.9573596
  -0.0000898   -0.0106246   -0.0010153    0.5491315   -0.1699908   -0.8182650
  -0.0005186   -0.0112914   -0.0011154    0.5077575   -0.1280588   -0.8519292
  -0.0017921   -0.0123751   -0.0013325    0.1438113   -0.1269731   -0.9814256
  -0.0035311   -0.0108631   -0.0018846    0.3492195   -0.0782640   -0.9337668
  -0.0034868   -0.0131587   -0.0015233    0.1966362   -0.1836578   -0.9631220
  -0.0026777   -0.0132349   -0.0012673    0.1539485   -0.1705782   -0.9732435
  -0.0042585   -0.0108067   -0.0020201   -0.3174584   -0.2111843   -0.9244573
  -0.0040520   -0.0121176   -0.0018048   -0.1272743   -0.2813740   -0.9511203
  -0.0040429   -0.0112708   -0.0019928   -0.1171693   -0.1991004   -0.9729493
  -0.0049578   -0.0098353   -0.0010491   -0.9505522   -0.2793022   -0.1357966
  -0.0050869   -0.0096312   -0.0004233   -0.9430579   -0.3254936   -0.0685260
  -0.0048905   -0.0097756   -0.0014647   -0.9330636   -0.2730929   -0.2341208
  -0.0051771   -0.0092057   -0.0002131   -0.9377366   -0.3473043   -0.0054614
  -0.0048042   -0.0099281   -0.0016674   -0.8729076   -0.2888317   -0.3932029
  -0.0042521   -0.0117321   -0.0018174   -0.4905930   -0.2746276   -0.8269814
  -0.0044844   -0.0115152   -0.0016538   -0.7686886   -0.2694886   -0.5800808
  -0.0047452   -0.0110190   -0.0012587   -0.9230366   -0.2601408   -0.2834258
  -0.0003000   -0.0064505    0.0037933   -0.0185860   -0.1745857    0.9844666
  -0.0015662   -0.0063367    0.0037455   -0.0308347   -0.1694278    0.9850601
   0.0005644   -0.0076862    0.0034901    0.3402434   -0.0841830    0.9365616
  -0.0003133   -0.0086122    0.0034918    0.0863588   -0.1059451    0.9906149
   0.0033616   -0.0072579    0.0020166    0.8599334   -0.0683597    0.5058078
   0.0020705   -0.0077615    0.0029123    0.4312488   -0.0816141    0.8985341
   0.0028435   -0.0077485    0.0025155    0.7016351   -0.1189800    0.7025325
   0.0031021   -0.0075908    0.0022522    0.8346714   -0.1227060    0.5369049
   0.0036121   -0.0072135    0.0004254    0.9862793   -0.1153516   -0.1180978
   0.0036113   -0.0072023    0.0015001    0.9819699   -0.0799005    0.1713214
   0.0024272   -0.0086764   -0.0004282    0.4632702   -0.2447422   -0.8517523
   0.0002927   -0.0105493   -0.0007262    0.5763247   -0.2029210   -0.7916268
   0.0002424   -0.0113387   -0.0005440    0.4112462   -0.1238659   -0.9030691
   0.0008385   -0.0117472   -0.0003491    0.2911952   -0.1724209   -0.9409976
   0.0021314   -0.0101062   -0.0001526    0.5935287   -0.1554600   -0.7896555
   0.0032074   -0.0082527    0.0001042    0.8819336   -0.1944982   -0.4293757
   0.0028172   -0.0086705   -0.0001963    0.6385522   -0.2229684   -0.7365705
  -0.0027332   -0.0043841    0.0033954   -0.4660135    0.1178579    0.8768928
  -0.0028633   -0.0074953    0.0028506   -0.6077962   -0.1955319    0.7696435
  -0.0027565   -0.0062035    0.0032146   -0.6297453   -0.2543470    0.7339812
  -0.0021827   -0.0059982    0.0036667   -0.4068542   -0.2628853    0.8748491
  -0.0017754   -0.0054459    0.0038834   -0.2170470   -0.0985015    0.9711787
  -0.0019834   -0.0058697    0.0037766   -0.2342450   -0.1901547    0.9533994
  -0.0051136   -0.0095035    0.0000053   -0.9020088   -0.2697882    0.3370378
  -0.0045818   -0.0080553    0.0010070   -0.8149287   -0.0952067    0.5716877
  -0.0044692   -0.0098906    0.0012586   -0.7553712   -0.0719047    0.6513402
  -0.0034079   -0.0078423    0.0023084   -0.6431946   -0.1009693    0.7590164
  -0.0007524   -0.0120110   -0.0011122    0.4630067   -0.1029353   -0.8803574
  -0.0000720   -0.0111880   -0.0008135    0.5953932   -0.1600621   -0.7873291
  -0.0001915   -0.0121045   -0.0006333    0.5172066   -0.1106217   -0.8486815
  -0.0020904   -0.0141856   -0.0011131    0.0770794   -0.1185531   -0.9899515
  -0.0014003   -0.0128617   -0.0012031    0.2777785   -0.1141837   -0.9538350
  -0.0022574   -0.0132620   -0.0012407    0.0325734   -0.1549865   -0.9873794
  -0.0033346   -0.0140314   -0.0012956    0.2505292   -0.1779125   -0.9516208
  -0.0036021   -0.0150035   -0.0011203    0.1881748   -0.1891939   -0.9637406
  -0.0027065   -0.0136966   -0.0011659    0.1087533   -0.1532280   -0.9821883
  -0.0037742   -0.0145216   -0.0012924   -0.0319916   -0.2926140   -0.9556953
  -0.0039293   -0.0135894   -0.0014959   -0.0881860   -0.2037429   -0.9750446
  -0.0042960   -0.0123056   -0.0016412   -0.5146345   -0.2792365   -0.8106653
  -0.0050545   -0.0097653   -0.0004207   -0.9112875   -0.4013299   -0.0921377
  -0.0050173   -0.0100846   -0.0004231   -0.9680450   -0.2354839   -0.0862341
  -0.0049803   -0.0105352   -0.0004293   -0.9660147   -0.2448743   -0.0827777
  -0.0050842   -0.0096602   -0.0002088    0.8502062   -0.5264282    0.0047610
  -0.0050842   -0.0096602   -0.0002088    0.9871452   -0.1590957    0.0152602
  -0.0045503   -0.0122278   -0.0013627   -0.8196890   -0.2476295   -0.5165167
  -0.0046988   -0.0122580   -0.0010711   -0.9186519   -0.2092830   -0.3350810
  -0.0049437   -0.0110136   -0.0002216   -0.9711033   -0.2262032   -0.0760950
  -0.0049008   -0.0114645   -0.0002265   -0.9737434   -0.1860528   -0.1311795
  -0.0005114   -0.0068364    0.0037172   -0.0266564   -0.1554799    0.9874793
  -0.0013577   -0.0067889    0.0036928   -0.1208681   -0.2280311    0.9661225
   0.0016942   -0.0081987    0.0029799    0.4043690   -0.0407759    0.9136865
   0.0009926   -0.0095318    0.0031419    0.3330963   -0.0450256    0.9418171
   0.0012330   -0.0086445    0.0031242    0.3945667   -0.0246345    0.9185370
  -0.0001165   -0.0095131    0.0034324    0.0858370   -0.0545328    0.9948157
  -0.0009447   -0.0085744    0.0034522   -0.1581212   -0.1386873    0.9776316
   0.0033669   -0.0080780    0.0014283    0.9654699   -0.1648803    0.2016986
   0.0026064   -0.0083298    0.0025670    0.6861778   -0.1044061    0.7199023
   0.0031544   -0.0085378    0.0015898    0.8841657   -0.1626915    0.4379297
   0.0035032   -0.0076960    0.0010353    0.9880064   -0.1502234   -0.0357246
   0.0033526   -0.0080864    0.0005660    0.9726495   -0.1904157   -0.1330215
   0.0027733   -0.0091519   -0.0000039    0.7436405   -0.2472975   -0.6211624
   0.0016685   -0.0123041    0.0001262    0.5129279   -0.2153599   -0.8309784
   0.0012489   -0.0117807   -0.0002564    0.3610525   -0.2101365   -0.9085614
   0.0003450   -0.0130941   -0.0001576    0.3738590   -0.1213815   -0.9195085
   0.0014371   -0.0118842   -0.0001199    0.5635065   -0.1258958   -0.8164623
   0.0027325   -0.0095008    0.0001932    0.8818129   -0.2136482   -0.4204288
   0.0024091   -0.0110610    0.0006204    0.9563789   -0.1805954   -0.2296187
   0.0021121   -0.0119199    0.0004357    0.8195724   -0.1419339   -0.5551178
   0.0021974   -0.0119550    0.0006654    0.9657472   -0.1151020   -0.2325596
   0.0029494   -0.0090461    0.0002473    0.9347280   -0.2210095   -0.2782775
  -0.0025684   -0.0084257    0.0029743   -0.4833720   -0.1039028    0.8692271
  -0.0023646   -0.0080052    0.0031080   -0.3698638   -0.1207242    0.9212092
  -0.0023723   -0.0066953    0.0033942   -0.4590176   -0.2682134    0.8469737
  -0.0023777   -0.0075618    0.0031548   -0.3855471   -0.2416664    0.8904778
  -0.0021686   -0.0071527    0.0033662   -0.2954197   -0.2683615    0.9169020
  -0.0050967   -0.0096891    0.0000032   -0.9709063   -0.2335184    0.0530100
  -0.0050842   -0.0096602   -0.0002088    0.1255034   -0.9668422   -0.2224076
  -0.0049481   -0.0102049    0.0004454   -0.9250988   -0.1524453    0.3477824
  -0.0047327   -0.0102804    0.0009139   -0.8350316   -0.0888880    0.5429743
  -0.0041813   -0.0104081    0.0016580   -0.7512485   -0.0455523    0.6584456
  -0.0037369   -0.0095899    0.0020699   -0.6879189   -0.0416826    0.7245896
  -0.0028435   -0.0097325    0.0027888   -0.5182267   -0.0287155    0.8547611
  -0.0035516   -0.0097164    0.0022265   -0.6099988   -0.0489363    0.7908898
  -0.0006106   -0.0129546   -0.0008278    0.5437745   -0.0911480   -0.8342670
  -0.0003713   -0.0125345   -0.0006944    0.5999740   -0.0764360   -0.7963597
  -0.0019038   -0.0146552   -0.0010281    0.2372415   -0.0938695   -0.9669049
  -0.0021297   -0.0150932   -0.0010236    0.0816694   -0.0926707   -0.9923418
  -0.0008465   -0.0137218   -0.0008183    0.4640242   -0.0904078   -0.8811969
  -0.0029707   -0.0147817   -0.0010343    0.1565165   -0.1191743   -0.9804591
  -0.0038467   -0.0154920   -0.0010050   -0.2370750   -0.1814353   -0.9543986
  -0.0027642   -0.0150632   -0.0010037    0.0273665   -0.1119039   -0.9933421
  -0.0042005   -0.0142975   -0.0012516   -0.3476415   -0.3240025   -0.8798681
  -0.0043623   -0.0145202   -0.0010739   -0.5046713   -0.3479408   -0.7900912
  -0.0045083   -0.0150031   -0.0007702   -0.7458140   -0.2619583   -0.6124862
  -0.0049712   -0.0106224    0.0002144   -0.9675795   -0.2104116    0.1397026
  -0.0047723   -0.0132060   -0.0006828   -0.9384306   -0.1858945   -0.2911894
  -0.0049324   -0.0115200    0.0001956   -0.9777183   -0.1861640    0.0970046
  -0.0049021   -0.0123866   -0.0000391   -0.9857518   -0.1660277    0.0269848
  -0.0012372   -0.0072321    0.0035941   -0.0557460   -0.1901731    0.9801666
  -0.0015604   -0.0073361    0.0035301   -0.1743008   -0.2140042    0.9611563
   0.0022949   -0.0086433    0.0027138    0.5000333   -0.0757292    0.8626887
   0.0000790   -0.0108522    0.0033027    0.2844771   -0.0224871    0.9584191
  -0.0013774   -0.0094351    0.0033429   -0.1062945   -0.0485405    0.9931492
  -0.0021798   -0.0089146    0.0031241   -0.3141687   -0.0524862    0.9479152
   0.0026965   -0.0102614    0.0012382    0.9573574   -0.1929352    0.2150413
   0.0027984   -0.0099468    0.0010518    0.9764561   -0.1769897   -0.1233210
   0.0029848   -0.0093328    0.0008902    0.9786240   -0.1739740   -0.1096729
   0.0025777   -0.0094741    0.0020985    0.8549517   -0.1673288    0.4909772
   0.0022466   -0.0095053    0.0024645    0.7361686   -0.1622924    0.6570518
   0.0028236   -0.0090174    0.0019434    0.8798841   -0.1496596    0.4510056
   0.0032469   -0.0084280    0.0007508    0.9741172   -0.1845999   -0.1304553
   0.0019423   -0.0126351    0.0005976    0.8695357   -0.2092559   -0.4473474
   0.0013502   -0.0131951    0.0002009    0.5218678   -0.1553852   -0.8387547
   0.0007336   -0.0135831   -0.0000081    0.3421082   -0.1338366   -0.9300805
  -0.0000807   -0.0135490   -0.0002395    0.4616993   -0.0949838   -0.8819364
   0.0026107   -0.0105374    0.0007845    0.9786148   -0.1905459   -0.0774937
   0.0021540   -0.0116193    0.0015262    0.9278207   -0.1555452    0.3390494
   0.0025100   -0.0106387    0.0014072    0.9521949   -0.2038425    0.2275370
   0.0020670   -0.0124205    0.0008421    0.9823849   -0.1705950   -0.0762714
  -0.0022075   -0.0102576    0.0031082   -0.3922301   -0.0389600    0.9190417
  -0.0048498   -0.0106894    0.0006649   -0.9145948   -0.1625936    0.3702428
  -0.0043251   -0.0108327    0.0015288   -0.7608343   -0.0557410    0.6465478
  -0.0043045   -0.0117413    0.0015961   -0.8030709   -0.0958446    0.5881249
  -0.0037955   -0.0113266    0.0021337   -0.6793198   -0.0405647    0.7327204
  -0.0036472   -0.0123282    0.0023661   -0.6641032   -0.0523755    0.7458041
  -0.0028565   -0.0115424    0.0028968   -0.4930321   -0.0159798    0.8698643
  -0.0024288   -0.0106859    0.0030371   -0.3673289   -0.0001011    0.9300911
  -0.0025060   -0.0129387    0.0031234   -0.3240148   -0.0233191    0.9457646
  -0.0004482   -0.0134436   -0.0005947    0.6286055   -0.0759321   -0.7740087
  -0.0012845   -0.0156240   -0.0007416    0.3414813   -0.0670937   -0.9374908
  -0.0015494   -0.0159117   -0.0007997    0.3014682   -0.0523892   -0.9520359
  -0.0023746   -0.0158226   -0.0009523    0.0232630   -0.0487237   -0.9985414
  -0.0018262   -0.0178425   -0.0007408    0.2658156   -0.0416288   -0.9631247
  -0.0006863   -0.0143439   -0.0005916    0.6104384   -0.0752299   -0.7884830
  -0.0008966   -0.0147544   -0.0006816    0.5405939   -0.0680191   -0.8385294
  -0.0034589   -0.0163846   -0.0009248   -0.0664299   -0.0503878   -0.9965180
  -0.0041564   -0.0159070   -0.0008608   -0.4743497   -0.0880190   -0.8759252
  -0.0043193   -0.0159094   -0.0007805   -0.6068183   -0.1297596   -0.7841772
  -0.0040876   -0.0159054   -0.0008991   -0.4407646   -0.0936328   -0.8927258
  -0.0044879   -0.0154638   -0.0006952   -0.6653320   -0.2097673   -0.7164712
  -0.0046816   -0.0150303   -0.0005043   -0.8938014   -0.2114027   -0.3955097
  -0.0048498   -0.0137039   -0.0002824   -0.9788845   -0.1761980   -0.1036310
  -0.0048164   -0.0120332    0.0006319   -0.9212784   -0.1480674    0.3596139
  -0.0048316   -0.0137926    0.0003629   -0.9606490   -0.1497435    0.2339452
  -0.0048040   -0.0124823    0.0006213   -0.9353898   -0.1374955    0.3257927
   0.0017906   -0.0103948    0.0025680    0.6285535   -0.1370846    0.7655902
   0.0012163   -0.0112881    0.0027564    0.6052309   -0.0633335    0.7935266
   0.0005105   -0.0117471    0.0031026    0.4535983   -0.0061327    0.8911851
  -0.0006088   -0.0121750    0.0033762    0.1461950    0.0234644    0.9889775
   0.0007503   -0.0114554    0.0029856    0.4913746    0.0164900    0.8707922
  -0.0018567   -0.0116473    0.0032885   -0.1911673    0.0026227    0.9815540
   0.0022042   -0.0106933    0.0019926    0.8448435   -0.1686004    0.5077532
   0.0020344   -0.0108019    0.0021720    0.7734880   -0.1880571    0.6052693
   0.0015065   -0.0136178    0.0004868    0.8373052   -0.1820983   -0.5155193
   0.0018689   -0.0129723    0.0010037    0.9828049   -0.1705214    0.0708310
   0.0010275   -0.0150246    0.0005718    0.6871585   -0.2019966   -0.6978614
   0.0008003   -0.0154627    0.0005861    0.4830610   -0.2300946   -0.8448127
   0.0009134   -0.0138501    0.0001537    0.4575720   -0.1933514   -0.8678958
   0.0002996   -0.0140074   -0.0000348    0.3855541   -0.1628558   -0.9081993
   0.0006533   -0.0147537    0.0002932    0.3838704   -0.2162696   -0.8977032
  -0.0003759   -0.0143819   -0.0003193    0.5843624   -0.0768588   -0.8078449
   0.0019930   -0.0124735    0.0012564    0.9389226   -0.1592520    0.3050626
   0.0016104   -0.0116938    0.0022813    0.7977092   -0.1147964    0.5920150
   0.0017068   -0.0112530    0.0023121    0.7510549   -0.1599687    0.6405673
  -0.0043315   -0.0121870    0.0015783   -0.8078637   -0.0864747    0.5829909
  -0.0030940   -0.0128673    0.0028121   -0.5428417   -0.0516493    0.8382453
  -0.0040359   -0.0131543    0.0019809   -0.7296478   -0.0786611    0.6792838
  -0.0016752   -0.0139066    0.0033168   -0.1781019   -0.0284904    0.9835995
  -0.0027161   -0.0133643    0.0030280   -0.4049060   -0.0668426    0.9119119
  -0.0010494   -0.0126034    0.0033953   -0.0754707    0.0019119    0.9971462
  -0.0011544   -0.0160943   -0.0006368    0.5112826   -0.0597834   -0.8573308
  -0.0016079   -0.0174098   -0.0006951    0.5279702   -0.0438939   -0.8481278
  -0.0013903   -0.0169789   -0.0006492    0.4544526   -0.0473028   -0.8895140
  -0.0022204   -0.0173571   -0.0008541    0.1131016   -0.0044513   -0.9935735
  -0.0036818   -0.0168194   -0.0009368   -0.1114269   -0.0014800   -0.9937715
  -0.0030677   -0.0175845   -0.0009194    0.0457567   -0.0009565   -0.9989522
  -0.0016261   -0.0178258   -0.0006552    0.3664242   -0.0274323   -0.9300434
  -0.0016274   -0.0178640   -0.0006539    0.4853434   -0.0071886   -0.8742941
  -0.0018439   -0.0182943   -0.0007070    0.3159263    0.0033511   -0.9487778
  -0.0028700   -0.0182102   -0.0009373    0.2200564    0.0354723   -0.9748420
  -0.0041029   -0.0162285   -0.0008600   -0.6237210   -0.1250535   -0.7715788
  -0.0047369   -0.0164255   -0.0001256   -0.8994390   -0.1004857   -0.4253376
  -0.0046916   -0.0159528   -0.0003182   -0.8679050   -0.2205843   -0.4450656
  -0.0046293   -0.0172911   -0.0004098   -0.7849475   -0.0373765   -0.6184338
  -0.0043683   -0.0172641   -0.0007130   -0.5349484   -0.0882326   -0.8402649
  -0.0041205   -0.0168084   -0.0008519   -0.4869730   -0.1231338   -0.8646938
  -0.0047792   -0.0160046    0.0000936   -0.9871912   -0.1486575   -0.0579182
  -0.0048182   -0.0151347    0.0003263   -0.9759934   -0.1751919    0.1294010
  -0.0043732   -0.0126238    0.0015145   -0.8497576   -0.1079293    0.5160070
  -0.0045123   -0.0130375    0.0013043   -0.8696309   -0.1181498    0.4793566
  -0.0044025   -0.0144170    0.0014996   -0.8619859   -0.1100349    0.4948460
  -0.0047127   -0.0152015    0.0007740   -0.9375552   -0.1320344    0.3218030
   0.0009263   -0.0121741    0.0027830    0.6116358   -0.0578112    0.7890244
   0.0013364   -0.0121477    0.0024312    0.7376764   -0.0927972    0.6687467
  -0.0000548   -0.0139741    0.0031902    0.4201826    0.0230829    0.9071460
   0.0007393   -0.0126215    0.0028446    0.6083255   -0.0297968    0.7931282
  -0.0004880   -0.0139698    0.0033236    0.2131770    0.0214068    0.9767790
  -0.0011076   -0.0148413    0.0033641    0.0468455   -0.0245412    0.9986006
   0.0014214   -0.0144768    0.0008753    0.9474963   -0.1437197   -0.2856491
   0.0012016   -0.0147633    0.0018999    0.9478208   -0.0299119    0.3173973
   0.0015840   -0.0129747    0.0018091    0.8716522   -0.1173690    0.4758644
   0.0012601   -0.0138829    0.0020119    0.8617411   -0.0359189    0.5060752
   0.0009441   -0.0159672    0.0009346    0.7633789   -0.1944387   -0.6159921
   0.0001819   -0.0158489    0.0003874    0.5510960   -0.1105830   -0.8270820
   0.0004380   -0.0149530    0.0002728    0.3903387   -0.2037385   -0.8978454
   0.0000454   -0.0149050    0.0000716    0.5408320   -0.1193062   -0.8326265
  -0.0033105   -0.0137350    0.0026815   -0.5623460   -0.0669262    0.8241892
  -0.0039081   -0.0149858    0.0021948   -0.7088646   -0.0902189    0.6995509
  -0.0035144   -0.0142373    0.0025315   -0.6008093   -0.0615841    0.7970167
  -0.0040747   -0.0145006    0.0019844   -0.6488183   -0.0971291    0.7547190
  -0.0040697   -0.0145000    0.0019894   -0.7201215   -0.0841949    0.6887207
  -0.0022491   -0.0147564    0.0031841   -0.2564276   -0.0422029    0.9656416
  -0.0015145   -0.0143345    0.0033348    0.1446444    0.0001318    0.9894837
  -0.0015033   -0.0139185    0.0033398    0.0968975    0.0024080    0.9952914
  -0.0035398   -0.0150525    0.0025500   -0.5303803   -0.0570116    0.8458407
  -0.0011004   -0.0165620   -0.0005194    0.5430713   -0.0274704   -0.8392371
  -0.0014101   -0.0174324   -0.0006032    0.8918257   -0.0143421   -0.4521517
  -0.0014101   -0.0174324   -0.0006032    0.9127585   -0.0225971   -0.4078741
  -0.0012591   -0.0169967   -0.0005621    0.6321749   -0.0225537   -0.7744974
  -0.0030476   -0.0177529   -0.0009206    0.2387295    0.0360476   -0.9704168
  -0.0041555   -0.0190282   -0.0010291   -0.1388090    0.0786624   -0.9871901
  -0.0035117   -0.0186184   -0.0009897    0.0297818    0.0569901   -0.9979304
  -0.0043794   -0.0181490   -0.0007988   -0.6015616    0.0588499   -0.7966557
  -0.0030817   -0.0181980   -0.0009400    0.5485711    0.0376905   -0.8352539
  -0.0030716   -0.0177513   -0.0009231    0.0612119    0.0330492   -0.9975775
  -0.0014253   -0.0178834   -0.0005893    0.3893706    0.0006889   -0.9210809
  -0.0014101   -0.0174324   -0.0006032    0.8229821   -0.0010270   -0.5680663
  -0.0022795   -0.0195961   -0.0008803    0.3437731    0.0675163   -0.9366224
  -0.0014973   -0.0201318   -0.0005318    0.3998098    0.0206332   -0.9163658
  -0.0008814   -0.0193052   -0.0002400    0.4782546    0.0853263   -0.8740664
  -0.0028854   -0.0190984   -0.0009972    0.0406033    0.0896871   -0.9951420
  -0.0030897   -0.0186427   -0.0009688   -0.0519187    0.0477091   -0.9975110
  -0.0030817   -0.0181980   -0.0009400    0.8235314    0.0314371   -0.5663990
  -0.0030817   -0.0181980   -0.0009400    0.9483677    0.0120409   -0.3169445
  -0.0049089   -0.0182297    0.0000041   -0.9987362   -0.0409052    0.0292024
  -0.0047806   -0.0181819   -0.0004001   -0.8528684    0.0065890   -0.5220844
  -0.0047559   -0.0166702    0.0005083   -0.9743734   -0.1146905    0.1935009
  -0.0042608   -0.0149065    0.0017423   -0.8329873   -0.0970300    0.5447177
  -0.0045852   -0.0161634    0.0011994   -0.9165132   -0.1165312    0.3826538
  -0.0042751   -0.0153563    0.0017524   -0.7724736   -0.0941743    0.6280253
   0.0009907   -0.0134791    0.0024444    0.7441689   -0.0442814    0.6665221
   0.0001723   -0.0148570    0.0029923    0.5995478    0.0130257    0.8002330
  -0.0002284   -0.0144235    0.0032635    0.3869020    0.0142122    0.9220113
  -0.0004684   -0.0153116    0.0032757    0.2574279   -0.0086236    0.9662590
  -0.0013275   -0.0152736    0.0033335    0.0189770   -0.0369677    0.9991363
   0.0013012   -0.0151027    0.0010492    0.9811586   -0.1102845   -0.1586351
