NORM_ASCII
2627 5250
3 935 830 943 
3 944 832 945 
3 832 936 945 
3 944 933 832 
3 946 834 833 
3 946 833 947 
3 947 833 837 
3 838 834 946 
3 948 837 835 
3 835 836 948 
3 840 948 836 
3 947 837 948 
3 949 917 838 
3 946 949 838 
3 839 900 901 
3 901 842 839 
3 840 950 947 
3 948 840 947 
3 950 840 841 
3 950 841 951 
3 951 841 952 
3 952 841 843 
3 842 953 954 
3 842 901 953 
3 955 843 842 
3 954 955 842 
3 956 952 843 
3 843 955 956 
3 957 845 844 
3 861 958 844 
3 957 844 958 
3 957 895 845 
3 846 856 847 
3 848 959 846 
3 960 856 846 
3 846 959 961 
3 960 846 961 
3 959 848 851 
3 850 962 851 
3 962 850 855 
3 851 962 959 
3 877 853 852 
3 853 877 963 
3 853 963 854 
3 854 964 855 
3 964 854 963 
3 855 964 962 
3 856 960 857 
3 857 960 858 
3 858 965 859 
3 960 965 858 
3 966 860 859 
3 859 965 966 
3 860 966 861 
3 861 966 958 
3 967 863 862 
3 862 874 968 
3 968 967 862 
3 967 969 863 
3 969 970 863 
3 863 971 864 
3 970 971 863 
3 971 876 864 
3 866 868 972 
3 972 869 866 
3 868 867 973 
3 973 867 883 
3 868 973 972 
3 974 870 869 
3 974 869 975 
3 975 869 976 
3 976 869 972 
3 974 871 870 
3 977 871 974 
3 977 872 871 
3 872 977 978 
3 873 872 978 
3 978 979 873 
3 873 980 874 
3 873 979 981 
3 873 981 980 
3 982 968 874 
3 874 980 982 
3 983 875 876 
3 877 875 983 
3 984 876 971 
3 983 876 984 
3 983 963 877 
3 878 934 985 
3 985 891 878 
3 879 986 987 
3 885 986 879 
3 879 987 988 
3 989 990 879 
3 879 988 989 
3 880 879 990 
3 990 881 880 
3 991 881 992 
3 992 881 990 
3 882 881 991 
3 991 993 882 
3 993 994 882 
3 994 883 882 
3 994 995 883 
3 973 883 995 
3 884 986 885 
3 886 986 884 
3 996 986 886 
3 996 886 887 
3 996 887 997 
3 888 997 887 
3 997 888 998 
3 999 998 888 
3 888 1000 999 
3 1000 888 890 
3 1001 890 889 
3 889 1002 1001 
3 1003 1002 889 
3 889 1004 1003 
3 1004 889 892 
3 890 1001 1000 
3 985 893 891 
3 985 892 893 
3 1005 892 1006 
3 1004 892 1005 
3 892 985 1007 
3 892 1007 1006 
3 894 897 1008 
3 894 1008 1009 
3 894 1009 898 
3 1010 895 957 
3 1010 896 895 
3 897 896 1010 
3 1011 1008 897 
3 1010 1011 897 
3 1012 898 1013 
3 898 1009 1013 
3 907 899 898 
3 898 1012 907 
3 901 902 953 
3 1014 953 902 
3 902 903 1014 
3 904 1014 903 
3 1015 1016 904 
3 904 906 1015 
3 1014 904 1016 
3 909 1017 905 
3 906 905 1017 
3 1017 1015 906 
3 907 1012 908 
3 1012 1018 908 
3 908 1019 909 
3 908 1020 1019 
3 1020 908 1018 
3 909 1019 1017 
3 911 910 912 
3 1021 911 912 
3 911 1021 1022 
3 1022 926 911 
3 912 1023 1024 
3 912 1024 1025 
3 918 1023 912 
3 1025 1021 912 
3 916 913 1026 
3 1026 913 1027 
3 913 915 1027 
3 1028 915 914 
3 917 1028 914 
3 1027 915 1029 
3 915 1028 1029 
3 919 916 1026 
3 1030 1028 917 
3 917 949 1030 
3 1031 1023 918 
3 920 1031 918 
3 1026 920 919 
3 1026 1032 920 
3 1031 920 1032 
3 922 1033 925 
3 922 923 1033 
3 923 1034 1033 
3 1035 1036 923 
3 923 931 1035 
3 1036 1034 923 
3 1037 938 924 
3 1033 1037 924 
3 1033 924 925 
3 926 1038 927 
3 1038 926 1022 
3 927 1039 929 
3 1038 1040 927 
3 1040 1039 927 
3 928 1041 931 
3 1042 928 1043 
3 930 1043 928 
3 1042 1041 928 
3 929 1044 930 
3 1044 929 1039 
3 930 1045 1043 
3 1046 1045 930 
3 930 1044 1046 
3 1041 1047 931 
3 1047 1035 931 
3 932 1048 934 
3 1048 932 1049 
3 1050 1051 932 
3 1051 1049 932 
3 933 944 932 
3 932 944 1052 
3 932 1052 1050 
3 985 934 1048 
3 935 1053 1054 
3 935 1055 1053 
3 935 943 1055 
3 935 1054 1056 
3 1056 936 935 
3 945 936 1056 
3 1057 937 940 
3 1057 1058 937 
3 942 937 1058 
3 941 938 1037 
3 940 939 1059 
3 939 941 1060 
3 939 1060 1061 
3 1059 939 1061 
3 1059 1062 940 
3 1057 940 1062 
3 1037 1063 941 
3 1060 941 1063 
3 943 942 1058 
3 943 1064 1055 
3 943 1065 1064 
3 1058 1065 943 
3 945 1066 944 
3 1067 1068 944 
3 1068 1052 944 
3 944 1066 1067 
3 1069 945 1070 
3 1069 1071 945 
3 1071 1066 945 
3 1070 945 1056 
3 947 949 946 
3 947 1072 1073 
3 947 1074 1072 
3 947 951 1075 
3 1073 949 947 
3 947 1075 1074 
3 950 951 947 
3 1030 949 1073 
3 951 1076 1077 
3 951 1077 1075 
3 1078 951 952 
3 1076 951 1079 
3 951 1080 1081 
3 1078 1080 951 
3 1081 1079 951 
3 952 956 1078 
3 954 953 1082 
3 1014 1083 953 
3 1082 953 1083 
3 955 954 1084 
3 1084 954 1085 
3 1085 954 1082 
3 1084 956 955 
3 956 1086 1080 
3 956 1084 1087 
3 1080 1078 956 
3 956 1087 1086 
3 957 958 1010 
3 1010 958 1088 
3 1088 958 966 
3 961 959 962 
3 1089 965 960 
3 960 961 1089 
3 1089 961 962 
3 962 1090 1089 
3 1090 962 964 
3 1091 963 1092 
3 983 1092 963 
3 964 963 1091 
3 964 1091 1090 
3 966 965 1093 
3 1094 1093 965 
3 965 1089 1094 
3 1088 966 1093 
3 1095 967 968 
3 969 967 1095 
3 1096 968 982 
3 1095 968 1096 
3 969 1097 970 
3 969 1098 1099 
3 1095 1098 969 
3 969 1099 1097 
3 1100 970 1097 
3 1100 971 970 
3 984 971 1100 
3 972 973 1101 
3 1101 976 972 
3 995 1102 973 
3 973 1102 1101 
3 1103 974 975 
3 977 974 1103 
3 975 1104 1103 
3 976 1105 975 
3 975 1105 1106 
3 1104 975 1106 
3 1105 976 1101 
3 1107 977 1103 
3 1107 978 977 
3 978 1107 1108 
3 979 978 1108 
3 1109 979 1110 
3 979 1109 1111 
3 1111 981 979 
3 1110 979 1108 
3 982 980 981 
3 981 1111 1112 
3 1112 982 981 
3 1113 982 1112 
3 1114 982 1113 
3 1114 1096 982 
3 984 1092 983 
3 984 1115 1092 
3 1100 1115 984 
3 985 1116 1117 
3 1117 1007 985 
3 1116 985 1048 
3 996 987 986 
3 1118 1119 987 
3 987 1119 988 
3 1118 987 996 
3 988 1119 1120 
3 1120 1121 988 
3 1121 989 988 
3 989 992 990 
3 1122 989 1121 
3 1122 1123 989 
3 1123 992 989 
3 1124 991 992 
3 1124 993 991 
3 1123 1125 992 
3 1104 992 1125 
3 1124 992 1104 
3 1104 993 1124 
3 994 993 1106 
3 1106 993 1104 
3 1126 995 994 
3 994 1106 1127 
3 994 1128 1126 
3 1128 994 1127 
3 1126 1129 995 
3 995 1129 1102 
3 997 1130 996 
3 1130 1118 996 
3 1130 997 1131 
3 997 1132 1131 
3 997 1133 1132 
3 1133 997 998 
3 1134 998 1135 
3 998 1134 1136 
3 998 1136 1133 
3 999 1135 998 
3 1135 999 1137 
3 1137 999 1138 
3 1138 999 1000 
3 1000 1139 1138 
3 1140 1139 1000 
3 1141 1000 1142 
3 1140 1000 1141 
3 1001 1142 1000 
3 1002 1143 1001 
3 1144 1001 1143 
3 1142 1001 1144 
3 1002 1145 1143 
3 1145 1002 1146 
3 1147 1148 1002 
3 1002 1003 1147 
3 1002 1148 1146 
3 1147 1003 1004 
3 1005 1147 1004 
3 1006 1149 1005 
3 1149 1150 1005 
3 1150 1151 1005 
3 1151 1147 1005 
3 1152 1006 1007 
3 1006 1152 1149 
3 1153 1152 1007 
3 1007 1117 1153 
3 1154 1008 1011 
3 1008 1154 1009 
3 1155 1156 1009 
3 1154 1157 1009 
3 1155 1009 1157 
3 1009 1156 1013 
3 1010 1088 1154 
3 1011 1010 1154 
3 1018 1012 1013 
3 1156 1158 1013 
3 1018 1013 1158 
3 1159 1083 1014 
3 1016 1159 1014 
3 1016 1015 1160 
3 1015 1017 1160 
3 1160 1159 1016 
3 1161 1162 1017 
3 1017 1019 1161 
3 1160 1017 1162 
3 1158 1163 1018 
3 1163 1020 1018 
3 1161 1019 1164 
3 1165 1019 1020 
3 1164 1019 1165 
3 1166 1167 1020 
3 1166 1020 1163 
3 1165 1020 1167 
3 1022 1021 1025 
3 1022 1025 1038 
3 1168 1024 1023 
3 1031 1169 1023 
3 1023 1169 1168 
3 1170 1171 1024 
3 1171 1025 1024 
3 1024 1168 1170 
3 1025 1171 1172 
3 1173 1038 1025 
3 1173 1025 1172 
3 1026 1174 1032 
3 1026 1175 1174 
3 1027 1175 1026 
3 1027 1176 1175 
3 1029 1176 1027 
3 1029 1028 1177 
3 1028 1030 1177 
3 1176 1029 1177 
3 1030 1073 1072 
3 1030 1072 1178 
3 1178 1177 1030 
3 1032 1179 1031 
3 1031 1180 1169 
3 1031 1181 1180 
3 1179 1181 1031 
3 1174 1182 1032 
3 1183 1179 1032 
3 1032 1182 1183 
3 1037 1033 1034 
3 1037 1034 1063 
3 1035 1034 1036 
3 1034 1184 1185 
3 1185 1063 1034 
3 1184 1034 1035 
3 1035 1186 1184 
3 1187 1186 1035 
3 1047 1187 1035 
3 1188 1038 1173 
3 1040 1038 1188 
3 1039 1189 1044 
3 1040 1190 1039 
3 1189 1039 1190 
3 1188 1190 1040 
3 1191 1047 1041 
3 1041 1192 1191 
3 1042 1192 1041 
3 1043 1193 1042 
3 1042 1194 1192 
3 1194 1042 1193 
3 1195 1193 1043 
3 1043 1045 1195 
3 1196 1046 1044 
3 1196 1044 1189 
3 1045 1197 1195 
3 1046 1197 1045 
3 1197 1046 1196 
3 1191 1198 1047 
3 1198 1187 1047 
3 1048 1049 1116 
3 1199 1200 1049 
3 1201 1116 1049 
3 1049 1200 1201 
3 1049 1051 1199 
3 1202 1051 1050 
3 1050 1052 1203 
3 1050 1203 1202 
3 1051 1202 1199 
3 1203 1052 1204 
3 1068 1204 1052 
3 1205 1054 1053 
3 1053 1055 1206 
3 1206 1207 1053 
3 1205 1053 1207 
3 1208 1209 1054 
3 1054 1209 1056 
3 1054 1205 1210 
3 1054 1210 1208 
3 1064 1206 1055 
3 1056 1209 1211 
3 1211 1070 1056 
3 1057 1212 1058 
3 1213 1212 1057 
3 1214 1213 1057 
3 1057 1062 1214 
3 1058 1215 1065 
3 1215 1058 1212 
3 1059 1061 1216 
3 1059 1214 1062 
3 1216 1214 1059 
3 1060 1063 1185 
3 1185 1061 1060 
3 1061 1185 1217 
3 1061 1217 1216 
3 1065 1218 1064 
3 1206 1064 1218 
3 1218 1065 1219 
3 1065 1215 1220 
3 1220 1219 1065 
3 1067 1066 1071 
3 1221 1067 1071 
3 1221 1068 1067 
3 1222 1223 1068 
3 1068 1221 1222 
3 1068 1223 1204 
3 1070 1221 1069 
3 1069 1221 1071 
3 1211 1221 1070 
3 1072 1224 1178 
3 1074 1224 1072 
3 1074 1225 1224 
3 1226 1225 1074 
3 1226 1074 1075 
3 1075 1077 1227 
3 1227 1226 1075 
3 1228 1077 1076 
3 1076 1079 1229 
3 1229 1228 1076 
3 1230 1077 1231 
3 1232 1077 1230 
3 1227 1077 1232 
3 1228 1231 1077 
3 1233 1079 1234 
3 1079 1081 1235 
3 1079 1233 1229 
3 1235 1234 1079 
3 1080 1086 1081 
3 1235 1081 1086 
3 1082 1236 1085 
3 1082 1083 1236 
3 1083 1159 1236 
3 1087 1084 1237 
3 1084 1085 1237 
3 1238 1237 1085 
3 1085 1236 1238 
3 1237 1086 1087 
3 1239 1086 1237 
3 1086 1239 1235 
3 1088 1093 1157 
3 1088 1157 1154 
3 1090 1240 1089 
3 1094 1089 1241 
3 1241 1089 1240 
3 1242 1090 1091 
3 1243 1240 1090 
3 1090 1242 1243 
3 1092 1115 1091 
3 1091 1115 1099 
3 1244 1242 1091 
3 1099 1245 1091 
3 1246 1091 1245 
3 1091 1246 1244 
3 1157 1093 1094 
3 1241 1247 1094 
3 1157 1094 1247 
3 1095 1248 1098 
3 1248 1095 1096 
3 1096 1114 1248 
3 1115 1097 1099 
3 1097 1115 1100 
3 1099 1098 1245 
3 1245 1098 1248 
3 1101 1102 1249 
3 1249 1250 1101 
3 1101 1250 1251 
3 1101 1251 1105 
3 1252 1102 1129 
3 1249 1102 1252 
3 1104 1125 1103 
3 1103 1125 1253 
3 1103 1253 1107 
3 1105 1251 1106 
3 1106 1251 1127 
3 1254 1107 1253 
3 1255 1107 1254 
3 1108 1107 1255 
3 1255 1256 1108 
3 1256 1257 1108 
3 1108 1257 1110 
3 1110 1258 1109 
3 1258 1259 1109 
3 1111 1109 1259 
3 1260 1110 1261 
3 1261 1110 1257 
3 1262 1263 1110 
3 1110 1260 1262 
3 1263 1258 1110 
3 1111 1264 1265 
3 1111 1265 1112 
3 1264 1111 1259 
3 1266 1112 1265 
3 1267 1112 1266 
3 1113 1112 1267 
3 1113 1268 1269 
3 1267 1268 1113 
3 1113 1269 1114 
3 1248 1114 1269 
3 1116 1201 1117 
3 1117 1201 1270 
3 1117 1270 1153 
3 1131 1119 1118 
3 1118 1130 1131 
3 1131 1120 1119 
3 1271 1120 1131 
3 1120 1272 1121 
3 1271 1273 1120 
3 1273 1272 1120 
3 1122 1121 1272 
3 1122 1274 1123 
3 1272 1274 1122 
3 1275 1125 1123 
3 1123 1276 1275 
3 1274 1276 1123 
3 1275 1253 1125 
3 1128 1277 1126 
3 1129 1126 1277 
3 1127 1278 1128 
3 1251 1278 1127 
3 1278 1279 1128 
3 1128 1280 1277 
3 1279 1280 1128 
3 1129 1277 1252 
3 1131 1281 1271 
3 1132 1281 1131 
3 1136 1132 1133 
3 1136 1281 1132 
3 1135 1282 1134 
3 1134 1281 1136 
3 1281 1134 1283 
3 1134 1282 1283 
3 1135 1284 1282 
3 1137 1284 1135 
3 1137 1285 1284 
3 1137 1138 1286 
3 1137 1286 1285 
3 1287 1286 1138 
3 1138 1139 1288 
3 1288 1287 1138 
3 1140 1288 1139 
3 1140 1289 1288 
3 1141 1289 1140 
3 1141 1142 1290 
3 1141 1291 1289 
3 1290 1291 1141 
3 1290 1142 1292 
3 1142 1293 1292 
3 1144 1293 1142 
3 1144 1143 1294 
3 1294 1143 1295 
3 1295 1143 1145 
3 1294 1293 1144 
3 1146 1295 1145 
3 1146 1296 1295 
3 1297 1296 1146 
3 1297 1146 1298 
3 1299 1298 1146 
3 1300 1299 1146 
3 1300 1146 1301 
3 1301 1146 1148 
3 1301 1148 1147 
3 1302 1147 1151 
3 1302 1301 1147 
3 1149 1152 1153 
3 1153 1303 1149 
3 1149 1303 1304 
3 1149 1305 1150 
3 1305 1149 1304 
3 1305 1306 1150 
3 1307 1151 1150 
3 1307 1150 1308 
3 1308 1150 1306 
3 1151 1309 1302 
3 1309 1151 1310 
3 1151 1307 1310 
3 1153 1270 1311 
3 1153 1311 1303 
3 1312 1156 1155 
3 1155 1157 1312 
3 1313 1158 1156 
3 1314 1156 1315 
3 1312 1315 1156 
3 1156 1314 1313 
3 1157 1247 1316 
3 1316 1317 1157 
3 1157 1317 1312 
3 1313 1163 1158 
3 1236 1159 1318 
3 1160 1318 1159 
3 1162 1318 1160 
3 1319 1162 1161 
3 1161 1320 1319 
3 1321 1320 1161 
3 1322 1321 1161 
3 1322 1161 1164 
3 1318 1162 1323 
3 1319 1323 1162 
3 1324 1163 1313 
3 1325 1163 1324 
3 1163 1325 1166 
3 1326 1327 1164 
3 1164 1165 1326 
3 1164 1328 1322 
3 1328 1164 1327 
3 1165 1167 1329 
3 1329 1326 1165 
3 1167 1166 1330 
3 1330 1166 1325 
3 1331 1167 1330 
3 1167 1332 1329 
3 1333 1167 1331 
3 1332 1167 1333 
3 1170 1168 1334 
3 1334 1168 1335 
3 1335 1168 1169 
3 1335 1169 1180 
3 1336 1171 1170 
3 1336 1170 1334 
3 1337 1171 1336 
3 1172 1171 1337 
3 1172 1337 1173 
3 1337 1188 1173 
3 1338 1182 1174 
3 1174 1175 1338 
3 1175 1176 1338 
3 1338 1176 1339 
3 1177 1339 1176 
3 1177 1178 1340 
3 1340 1341 1177 
3 1341 1339 1177 
3 1340 1178 1224 
3 1181 1179 1183 
3 1342 1180 1343 
3 1180 1181 1343 
3 1335 1180 1342 
3 1183 1344 1181 
3 1344 1343 1181 
3 1338 1183 1182 
3 1183 1345 1346 
3 1347 1344 1183 
3 1345 1183 1338 
3 1346 1347 1183 
3 1184 1348 1185 
3 1186 1348 1184 
3 1348 1217 1185 
3 1349 1348 1186 
3 1350 1186 1187 
3 1349 1186 1350 
3 1350 1187 1198 
3 1188 1337 1351 
3 1352 1353 1188 
3 1351 1352 1188 
3 1188 1353 1190 
3 1353 1196 1189 
3 1189 1190 1353 
3 1191 1192 1198 
3 1198 1192 1354 
3 1192 1194 1354 
3 1194 1193 1355 
3 1356 1355 1193 
3 1195 1356 1193 
3 1355 1357 1194 
3 1358 1354 1194 
3 1358 1194 1357 
3 1356 1195 1197 
3 1197 1196 1359 
3 1359 1196 1352 
3 1196 1353 1352 
3 1197 1360 1356 
3 1359 1360 1197 
3 1198 1361 1350 
3 1354 1361 1198 
3 1362 1200 1199 
3 1202 1363 1199 
3 1199 1363 1364 
3 1362 1199 1364 
3 1200 1362 1365 
3 1365 1201 1200 
3 1201 1366 1270 
3 1365 1366 1201 
3 1202 1203 1367 
3 1202 1368 1363 
3 1202 1369 1368 
3 1369 1202 1367 
3 1370 1203 1371 
3 1372 1203 1204 
3 1203 1372 1371 
3 1370 1367 1203 
3 1208 1204 1223 
3 1372 1204 1208 
3 1210 1205 1373 
3 1373 1205 1207 
3 1218 1207 1206 
3 1207 1374 1373 
3 1207 1375 1376 
3 1207 1376 1374 
3 1207 1218 1375 
3 1222 1209 1208 
3 1222 1208 1223 
3 1208 1377 1372 
3 1377 1208 1210 
3 1209 1222 1211 
3 1210 1378 1377 
3 1379 1380 1210 
3 1381 1379 1210 
3 1210 1373 1374 
3 1374 1381 1210 
3 1378 1210 1380 
3 1222 1221 1211 
3 1215 1212 1213 
3 1213 1382 1383 
3 1213 1383 1215 
3 1213 1214 1382 
3 1384 1214 1216 
3 1382 1214 1385 
3 1214 1384 1385 
3 1220 1215 1386 
3 1215 1383 1386 
3 1216 1387 1384 
3 1349 1216 1217 
3 1388 1216 1349 
3 1216 1388 1389 
3 1389 1387 1216 
3 1217 1348 1349 
3 1375 1218 1390 
3 1219 1390 1218 
3 1219 1220 1391 
3 1390 1219 1391 
3 1386 1391 1220 
3 1392 1340 1224 
3 1224 1225 1392 
3 1225 1393 1392 
3 1225 1226 1232 
3 1225 1232 1394 
3 1225 1394 1393 
3 1226 1227 1232 
3 1231 1228 1395 
3 1395 1228 1396 
3 1397 1396 1228 
3 1398 1397 1228 
3 1228 1229 1233 
3 1228 1233 1398 
3 1395 1230 1231 
3 1395 1399 1230 
3 1230 1399 1400 
3 1230 1400 1394 
3 1230 1394 1232 
3 1401 1233 1234 
3 1398 1233 1401 
3 1402 1401 1234 
3 1234 1235 1403 
3 1404 1402 1234 
3 1403 1404 1234 
3 1235 1239 1405 
3 1406 1407 1235 
3 1235 1405 1406 
3 1408 1235 1407 
3 1235 1408 1403 
3 1236 1323 1238 
3 1318 1323 1236 
3 1237 1405 1239 
3 1237 1409 1405 
3 1409 1237 1410 
3 1237 1238 1410 
3 1320 1238 1323 
3 1410 1238 1320 
3 1315 1241 1240 
3 1240 1243 1315 
3 1411 1247 1241 
3 1412 1411 1241 
3 1315 1412 1241 
3 1243 1242 1244 
3 1244 1413 1243 
3 1315 1243 1413 
3 1244 1246 1414 
3 1244 1414 1415 
3 1244 1415 1413 
3 1416 1246 1245 
3 1245 1417 1416 
3 1269 1245 1248 
3 1268 1417 1245 
3 1269 1268 1245 
3 1418 1414 1246 
3 1246 1416 1418 
3 1247 1411 1419 
3 1419 1420 1247 
3 1420 1316 1247 
3 1250 1249 1421 
3 1421 1249 1422 
3 1422 1249 1252 
3 1250 1423 1251 
3 1250 1421 1424 
3 1423 1250 1425 
3 1425 1250 1424 
3 1423 1426 1251 
3 1426 1427 1251 
3 1427 1278 1251 
3 1428 1252 1277 
3 1252 1428 1422 
3 1254 1253 1275 
3 1275 1429 1254 
3 1254 1256 1255 
3 1429 1256 1254 
3 1430 1256 1429 
3 1257 1256 1430 
3 1430 1261 1257 
3 1431 1259 1258 
3 1258 1263 1431 
3 1264 1259 1431 
3 1261 1432 1260 
3 1260 1432 1433 
3 1260 1433 1262 
3 1261 1434 1432 
3 1435 1434 1261 
3 1435 1261 1430 
3 1436 1263 1262 
3 1433 1437 1262 
3 1262 1437 1436 
3 1436 1438 1263 
3 1263 1264 1431 
3 1439 1266 1263 
3 1264 1263 1266 
3 1263 1438 1439 
3 1266 1265 1264 
3 1439 1267 1266 
3 1439 1440 1267 
3 1268 1267 1440 
3 1440 1441 1268 
3 1268 1441 1417 
3 1270 1366 1311 
3 1271 1281 1273 
3 1283 1272 1273 
3 1442 1272 1283 
3 1274 1272 1442 
3 1273 1281 1283 
3 1443 1276 1274 
3 1442 1444 1274 
3 1443 1274 1444 
3 1276 1429 1275 
3 1443 1429 1276 
3 1277 1280 1428 
3 1427 1279 1278 
3 1445 1280 1279 
3 1427 1445 1279 
3 1445 1446 1280 
3 1280 1446 1428 
3 1284 1444 1282 
3 1282 1444 1442 
3 1282 1442 1283 
3 1285 1447 1284 
3 1284 1447 1448 
3 1449 1284 1448 
3 1444 1284 1449 
3 1287 1447 1285 
3 1285 1286 1287 
3 1287 1450 1447 
3 1451 1450 1287 
3 1287 1289 1451 
3 1288 1289 1287 
3 1451 1289 1452 
3 1291 1452 1289 
3 1453 1290 1292 
3 1453 1291 1290 
3 1437 1291 1453 
3 1454 1452 1291 
3 1291 1437 1454 
3 1292 1455 1453 
3 1293 1455 1292 
3 1294 1455 1293 
3 1456 1455 1294 
3 1456 1294 1295 
3 1456 1295 1296 
3 1296 1297 1456 
3 1456 1297 1457 
3 1297 1298 1457 
3 1298 1458 1457 
3 1458 1298 1459 
3 1299 1459 1298 
3 1460 1459 1299 
3 1299 1300 1460 
3 1301 1461 1300 
3 1460 1300 1461 
3 1302 1461 1301 
3 1462 1461 1302 
3 1462 1302 1309 
3 1304 1303 1311 
3 1366 1463 1304 
3 1366 1304 1311 
3 1304 1463 1305 
3 1464 1465 1305 
3 1305 1463 1464 
3 1305 1465 1306 
3 1466 1467 1306 
3 1306 1468 1308 
3 1469 1466 1306 
3 1306 1465 1469 
3 1468 1306 1467 
3 1310 1307 1308 
3 1308 1470 1310 
3 1308 1468 1470 
3 1471 1472 1309 
3 1309 1310 1471 
3 1472 1462 1309 
3 1471 1310 1470 
3 1473 1312 1317 
3 1312 1473 1315 
3 1313 1314 1474 
3 1324 1313 1474 
3 1315 1475 1314 
3 1476 1314 1475 
3 1474 1314 1477 
3 1314 1476 1477 
3 1413 1475 1315 
3 1473 1412 1315 
3 1420 1317 1316 
3 1473 1317 1420 
3 1320 1323 1319 
3 1410 1320 1478 
3 1321 1478 1320 
3 1322 1478 1321 
3 1479 1322 1480 
3 1322 1479 1481 
3 1481 1478 1322 
3 1322 1328 1482 
3 1482 1483 1322 
3 1480 1322 1483 
3 1484 1325 1324 
3 1324 1474 1484 
3 1485 1330 1325 
3 1325 1484 1486 
3 1486 1485 1325 
3 1487 1327 1326 
3 1326 1329 1332 
3 1488 1326 1489 
3 1489 1326 1332 
3 1326 1488 1487 
3 1327 1487 1490 
3 1491 1328 1327 
3 1490 1491 1327 
3 1491 1482 1328 
3 1330 1485 1492 
3 1492 1493 1330 
3 1330 1493 1331 
3 1494 1331 1495 
3 1331 1496 1497 
3 1331 1497 1333 
3 1331 1498 1495 
3 1496 1331 1494 
3 1331 1493 1498 
3 1332 1333 1499 
3 1332 1499 1489 
3 1497 1500 1333 
3 1500 1499 1333 
3 1336 1334 1337 
3 1351 1337 1334 
3 1351 1334 1501 
3 1501 1334 1502 
3 1334 1335 1502 
3 1335 1503 1502 
3 1335 1342 1503 
3 1338 1339 1345 
3 1504 1345 1339 
3 1339 1341 1504 
3 1392 1341 1340 
3 1505 1341 1506 
3 1504 1341 1505 
3 1506 1341 1392 
3 1342 1343 1507 
3 1508 1342 1507 
3 1342 1509 1510 
3 1510 1397 1342 
3 1508 1509 1342 
3 1503 1342 1511 
3 1342 1397 1511 
3 1512 1343 1344 
3 1343 1512 1507 
3 1347 1512 1344 
3 1346 1345 1513 
3 1345 1504 1505 
3 1513 1345 1505 
3 1346 1514 1347 
3 1346 1513 1515 
3 1516 1514 1346 
3 1346 1515 1516 
3 1514 1512 1347 
3 1350 1388 1349 
3 1361 1388 1350 
3 1501 1352 1351 
3 1501 1359 1352 
3 1354 1358 1361 
3 1355 1517 1357 
3 1355 1360 1517 
3 1356 1360 1355 
3 1358 1357 1517 
3 1358 1389 1361 
3 1389 1358 1517 
3 1360 1359 1518 
3 1519 1520 1359 
3 1501 1521 1359 
3 1359 1521 1519 
3 1518 1359 1520 
3 1360 1518 1517 
3 1361 1389 1388 
3 1365 1362 1464 
3 1522 1362 1364 
3 1362 1522 1464 
3 1523 1364 1363 
3 1523 1363 1368 
3 1469 1522 1364 
3 1524 1525 1364 
3 1364 1523 1524 
3 1525 1469 1364 
3 1464 1366 1365 
3 1464 1463 1366 
3 1526 1367 1370 
3 1367 1526 1369 
3 1527 1368 1369 
3 1368 1528 1523 
3 1368 1527 1528 
3 1526 1529 1369 
3 1527 1369 1530 
3 1530 1369 1529 
3 1531 1370 1371 
3 1370 1531 1532 
3 1370 1532 1526 
3 1371 1372 1533 
3 1534 1371 1533 
3 1535 1536 1371 
3 1537 1535 1371 
3 1371 1534 1537 
3 1371 1536 1531 
3 1372 1377 1533 
3 1538 1381 1374 
3 1376 1539 1374 
3 1374 1539 1538 
3 1376 1375 1540 
3 1540 1375 1541 
3 1375 1390 1541 
3 1376 1542 1543 
3 1543 1539 1376 
3 1376 1540 1542 
3 1533 1377 1544 
3 1544 1377 1378 
3 1545 1378 1380 
3 1544 1378 1546 
3 1545 1546 1378 
3 1547 1380 1379 
3 1379 1381 1548 
3 1379 1549 1547 
3 1549 1379 1548 
3 1380 1550 1545 
3 1547 1550 1380 
3 1381 1551 1548 
3 1551 1381 1538 
3 1382 1552 1383 
3 1382 1385 1553 
3 1553 1552 1382 
3 1552 1554 1383 
3 1555 1386 1383 
3 1555 1383 1554 
3 1384 1387 1556 
3 1556 1385 1384 
3 1556 1557 1385 
3 1557 1553 1385 
3 1558 1391 1386 
3 1559 1558 1386 
3 1386 1555 1559 
3 1387 1517 1560 
3 1517 1387 1389 
3 1560 1556 1387 
3 1391 1561 1390 
3 1390 1561 1562 
3 1541 1390 1562 
3 1561 1391 1558 
3 1399 1506 1392 
3 1400 1399 1392 
3 1392 1393 1400 
3 1393 1394 1400 
3 1563 1399 1395 
3 1396 1563 1395 
3 1510 1563 1396 
3 1510 1396 1397 
3 1511 1397 1564 
3 1565 1564 1397 
3 1398 1565 1397 
3 1565 1398 1401 
3 1566 1506 1399 
3 1399 1563 1567 
3 1567 1566 1399 
3 1401 1568 1565 
3 1569 1568 1401 
3 1569 1401 1402 
3 1570 1569 1402 
3 1571 1402 1404 
3 1572 1402 1571 
3 1572 1570 1402 
3 1573 1404 1403 
3 1408 1573 1403 
3 1404 1573 1571 
3 1409 1574 1405 
3 1574 1406 1405 
3 1406 1574 1407 
3 1407 1574 1575 
3 1408 1407 1575 
3 1576 1408 1575 
3 1577 1573 1408 
3 1577 1408 1576 
3 1410 1574 1409 
3 1578 1574 1410 
3 1478 1578 1410 
3 1473 1411 1412 
3 1419 1411 1473 
3 1413 1579 1475 
3 1413 1415 1580 
3 1579 1413 1580 
3 1581 1414 1418 
3 1415 1414 1582 
3 1414 1581 1582 
3 1476 1580 1415 
3 1582 1476 1415 
3 1583 1416 1417 
3 1584 1416 1583 
3 1584 1585 1416 
3 1585 1418 1416 
3 1417 1586 1583 
3 1417 1587 1588 
3 1586 1417 1588 
3 1417 1441 1587 
3 1418 1585 1589 
3 1581 1418 1589 
3 1420 1419 1473 
3 1424 1421 1590 
3 1422 1590 1421 
3 1422 1428 1591 
3 1591 1592 1422 
3 1422 1592 1590 
3 1425 1426 1423 
3 1593 1426 1424 
3 1424 1590 1593 
3 1425 1424 1426 
3 1426 1593 1427 
3 1594 1445 1427 
3 1594 1427 1593 
3 1428 1446 1591 
3 1430 1429 1443 
3 1443 1435 1430 
3 1432 1595 1596 
3 1434 1595 1432 
3 1596 1433 1432 
3 1454 1433 1596 
3 1433 1454 1437 
3 1434 1448 1595 
3 1449 1448 1434 
3 1435 1449 1434 
3 1597 1449 1435 
3 1597 1435 1443 
3 1598 1438 1436 
3 1436 1437 1599 
3 1599 1598 1436 
3 1453 1599 1437 
3 1441 1438 1598 
3 1441 1439 1438 
3 1440 1439 1441 
3 1598 1587 1441 
3 1444 1597 1443 
3 1449 1597 1444 
3 1446 1445 1594 
3 1446 1594 1591 
3 1595 1447 1450 
3 1448 1447 1595 
3 1596 1450 1452 
3 1450 1596 1595 
3 1452 1450 1451 
3 1454 1596 1452 
3 1600 1601 1453 
3 1601 1599 1453 
3 1453 1455 1600 
3 1602 1600 1455 
3 1455 1603 1602 
3 1456 1603 1455 
3 1604 1603 1456 
3 1457 1604 1456 
3 1457 1605 1604 
3 1605 1457 1458 
3 1458 1606 1605 
3 1459 1607 1458 
3 1458 1607 1606 
3 1608 1459 1609 
3 1459 1460 1609 
3 1459 1608 1607 
3 1461 1609 1460 
3 1609 1461 1610 
3 1461 1462 1611 
3 1611 1610 1461 
3 1462 1612 1611 
3 1613 1612 1462 
3 1613 1462 1472 
3 1464 1522 1465 
3 1465 1522 1469 
3 1614 1467 1466 
3 1466 1615 1614 
3 1525 1616 1466 
3 1466 1469 1525 
3 1616 1615 1466 
3 1467 1617 1468 
3 1614 1617 1467 
3 1618 1468 1619 
3 1617 1619 1468 
3 1468 1618 1470 
3 1618 1471 1470 
3 1472 1471 1620 
3 1620 1471 1618 
3 1621 1613 1472 
3 1620 1621 1472 
3 1484 1474 1622 
3 1474 1477 1622 
3 1475 1579 1476 
3 1579 1580 1476 
3 1476 1582 1623 
3 1623 1624 1476 
3 1477 1476 1625 
3 1476 1624 1625 
3 1477 1625 1622 
3 1481 1578 1478 
3 1480 1626 1479 
3 1627 1479 1628 
3 1479 1627 1481 
3 1626 1628 1479 
3 1626 1480 1629 
3 1629 1480 1483 
3 1627 1578 1481 
3 1483 1482 1491 
3 1630 1483 1491 
3 1483 1630 1629 
3 1486 1484 1631 
3 1622 1631 1484 
3 1632 1485 1486 
3 1633 1485 1632 
3 1633 1492 1485 
3 1486 1631 1632 
3 1490 1487 1634 
3 1635 1634 1487 
3 1636 1487 1488 
3 1487 1636 1635 
3 1488 1489 1637 
3 1488 1638 1636 
3 1638 1488 1637 
3 1489 1639 1640 
3 1640 1637 1489 
3 1489 1499 1639 
3 1634 1641 1490 
3 1641 1491 1490 
3 1491 1641 1630 
3 1642 1492 1633 
3 1493 1492 1642 
3 1498 1493 1642 
3 1495 1643 1494 
3 1644 1494 1643 
3 1644 1496 1494 
3 1495 1498 1645 
3 1645 1646 1495 
3 1495 1646 1643 
3 1497 1496 1500 
3 1647 1496 1644 
3 1496 1647 1500 
3 1498 1648 1649 
3 1650 1651 1498 
3 1645 1498 1651 
3 1642 1648 1498 
3 1498 1649 1650 
3 1639 1499 1500 
3 1647 1652 1500 
3 1653 1500 1652 
3 1500 1654 1639 
3 1500 1653 1654 
3 1502 1521 1501 
3 1519 1521 1502 
3 1519 1502 1655 
3 1655 1502 1503 
3 1511 1656 1503 
3 1655 1503 1656 
3 1506 1513 1505 
3 1566 1513 1506 
3 1507 1512 1508 
3 1514 1508 1512 
3 1508 1516 1509 
3 1514 1516 1508 
3 1509 1563 1510 
3 1563 1509 1516 
3 1657 1656 1511 
3 1564 1657 1511 
3 1513 1567 1515 
3 1566 1567 1513 
3 1567 1516 1515 
3 1516 1567 1563 
3 1658 1560 1517 
3 1518 1658 1517 
3 1518 1659 1660 
3 1660 1661 1518 
3 1661 1658 1518 
3 1520 1659 1518 
3 1520 1519 1655 
3 1662 1659 1520 
3 1655 1662 1520 
3 1523 1528 1524 
3 1525 1524 1663 
3 1524 1528 1664 
3 1664 1663 1524 
3 1616 1525 1665 
3 1525 1663 1665 
3 1529 1526 1532 
3 1530 1666 1527 
3 1527 1666 1528 
3 1666 1667 1528 
3 1528 1667 1664 
3 1530 1529 1668 
3 1529 1532 1668 
3 1668 1669 1530 
3 1670 1671 1530 
3 1530 1669 1670 
3 1671 1672 1530 
3 1672 1666 1530 
3 1669 1531 1536 
3 1532 1531 1669 
3 1668 1532 1669 
3 1673 1534 1533 
3 1673 1533 1544 
3 1534 1673 1537 
3 1536 1535 1674 
3 1537 1675 1535 
3 1674 1535 1676 
3 1676 1535 1675 
3 1536 1674 1669 
3 1537 1677 1675 
3 1537 1673 1678 
3 1679 1537 1678 
3 1537 1679 1677 
3 1539 1543 1538 
3 1538 1543 1680 
3 1538 1680 1551 
3 1540 1541 1681 
3 1542 1540 1681 
3 1682 1683 1541 
3 1684 1541 1562 
3 1681 1541 1683 
3 1541 1684 1682 
3 1542 1681 1543 
3 1685 1543 1683 
3 1685 1686 1543 
3 1680 1543 1686 
3 1683 1543 1681 
3 1678 1544 1546 
3 1544 1678 1673 
3 1546 1545 1678 
3 1550 1687 1545 
3 1688 1678 1545 
3 1545 1687 1688 
3 1687 1550 1547 
3 1687 1547 1549 
3 1548 1551 1549 
3 1689 1687 1549 
3 1690 1549 1551 
3 1549 1690 1691 
3 1549 1691 1689 
3 1551 1692 1690 
3 1551 1680 1693 
3 1693 1692 1551 
3 1553 1694 1552 
3 1554 1552 1694 
3 1695 1694 1553 
3 1553 1557 1695 
3 1554 1696 1555 
3 1694 1696 1554 
3 1559 1555 1697 
3 1697 1555 1696 
3 1560 1698 1556 
3 1698 1557 1556 
3 1695 1557 1698 
3 1558 1684 1561 
3 1699 1558 1559 
3 1558 1699 1684 
3 1699 1559 1700 
3 1697 1700 1559 
3 1658 1661 1560 
3 1661 1698 1560 
3 1562 1561 1684 
3 1701 1564 1565 
3 1701 1657 1564 
3 1565 1702 1701 
3 1703 1565 1568 
3 1703 1702 1565 
3 1568 1569 1703 
3 1569 1570 1703 
3 1703 1570 1704 
3 1570 1705 1704 
3 1705 1570 1706 
3 1706 1570 1572 
3 1707 1572 1571 
3 1708 1571 1573 
3 1708 1707 1571 
3 1572 1709 1706 
3 1707 1710 1572 
3 1710 1709 1572 
3 1573 1577 1708 
3 1575 1574 1578 
3 1627 1575 1578 
3 1576 1575 1627 
3 1711 1577 1576 
3 1628 1711 1576 
3 1628 1576 1627 
3 1577 1711 1708 
3 1581 1589 1712 
3 1712 1713 1581 
3 1714 1581 1715 
3 1713 1715 1581 
3 1581 1714 1716 
3 1582 1581 1716 
3 1716 1623 1582 
3 1583 1717 1584 
3 1586 1717 1583 
3 1717 1585 1584 
3 1717 1589 1585 
3 1718 1719 1586 
3 1586 1588 1718 
3 1717 1586 1719 
3 1588 1587 1598 
3 1598 1720 1588 
3 1720 1718 1588 
3 1717 1712 1589 
3 1593 1590 1592 
3 1591 1594 1592 
3 1592 1594 1593 
3 1599 1601 1598 
3 1720 1598 1601 
3 1600 1720 1601 
3 1721 1600 1602 
3 1720 1600 1721 
3 1603 1722 1602 
3 1602 1722 1721 
3 1604 1722 1603 
3 1722 1604 1605 
3 1723 1722 1605 
3 1605 1606 1723 
3 1606 1607 1724 
3 1724 1723 1606 
3 1608 1724 1607 
3 1608 1609 1725 
3 1724 1608 1726 
3 1725 1726 1608 
3 1725 1609 1610 
3 1725 1610 1727 
3 1612 1727 1610 
3 1610 1611 1612 
3 1728 1727 1612 
3 1612 1729 1728 
3 1613 1729 1612 
3 1730 1729 1613 
3 1730 1613 1621 
3 1731 1617 1614 
3 1614 1615 1732 
3 1614 1732 1733 
3 1614 1733 1731 
3 1616 1734 1615 
3 1735 1732 1615 
3 1735 1615 1734 
3 1734 1616 1665 
3 1619 1617 1736 
3 1737 1617 1731 
3 1738 1617 1737 
3 1738 1736 1617 
3 1739 1618 1619 
3 1739 1620 1618 
3 1619 1736 1739 
3 1621 1620 1740 
3 1739 1741 1620 
3 1620 1741 1742 
3 1743 1620 1742 
3 1743 1740 1620 
3 1621 1744 1730 
3 1740 1744 1621 
3 1622 1625 1745 
3 1622 1745 1746 
3 1622 1746 1631 
3 1623 1716 1747 
3 1747 1624 1623 
3 1625 1624 1747 
3 1625 1747 1748 
3 1745 1625 1748 
3 1626 1749 1628 
3 1749 1626 1629 
3 1750 1711 1628 
3 1628 1749 1750 
3 1629 1630 1751 
3 1752 1749 1629 
3 1751 1752 1629 
3 1641 1753 1630 
3 1751 1630 1754 
3 1630 1753 1754 
3 1631 1746 1755 
3 1755 1632 1631 
3 1632 1756 1633 
3 1632 1757 1756 
3 1632 1758 1757 
3 1755 1758 1632 
3 1642 1633 1759 
3 1633 1756 1759 
3 1641 1634 1760 
3 1634 1761 1760 
3 1762 1761 1634 
3 1634 1635 1762 
3 1635 1763 1762 
3 1764 1763 1635 
3 1635 1765 1764 
3 1636 1765 1635 
3 1636 1638 1765 
3 1640 1766 1637 
3 1637 1766 1767 
3 1637 1767 1768 
3 1637 1768 1638 
3 1638 1768 1765 
3 1639 1769 1640 
3 1654 1769 1639 
3 1640 1769 1770 
3 1640 1771 1766 
3 1770 1771 1640 
3 1641 1760 1753 
3 1759 1772 1642 
3 1642 1772 1648 
3 1773 1643 1774 
3 1646 1774 1643 
3 1643 1773 1775 
3 1643 1775 1644 
3 1652 1647 1644 
3 1644 1775 1776 
3 1776 1652 1644 
3 1645 1777 1646 
3 1651 1777 1645 
3 1774 1646 1777 
3 1648 1778 1649 
3 1648 1772 1778 
3 1649 1779 1780 
3 1650 1649 1780 
3 1778 1781 1649 
3 1649 1781 1779 
3 1650 1780 1651 
3 1777 1651 1780 
3 1653 1652 1776 
3 1653 1782 1783 
3 1776 1782 1653 
3 1653 1783 1654 
3 1654 1783 1769 
3 1655 1784 1785 
3 1784 1655 1656 
3 1662 1655 1785 
3 1656 1657 1784 
3 1701 1702 1657 
3 1786 1784 1657 
3 1657 1702 1786 
3 1660 1659 1787 
3 1788 1787 1659 
3 1785 1659 1662 
3 1659 1785 1788 
3 1661 1660 1789 
3 1789 1660 1790 
3 1787 1790 1660 
3 1789 1698 1661 
3 1665 1663 1791 
3 1792 1663 1664 
3 1791 1663 1792 
3 1792 1664 1667 
3 1734 1665 1793 
3 1665 1791 1793 
3 1666 1672 1667 
3 1667 1672 1792 
3 1669 1794 1795 
3 1676 1794 1669 
3 1669 1674 1676 
3 1669 1795 1796 
3 1796 1670 1669 
3 1797 1671 1670 
3 1796 1798 1670 
3 1797 1670 1798 
3 1671 1797 1799 
3 1799 1672 1671 
3 1800 1672 1801 
3 1792 1672 1800 
3 1799 1801 1672 
3 1802 1675 1677 
3 1676 1675 1802 
3 1803 1676 1802 
3 1676 1803 1804 
3 1805 1806 1676 
3 1804 1805 1676 
3 1676 1806 1794 
3 1677 1679 1807 
3 1807 1802 1677 
3 1679 1678 1688 
3 1808 1679 1688 
3 1679 1808 1807 
3 1680 1809 1693 
3 1686 1810 1680 
3 1809 1680 1811 
3 1811 1680 1810 
3 1812 1683 1682 
3 1682 1699 1700 
3 1682 1684 1699 
3 1700 1812 1682 
3 1683 1812 1685 
3 1812 1686 1685 
3 1813 1686 1812 
3 1810 1686 1813 
3 1688 1687 1814 
3 1814 1687 1689 
3 1814 1808 1688 
3 1691 1815 1689 
3 1689 1816 1814 
3 1816 1689 1815 
3 1690 1692 1817 
3 1817 1818 1690 
3 1690 1818 1691 
3 1691 1818 1819 
3 1815 1691 1819 
3 1820 1692 1809 
3 1693 1809 1692 
3 1692 1820 1817 
3 1694 1695 1789 
3 1696 1694 1790 
3 1790 1694 1789 
3 1698 1789 1695 
3 1697 1696 1790 
3 1700 1697 1821 
3 1821 1697 1790 
3 1822 1700 1821 
3 1822 1823 1700 
3 1812 1700 1824 
3 1824 1700 1823 
3 1786 1702 1825 
3 1826 1825 1702 
3 1826 1702 1703 
3 1827 1826 1703 
3 1703 1704 1827 
3 1827 1704 1828 
3 1829 1828 1704 
3 1705 1830 1704 
3 1704 1830 1829 
3 1706 1830 1705 
3 1706 1709 1830 
3 1831 1710 1707 
3 1832 1831 1707 
3 1707 1708 1832 
3 1708 1833 1834 
3 1834 1832 1708 
3 1708 1711 1750 
3 1833 1708 1750 
3 1830 1709 1835 
3 1710 1835 1709 
3 1836 1835 1710 
3 1831 1836 1710 
3 1719 1713 1712 
3 1719 1712 1717 
3 1713 1837 1838 
3 1715 1713 1839 
3 1713 1723 1837 
3 1838 1839 1713 
3 1719 1723 1713 
3 1715 1840 1714 
3 1840 1841 1714 
3 1842 1714 1841 
3 1714 1842 1843 
3 1716 1714 1843 
3 1715 1839 1844 
3 1715 1844 1840 
3 1716 1845 1747 
3 1716 1843 1846 
3 1845 1716 1846 
3 1847 1719 1718 
3 1847 1718 1720 
3 1719 1847 1723 
3 1720 1721 1847 
3 1721 1722 1847 
3 1722 1723 1847 
3 1724 1837 1723 
3 1726 1838 1724 
3 1724 1838 1837 
3 1848 1849 1725 
3 1725 1849 1726 
3 1725 1727 1850 
3 1850 1851 1725 
3 1851 1848 1725 
3 1849 1839 1726 
3 1726 1839 1838 
3 1728 1852 1727 
3 1852 1853 1727 
3 1727 1853 1850 
3 1852 1728 1854 
3 1729 1854 1728 
3 1730 1854 1729 
3 1855 1854 1730 
3 1730 1856 1855 
3 1744 1856 1730 
3 1731 1733 1737 
3 1857 1733 1732 
3 1857 1732 1735 
3 1733 1857 1737 
3 1858 1734 1859 
3 1859 1734 1793 
3 1858 1735 1734 
3 1860 1857 1735 
3 1860 1735 1858 
3 1736 1861 1739 
3 1736 1742 1861 
3 1862 1742 1736 
3 1736 1863 1864 
3 1736 1864 1865 
3 1736 1865 1862 
3 1863 1736 1738 
3 1860 1737 1857 
3 1737 1860 1738 
3 1863 1738 1866 
3 1860 1867 1738 
3 1866 1738 1867 
3 1739 1861 1741 
3 1744 1740 1868 
3 1868 1740 1869 
3 1740 1743 1869 
3 1742 1741 1861 
3 1742 1870 1871 
3 1743 1742 1871 
3 1870 1742 1862 
3 1872 1869 1743 
3 1743 1871 1872 
3 1868 1856 1744 
3 1748 1746 1745 
3 1748 1873 1746 
3 1746 1873 1874 
3 1746 1874 1755 
3 1875 1748 1747 
3 1875 1747 1845 
3 1748 1875 1876 
3 1873 1748 1877 
3 1748 1876 1877 
3 1750 1749 1878 
3 1878 1749 1879 
3 1879 1749 1752 
3 1880 1833 1750 
3 1750 1878 1880 
3 1751 1754 1752 
3 1881 1879 1752 
3 1754 1881 1752 
3 1753 1882 1754 
3 1883 1882 1753 
3 1753 1760 1883 
3 1881 1754 1882 
3 1755 1874 1884 
3 1885 1755 1886 
3 1887 1755 1885 
3 1755 1888 1758 
3 1887 1889 1755 
3 1888 1755 1889 
3 1755 1884 1886 
3 1890 1891 1756 
3 1756 1757 1890 
3 1892 1756 1891 
3 1759 1756 1892 
3 1888 1757 1758 
3 1890 1757 1888 
3 1772 1759 1893 
3 1893 1759 1892 
3 1760 1894 1883 
3 1761 1894 1760 
3 1895 1761 1896 
3 1894 1761 1895 
3 1762 1896 1761 
3 1763 1896 1762 
3 1896 1763 1897 
3 1764 1897 1763 
3 1898 1897 1764 
3 1765 1898 1764 
3 1899 1898 1765 
3 1768 1900 1765 
3 1765 1900 1899 
3 1766 1771 1901 
3 1767 1766 1901 
3 1900 1767 1901 
3 1767 1900 1768 
3 1769 1902 1770 
3 1769 1783 1902 
3 1771 1770 1902 
3 1903 1901 1771 
3 1771 1904 1903 
3 1902 1904 1771 
3 1778 1772 1893 
3 1905 1773 1774 
3 1906 1773 1904 
3 1773 1905 1904 
3 1906 1775 1773 
3 1907 1774 1908 
3 1908 1774 1777 
3 1907 1905 1774 
3 1775 1906 1909 
3 1909 1776 1775 
3 1776 1909 1782 
3 1777 1910 1908 
3 1910 1777 1780 
3 1893 1781 1778 
3 1780 1779 1911 
3 1781 1911 1779 
3 1910 1780 1911 
3 1912 1911 1781 
3 1893 1912 1781 
3 1902 1783 1782 
3 1782 1909 1904 
3 1904 1902 1782 
3 1784 1913 1785 
3 1914 1913 1784 
3 1784 1915 1914 
3 1784 1786 1915 
3 1785 1913 1916 
3 1916 1788 1785 
3 1917 1915 1786 
3 1825 1917 1786 
3 1918 1790 1787 
3 1787 1919 1918 
3 1920 1787 1788 
3 1919 1787 1920 
3 1921 1788 1916 
3 1922 1920 1788 
3 1922 1788 1921 
3 1790 1923 1821 
3 1918 1924 1790 
3 1924 1923 1790 
3 1793 1791 1792 
3 1793 1792 1800 
3 1925 1793 1926 
3 1800 1927 1793 
3 1927 1926 1793 
3 1859 1793 1928 
3 1928 1793 1925 
3 1929 1795 1794 
3 1929 1794 1806 
3 1930 1798 1795 
3 1798 1796 1795 
3 1795 1931 1930 
3 1931 1795 1929 
3 1799 1797 1932 
3 1797 1798 1930 
3 1932 1797 1933 
3 1933 1797 1930 
3 1932 1801 1799 
3 1801 1934 1800 
3 1927 1800 1935 
3 1936 1800 1934 
3 1937 1800 1938 
3 1800 1936 1939 
3 1938 1800 1939 
3 1937 1935 1800 
3 1801 1932 1940 
3 1934 1801 1941 
3 1941 1801 1940 
3 1802 1807 1803 
3 1942 1943 1803 
3 1807 1942 1803 
3 1803 1944 1804 
3 1803 1943 1945 
3 1944 1803 1945 
3 1804 1944 1946 
3 1946 1947 1804 
3 1805 1804 1948 
3 1947 1948 1804 
3 1806 1805 1949 
3 1805 1948 1950 
3 1805 1950 1949 
3 1949 1929 1806 
3 1942 1807 1808 
3 1951 1942 1808 
3 1951 1808 1814 
3 1952 1809 1811 
3 1820 1809 1952 
3 1953 1954 1810 
3 1953 1810 1813 
3 1954 1811 1810 
3 1952 1811 1954 
3 1813 1812 1955 
3 1955 1812 1956 
3 1956 1812 1957 
3 1824 1957 1812 
3 1953 1813 1955 
3 1814 1816 1951 
3 1943 1816 1815 
3 1815 1819 1943 
3 1943 1951 1816 
3 1817 1958 1818 
3 1817 1959 1960 
3 1960 1958 1817 
3 1817 1820 1959 
3 1818 1958 1961 
3 1818 1961 1819 
3 1943 1819 1962 
3 1962 1819 1961 
3 1959 1820 1952 
3 1821 1923 1822 
3 1923 1963 1822 
3 1964 1823 1822 
3 1963 1965 1822 
3 1822 1965 1964 
3 1823 1966 1824 
3 1967 1966 1823 
3 1823 1964 1967 
3 1966 1957 1824 
3 1917 1825 1968 
3 1968 1825 1826 
3 1826 1969 1970 
3 1826 1971 1969 
3 1826 1827 1971 
3 1968 1826 1970 
3 1828 1971 1827 
3 1972 1971 1828 
3 1973 1972 1828 
3 1973 1828 1829 
3 1974 1973 1829 
3 1835 1829 1830 
3 1974 1829 1835 
3 1975 1836 1831 
3 1976 1975 1831 
3 1831 1832 1976 
3 1834 1976 1832 
3 1833 1977 1834 
3 1978 1977 1833 
3 1978 1833 1880 
3 1976 1834 1977 
3 1836 1974 1835 
3 1979 1836 1975 
3 1836 1980 1981 
3 1979 1980 1836 
3 1981 1974 1836 
3 1844 1839 1849 
3 1982 1983 1840 
3 1840 1844 1982 
3 1984 1840 1983 
3 1984 1841 1840 
3 1841 1984 1842 
3 1984 1985 1842 
3 1843 1842 1985 
3 1985 1986 1843 
3 1846 1843 1987 
3 1987 1843 1988 
3 1988 1843 1986 
3 1844 1849 1848 
3 1848 1851 1844 
3 1851 1982 1844 
3 1875 1845 1846 
3 1846 1989 1990 
3 1846 1987 1989 
3 1846 1991 1875 
3 1990 1991 1846 
3 1851 1850 1853 
3 1853 1982 1851 
3 1854 1992 1852 
3 1852 1993 1853 
3 1993 1852 1992 
3 1993 1983 1853 
3 1853 1983 1982 
3 1855 1994 1854 
3 1994 1995 1854 
3 1854 1995 1992 
3 1996 1994 1855 
3 1855 1997 1996 
3 1856 1997 1855 
3 1868 1997 1856 
3 1998 1860 1858 
3 1859 1999 1858 
3 2000 1858 1999 
3 1858 2000 1998 
3 1859 1928 2001 
3 1999 1859 2002 
3 2003 2004 1859 
3 2002 1859 2004 
3 1859 2001 2003 
3 1867 1860 1998 
3 1862 1865 1870 
3 1864 1863 1866 
3 2005 2006 1864 
3 2006 1865 1864 
3 1864 1866 2005 
3 1865 2006 1870 
3 1998 2007 1866 
3 2005 1866 2008 
3 1998 1866 1867 
3 1866 2007 2008 
3 2009 1997 1868 
3 1868 1869 2009 
3 2010 1869 2011 
3 2012 2009 1869 
3 1872 2011 1869 
3 1869 2010 2012 
3 2013 1871 1870 
3 2013 1870 2006 
3 2014 1872 1871 
3 2014 1871 2013 
3 2014 2011 1872 
3 1873 1877 1874 
3 1874 2015 2016 
3 2016 2017 1874 
3 2015 1874 1877 
3 1884 1874 2017 
3 1876 1875 1991 
3 1876 1991 2015 
3 1877 1876 2015 
3 2018 1880 1878 
3 1878 2019 2018 
3 1878 1881 2020 
3 1879 1881 1878 
3 2019 1878 2020 
3 1880 2018 1978 
3 1882 2020 1881 
3 1883 2021 1882 
3 2020 1882 2021 
3 1894 2021 1883 
3 2022 1886 1884 
3 2022 1884 2023 
3 2024 2023 1884 
3 1884 2017 2024 
3 1886 2025 1885 
3 1885 2026 1887 
3 1885 2025 2026 
3 1886 2022 2025 
3 1887 2027 1889 
3 2028 1887 2026 
3 2027 1887 2028 
3 1888 2029 2030 
3 1889 2029 1888 
3 1888 2030 1890 
3 2029 1889 2027 
3 1891 1890 2031 
3 1890 2030 2031 
3 2032 1892 1891 
3 2032 1891 2033 
3 2031 2033 1891 
3 1893 1892 2032 
3 2032 1912 1893 
3 2021 1894 1895 
3 1896 1897 1895 
3 2034 2035 1895 
3 1895 2036 2034 
3 1895 1897 2036 
3 2021 1895 2037 
3 2035 2037 1895 
3 1897 1898 2036 
3 2036 1898 2038 
3 1899 2038 1898 
3 2039 2038 1899 
3 1900 2039 1899 
3 1901 2039 1900 
3 1903 2039 1901 
3 2040 2041 1903 
3 1904 2040 1903 
3 2039 1903 2042 
3 1903 2041 2042 
3 1905 2040 1904 
3 1904 1909 1906 
3 2040 1905 1907 
3 1907 1908 2043 
3 2044 2045 1907 
3 2043 2046 1907 
3 2046 2044 1907 
3 1907 2045 2040 
3 2043 1908 2047 
3 1908 2048 2047 
3 2048 1908 1910 
3 2049 1910 2050 
3 1911 2050 1910 
3 2049 2048 1910 
3 1912 2050 1911 
3 2051 2050 1912 
3 2032 2052 1912 
3 2052 2053 1912 
3 1912 2053 2051 
3 2054 1916 1913 
3 1914 2054 1913 
3 2055 2056 1914 
3 2054 1914 2057 
3 1915 2058 1914 
3 1914 2058 2055 
3 2059 2057 1914 
3 1914 2056 2059 
3 2060 1915 1917 
3 2061 2058 1915 
3 1915 2060 2062 
3 2062 2061 1915 
3 1921 1916 2054 
3 1917 1968 1970 
3 1917 1970 2060 
3 1924 1918 1965 
3 2063 1965 1918 
3 1918 2064 2063 
3 1919 2064 1918 
3 2065 2064 1919 
3 1919 1920 1922 
3 1919 1922 2065 
3 1921 2066 1922 
3 2066 1921 2054 
3 2066 2059 1922 
3 2067 2068 1922 
3 2068 2065 1922 
3 2067 1922 2059 
3 1963 1923 1924 
3 1965 1963 1924 
3 1926 2069 1925 
3 2003 1925 2070 
3 1925 2001 1928 
3 2003 2001 1925 
3 2071 2070 1925 
3 1925 2072 2071 
3 2072 1925 2069 
3 1935 2069 1926 
3 1935 1926 1927 
3 2073 1929 2074 
3 1933 1929 2073 
3 1929 1933 1931 
3 1929 1949 2074 
3 1933 1930 1931 
3 2073 1932 1933 
3 1940 1932 2073 
3 1936 1934 2075 
3 2075 1934 1941 
3 2069 1935 2076 
3 2076 1935 2077 
3 1935 1937 2077 
3 1936 2078 1939 
3 2078 1936 2075 
3 1938 2079 1937 
3 1937 2079 2077 
3 1938 2080 2077 
3 2077 2079 1938 
3 2081 2080 1938 
3 1939 2081 1938 
3 2082 1939 2075 
3 1939 2078 2075 
3 2083 1939 2082 
3 2081 1939 2083 
3 1940 2073 1941 
3 1941 2082 2075 
3 2082 1941 2084 
3 2084 1941 2073 
3 1942 1951 1943 
3 1943 2085 1945 
3 1943 1962 2085 
3 1944 2086 2087 
3 2087 1946 1944 
3 2086 1944 1945 
3 1945 2085 2088 
3 2088 2089 1945 
3 2086 1945 2089 
3 1947 1946 2090 
3 2090 1946 2087 
3 1948 1947 2091 
3 2091 1947 2090 
3 2092 1950 1948 
3 2092 1948 2091 
3 1949 1950 2074 
3 2093 1950 2092 
3 2074 1950 2093 
3 1952 2094 1959 
3 1954 2095 1952 
3 1952 2095 2094 
3 1953 2095 1954 
3 2096 1953 1955 
3 2095 1953 2096 
3 2096 1955 1956 
3 1956 2097 2098 
3 1956 2099 2100 
3 2099 1956 1957 
3 2101 2096 1956 
3 2098 2101 1956 
3 2097 1956 2100 
3 2099 1957 1966 
3 1960 1961 1958 
3 1959 2094 1960 
3 1961 1960 2102 
3 2102 1960 2094 
3 1962 1961 2103 
3 2103 1961 2104 
3 2102 2104 1961 
3 1962 2103 2085 
3 1964 2105 1967 
3 2105 1964 2063 
3 2063 1964 1965 
3 1967 2099 1966 
3 2064 1967 2106 
3 2105 2106 1967 
3 2099 1967 2064 
3 1970 1969 2107 
3 2108 2107 1969 
3 1969 1971 2108 
3 2107 2060 1970 
3 1972 2108 1971 
3 2109 2108 1972 
3 2110 2109 1972 
3 2110 1972 1973 
3 2110 1973 1974 
3 2110 1974 1981 
3 2111 1979 1975 
3 1975 2112 2111 
3 2112 1975 1976 
3 2112 1976 1977 
3 1977 1978 2112 
3 2113 2114 1978 
3 2115 2112 1978 
3 1978 2114 2115 
3 2113 1978 2018 
3 2116 1980 1979 
3 2115 1979 2111 
3 2116 1979 2114 
3 2115 2114 1979 
3 1980 2117 1981 
3 2118 2117 1980 
3 2116 2118 1980 
3 2119 2110 1981 
3 1981 2117 2119 
3 2120 1983 1993 
3 1984 1983 2120 
3 2120 2121 1984 
3 1984 2121 1985 
3 2122 2123 1985 
3 1985 2121 2122 
3 2124 1985 2123 
3 1985 2124 1986 
3 1986 2125 1988 
3 1986 2126 2127 
3 2124 2126 1986 
3 2127 2125 1986 
3 2128 1987 2129 
3 1988 2129 1987 
3 1987 2128 2130 
3 2130 1989 1987 
3 1988 2125 2131 
3 2131 2132 1988 
3 2132 2129 1988 
3 1989 2133 1990 
3 2133 1989 2130 
3 1990 2134 2135 
3 2133 2134 1990 
3 1991 1990 2135 
3 1991 2135 2136 
3 1991 2136 2015 
3 1992 1995 1993 
3 1995 2120 1993 
3 2137 2122 1994 
3 1994 1996 2137 
3 1995 1994 2122 
3 2122 2121 1995 
3 1995 2121 2120 
3 1996 2138 2137 
3 1997 2138 1996 
3 2009 2138 1997 
3 2000 2139 1998 
3 2007 1998 2139 
3 2000 1999 2002 
3 2002 2140 2000 
3 2140 2139 2000 
3 2002 2004 2141 
3 2141 2142 2002 
3 2142 2143 2002 
3 2002 2144 2140 
3 2143 2144 2002 
3 2003 2145 2004 
3 2070 2145 2003 
3 2141 2004 2145 
3 2146 2006 2005 
3 2008 2147 2005 
3 2147 2146 2005 
3 2146 2013 2006 
3 2148 2007 2149 
3 2008 2007 2150 
3 2150 2007 2148 
3 2139 2149 2007 
3 2151 2147 2008 
3 2008 2150 2151 
3 2152 2138 2009 
3 2152 2009 2012 
3 2011 2153 2010 
3 2153 2012 2010 
3 2011 2154 2153 
3 2155 2011 2014 
3 2156 2011 2155 
3 2011 2156 2154 
3 2012 2153 2157 
3 2012 2157 2152 
3 2014 2013 2155 
3 2158 2155 2013 
3 2013 2146 2158 
3 2159 2016 2015 
3 2015 2136 2159 
3 2160 2016 2159 
3 2017 2016 2160 
3 2160 2161 2017 
3 2161 2024 2017 
3 2113 2018 2162 
3 2162 2018 2163 
3 2164 2163 2018 
3 2165 2164 2018 
3 2019 2165 2018 
3 2166 2165 2019 
3 2037 2019 2020 
3 2019 2167 2166 
3 2037 2167 2019 
3 2021 2037 2020 
3 2023 2168 2022 
3 2169 2025 2022 
3 2168 2170 2022 
3 2022 2170 2169 
3 2171 2023 2024 
3 2168 2023 2171 
3 2171 2024 2161 
3 2026 2025 2169 
3 2026 2172 2028 
3 2169 2172 2026 
3 2029 2027 2173 
3 2028 2173 2027 
3 2172 2174 2028 
3 2028 2175 2173 
3 2175 2028 2174 
3 2029 2176 2030 
3 2176 2029 2177 
3 2029 2173 2177 
3 2030 2176 2178 
3 2178 2031 2030 
3 2033 2031 2178 
3 2032 2033 2052 
3 2052 2033 2178 
3 2179 2035 2034 
3 2036 2179 2034 
3 2035 2180 2037 
3 2179 2181 2035 
3 2181 2180 2035 
3 2182 2183 2036 
3 2036 2183 2179 
3 2038 2182 2036 
3 2184 2037 2180 
3 2037 2184 2167 
3 2042 2038 2039 
3 2182 2038 2042 
3 2040 2185 2041 
3 2185 2040 2045 
3 2041 2186 2187 
3 2041 2185 2186 
3 2042 2041 2187 
3 2188 2182 2042 
3 2042 2189 2188 
3 2187 2190 2042 
3 2189 2042 2190 
3 2043 2047 2191 
3 2192 2193 2043 
3 2043 2193 2046 
3 2191 2192 2043 
3 2045 2044 2185 
3 2194 2044 2195 
3 2044 2194 2196 
3 2044 2186 2185 
3 2046 2195 2044 
3 2196 2186 2044 
3 2046 2193 2195 
3 2047 2197 2198 
3 2049 2047 2048 
3 2197 2047 2049 
3 2047 2198 2191 
3 2050 2197 2049 
3 2050 2051 2199 
3 2050 2199 2197 
3 2053 2199 2051 
3 2178 2053 2052 
3 2200 2199 2053 
3 2178 2200 2053 
3 2054 2057 2066 
3 2056 2055 2201 
3 2058 2202 2055 
3 2201 2055 2202 
3 2059 2056 2067 
3 2203 2204 2056 
3 2204 2205 2056 
3 2067 2056 2205 
3 2203 2056 2201 
3 2066 2057 2059 
3 2206 2202 2058 
3 2206 2058 2061 
3 2207 2062 2060 
3 2207 2060 2107 
3 2208 2209 2061 
3 2061 2210 2211 
3 2211 2208 2061 
3 2212 2210 2061 
3 2061 2062 2212 
3 2061 2213 2206 
3 2209 2213 2061 
3 2214 2212 2062 
3 2214 2062 2207 
3 2106 2105 2063 
3 2064 2106 2063 
3 2064 2065 2068 
3 2099 2064 2215 
3 2216 2215 2064 
3 2068 2216 2064 
3 2068 2067 2205 
3 2217 2216 2068 
3 2217 2068 2205 
3 2069 2218 2072 
3 2076 2218 2069 
3 2070 2219 2220 
3 2221 2219 2070 
3 2220 2145 2070 
3 2221 2070 2222 
3 2070 2071 2222 
3 2071 2072 2218 
3 2071 2218 2222 
3 2074 2093 2073 
3 2223 2073 2091 
3 2223 2084 2073 
3 2093 2091 2073 
3 2076 2224 2218 
3 2076 2077 2225 
3 2224 2076 2225 
3 2077 2080 2225 
3 2225 2080 2226 
3 2226 2080 2081 
3 2081 2083 2227 
3 2226 2081 2227 
3 2228 2229 2082 
3 2084 2228 2082 
3 2230 2083 2082 
3 2082 2229 2230 
3 2231 2083 2230 
3 2227 2083 2231 
3 2084 2232 2233 
3 2233 2228 2084 
3 2084 2223 2232 
3 2085 2103 2234 
3 2234 2088 2085 
3 2087 2086 2235 
3 2236 2086 2089 
3 2086 2236 2235 
3 2237 2238 2087 
3 2087 2235 2237 
3 2090 2087 2239 
3 2087 2238 2239 
3 2089 2088 2240 
3 2088 2234 2240 
3 2089 2241 2242 
3 2240 2241 2089 
3 2089 2242 2236 
3 2243 2090 2239 
3 2244 2090 2243 
3 2091 2090 2244 
3 2091 2244 2223 
3 2092 2091 2093 
3 2094 2245 2246 
3 2094 2095 2245 
3 2247 2094 2246 
3 2102 2094 2247 
3 2095 2096 2245 
3 2245 2096 2101 
3 2248 2098 2097 
3 2215 2097 2100 
3 2248 2097 2216 
3 2216 2097 2215 
3 2248 2101 2098 
3 2100 2099 2215 
3 2248 2245 2101 
3 2247 2104 2102 
3 2103 2104 2234 
3 2247 2234 2104 
3 2249 2207 2107 
3 2249 2107 2108 
3 2109 2249 2108 
3 2250 2249 2109 
3 2119 2250 2109 
3 2119 2109 2110 
3 2111 2112 2115 
3 2113 2251 2114 
3 2252 2251 2113 
3 2162 2252 2113 
3 2251 2116 2114 
3 2253 2118 2116 
3 2253 2116 2251 
3 2254 2255 2117 
3 2119 2117 2255 
3 2118 2254 2117 
3 2256 2254 2118 
3 2253 2256 2118 
3 2257 2250 2119 
3 2255 2257 2119 
3 2122 2258 2123 
3 2137 2259 2122 
3 2122 2259 2258 
3 2123 2258 2260 
3 2260 2261 2123 
3 2261 2124 2123 
3 2126 2124 2261 
3 2262 2125 2127 
3 2131 2125 2262 
3 2263 2127 2126 
3 2263 2126 2261 
3 2264 2127 2263 
3 2265 2127 2264 
3 2265 2262 2127 
3 2128 2129 2266 
3 2266 2130 2128 
3 2132 2266 2129 
3 2130 2266 2267 
3 2267 2268 2130 
3 2268 2269 2130 
3 2130 2269 2270 
3 2130 2270 2133 
3 2262 2271 2131 
3 2271 2272 2131 
3 2131 2272 2132 
3 2272 2273 2132 
3 2132 2273 2274 
3 2132 2274 2267 
3 2132 2267 2266 
3 2133 2270 2134 
3 2275 2135 2134 
3 2270 2276 2134 
3 2275 2134 2276 
3 2275 2136 2135 
3 2277 2136 2275 
3 2136 2277 2159 
3 2137 2138 2259 
3 2278 2138 2152 
3 2138 2278 2259 
3 2279 2139 2140 
3 2139 2279 2149 
3 2279 2140 2144 
3 2145 2220 2141 
3 2141 2280 2281 
3 2220 2280 2141 
3 2141 2281 2142 
3 2142 2282 2143 
3 2283 2284 2142 
3 2282 2142 2284 
3 2142 2281 2283 
3 2143 2285 2144 
3 2282 2286 2143 
3 2287 2285 2143 
3 2143 2286 2287 
3 2288 2279 2144 
3 2289 2144 2290 
3 2289 2288 2144 
3 2285 2290 2144 
3 2158 2146 2147 
3 2147 2291 2158 
3 2291 2147 2151 
3 2292 2148 2149 
3 2148 2292 2293 
3 2150 2148 2293 
3 2294 2149 2279 
3 2292 2149 2294 
3 2293 2151 2150 
3 2151 2295 2291 
3 2296 2151 2293 
3 2296 2295 2151 
3 2278 2152 2157 
3 2153 2297 2157 
3 2153 2154 2297 
3 2298 2297 2154 
3 2299 2298 2154 
3 2154 2156 2300 
3 2300 2299 2154 
3 2156 2155 2301 
3 2158 2301 2155 
3 2302 2156 2301 
3 2156 2302 2300 
3 2303 2278 2157 
3 2304 2303 2157 
3 2157 2297 2305 
3 2157 2305 2304 
3 2301 2158 2306 
3 2291 2306 2158 
3 2307 2159 2277 
3 2159 2307 2160 
3 2308 2161 2160 
3 2160 2307 2309 
3 2310 2160 2309 
3 2160 2310 2311 
3 2160 2311 2308 
3 2312 2171 2161 
3 2161 2308 2312 
3 2313 2162 2314 
3 2162 2315 2252 
3 2163 2314 2162 
3 2162 2313 2316 
3 2316 2315 2162 
