NORM_ASCII
1485 3006
   0.0204019   -0.0816966   -0.0074975   -0.9390643   -0.3262583   -0.1082300
   0.0204492   -0.0816538   -0.0081988   -0.9467513   -0.1799523   -0.2669816
   0.0231234   -0.0826332   -0.0105828   -0.0594713    0.7348669   -0.6755989
   0.0234056   -0.0812156   -0.0095044   -0.3386252    0.6008343   -0.7241071
   0.0228472   -0.0811594   -0.0091760   -0.3221009    0.5917943   -0.7389388
   0.0225301   -0.0817577   -0.0095460   -0.1233149    0.7123684   -0.6908869
   0.0232032   -0.0799489   -0.0084031   -0.2957623    0.5905456   -0.7508532
   0.0237687   -0.0785672   -0.0074754   -0.2154892    0.6075626   -0.7644816
   0.0247528   -0.0782954   -0.0074574   -0.1008822    0.6438353   -0.7584846
   0.0229942   -0.0830178   -0.0109306    0.1785973    0.7682625   -0.6147160
   0.0330499   -0.0877016   -0.0185789    0.5955785    0.8026191    0.0329979
   0.0303104   -0.0825317   -0.0120540    0.4085369    0.7007121   -0.5848933
   0.0298937   -0.0818689   -0.0114430    0.3257523    0.7507736   -0.5746516
   0.0313578   -0.0837065   -0.0120118    0.9478396    0.3183928    0.0150379
   0.0310838   -0.0829611   -0.0114391    0.9132773    0.4051560   -0.0421087
   0.0307634   -0.0822326   -0.0108618    0.7812134    0.5921094   -0.1977677
   0.0305217   -0.0822979   -0.0115411    0.6000470    0.6942893   -0.3973739
   0.0292914   -0.0809736   -0.0104283    0.0477555    0.7986461   -0.5999031
   0.0288301   -0.0804494   -0.0096998   -0.2006035    0.7356175   -0.6470125
   0.0268968   -0.0796630   -0.0089509    0.0684048    0.7282027   -0.6819396
   0.0275639   -0.0799768   -0.0091462    0.3305213    0.7220938   -0.6077303
   0.0253837   -0.0777971   -0.0070767   -0.0429379    0.6707210   -0.7404659
   0.0299785   -0.0807010   -0.0084727    0.9024487    0.4307955    0.0012917
   0.0297348   -0.0803034   -0.0075640    0.9606361    0.1646370    0.2237700
   0.0293701   -0.0801688   -0.0064446    0.9492285    0.0435435    0.3115594
   0.0289110   -0.0794803   -0.0051961    0.9371849    0.0029799    0.3488204
   0.0292562   -0.0792168   -0.0065256    0.9465681    0.3106144    0.0867612
   0.0291400   -0.0793690   -0.0059098    0.9522660    0.1363940    0.2731046
   0.0273476   -0.0808360   -0.0030113    0.7338323   -0.3680729    0.5709750
   0.0273886   -0.0794588   -0.0022710    0.7914508   -0.2923376    0.5367908
   0.0276110   -0.0786812   -0.0022625    0.8317999   -0.2130509    0.5125605
   0.0283800   -0.0783423   -0.0037142    0.9392296    0.0150033    0.3429617
   0.0283434   -0.0776624   -0.0036886    0.9505099    0.0508987    0.3064967
   0.0277842   -0.0767143   -0.0020354    0.9301557   -0.0532856    0.3632782
   0.0266928   -0.0806281   -0.0020420    0.7005552   -0.4091610    0.5846449
   0.0251396   -0.0814883   -0.0016651    0.2820390   -0.7033697    0.6524761
   0.0258434   -0.0804759   -0.0010706    0.4714662   -0.6000013    0.6463111
   0.0264625   -0.0800111   -0.0013366    0.6826472   -0.4343574    0.5876449
   0.0236719   -0.0811857   -0.0010093   -0.1058785   -0.7902203    0.6036071
   0.0245747   -0.0806773   -0.0005604    0.2071195   -0.7259239    0.6558475
   0.0231276   -0.0812023   -0.0011432   -0.1804186   -0.8055263    0.5644258
   0.0235994   -0.0817499   -0.0018466   -0.1675348   -0.8134774    0.5569440
   0.0208432   -0.0821212   -0.0056310   -0.8140369   -0.5556283    0.1691777
   0.0219562   -0.0810471   -0.0016133   -0.4241847   -0.7698438    0.4768731
   0.0206697   -0.0806424   -0.0025049   -0.6583227   -0.6894231    0.3021707
   0.0207070   -0.0815979   -0.0048122   -0.7911796   -0.5832077    0.1841295
   0.0213201   -0.0808555   -0.0019699   -0.5222580   -0.7386357    0.4262205
   0.0224290   -0.0829869   -0.0111167    0.1443883    0.7892776   -0.5968190
   0.0222187   -0.0824071   -0.0103714    0.1678516    0.8094927   -0.5626254
   0.0215994   -0.0822022   -0.0100609   -0.2791968    0.7109627   -0.6454311
   0.0201650   -0.0812716   -0.0072883   -0.9380628   -0.3144289   -0.1455082
   0.0208150   -0.0815192   -0.0088970   -0.6235805    0.4157347   -0.6620514
   0.0203151   -0.0811901   -0.0079971   -0.8721277    0.0892612   -0.4810673
   0.0219140   -0.0808301   -0.0085643   -0.2736532    0.6059811   -0.7469276
   0.0225343   -0.0801781   -0.0083300   -0.3031033    0.5671022   -0.7658482
   0.0223982   -0.0821362   -0.0099010    0.0569121    0.7878530   -0.6132281
   0.0224594   -0.0794065   -0.0077264   -0.2697790    0.5811869   -0.7677507
   0.0225924   -0.0768813   -0.0058889   -0.2117462    0.5661609   -0.7966338
   0.0237158   -0.0769869   -0.0062764   -0.1718066    0.6069229   -0.7759685
   0.0248126   -0.0770021   -0.0063579   -0.0218354    0.6394087   -0.7685569
   0.0240769   -0.0765018   -0.0059575   -0.0527399    0.6092318   -0.7912365
   0.0300779   -0.0816096   -0.0109620    0.5750936    0.7241116   -0.3806964
   0.0296683   -0.0812544   -0.0107352    0.2350885    0.7946406   -0.5597140
   0.0304627   -0.0818577   -0.0106220    0.6558858    0.6894483   -0.3073675
   0.0301919   -0.0812644   -0.0099067    0.7520149    0.6298520   -0.1943196
   0.0294041   -0.0806861   -0.0099922    0.4436332    0.7792719   -0.4426340
   0.0289787   -0.0801088   -0.0093045    0.2021207    0.7902437   -0.5784999
   0.0283920   -0.0792487   -0.0082523    0.0249053    0.7404859   -0.6716103
   0.0281271   -0.0800030   -0.0089652    0.1270964    0.7284236   -0.6732352
   0.0286134   -0.0798540   -0.0089700   -0.1681511    0.7333268   -0.6587541
   0.0280881   -0.0803310   -0.0093418    0.1491953    0.7381633   -0.6579177
   0.0270506   -0.0786046   -0.0078796    0.0954263    0.6837069   -0.7234907
   0.0257591   -0.0773443   -0.0067230   -0.0165901    0.6380268   -0.7698354
   0.0291622   -0.0790670   -0.0075354    0.6448693    0.6576655   -0.3893837
   0.0299314   -0.0806934   -0.0091665    0.7518927    0.6346195   -0.1786489
   0.0292679   -0.0795799   -0.0083722    0.5240625    0.7265747   -0.4443509
   0.0295989   -0.0802643   -0.0089857    0.7552833    0.6193301   -0.2144232
   0.0289225   -0.0789754   -0.0053812    0.9550402    0.1217767    0.2703122
   0.0287171   -0.0784276   -0.0048895    0.9589309    0.1154184    0.2590950
   0.0268507   -0.0796292   -0.0015859    0.7701074   -0.3242377    0.5493673
   0.0273083   -0.0781263   -0.0015204    0.8599996   -0.2134814    0.4634936
   0.0264852   -0.0791541   -0.0007856    0.7761947   -0.3254238    0.5400195
   0.0285055   -0.0773964   -0.0045657    0.9636524    0.2396947    0.1179854
   0.0281076   -0.0767847   -0.0032273    0.9678860    0.1973690    0.1556989
   0.0274567   -0.0763485   -0.0011225    0.9231944   -0.1390554    0.3582956
   0.0276569   -0.0757340   -0.0016422    0.9779814    0.0147270    0.2081718
   0.0244907   -0.0797055    0.0005270    0.2957488   -0.6953882    0.6549564
   0.0258276   -0.0789801    0.0002185    0.6199079   -0.4888029    0.6138289
   0.0234565   -0.0805928   -0.0002751   -0.0887090   -0.7772665    0.6228864
   0.0232490   -0.0808814   -0.0007362   -0.2306928   -0.7824626    0.5783883
   0.0222691   -0.0805551   -0.0006396   -0.2972777   -0.7799692    0.5507032
   0.0202912   -0.0812747   -0.0059029   -0.8188091   -0.5592041    0.1297783
   0.0209782   -0.0804751   -0.0017475   -0.5351689   -0.7406310    0.4062758
   0.0209755   -0.0799051   -0.0007688   -0.4481012   -0.7667684    0.4596427
   0.0202650   -0.0795048   -0.0008321   -0.5414179   -0.7455693    0.3885783
   0.0219308   -0.0802090   -0.0003849   -0.4193961   -0.7551555    0.5038324
   0.0204883   -0.0812512   -0.0045228   -0.7722192   -0.6076858    0.1854601
   0.0197634   -0.0797570   -0.0025643   -0.6963867   -0.6892656    0.1998963
   0.0198463   -0.0801295   -0.0037303   -0.7720231   -0.6180585    0.1482703
   0.0201666   -0.0799055   -0.0018306   -0.6310005   -0.7111834    0.3099301
   0.0201107   -0.0808166   -0.0050351   -0.8094462   -0.5716468    0.1342263
   0.0200104   -0.0808658   -0.0056895   -0.8202830   -0.5570797    0.1296069
   0.0217480   -0.0818614   -0.0096655    0.0224964    0.7695964   -0.6381342
   0.0211491   -0.0817033   -0.0093068   -0.2712064    0.6593119   -0.7012523
   0.0201700   -0.0812953   -0.0065925   -0.8762910   -0.4812498    0.0226448
   0.0197374   -0.0800695   -0.0065123   -0.9567406   -0.1249793   -0.2627312
   0.0199941   -0.0806418   -0.0072515   -0.8644951    0.1472485   -0.4805893
   0.0214602   -0.0803366   -0.0079863   -0.1088504    0.6722863   -0.7322450
   0.0213745   -0.0793923   -0.0072899   -0.2506276    0.5725047   -0.7806562
   0.0240466   -0.0757029   -0.0053668   -0.0905499    0.5780290   -0.8109767
   0.0219437   -0.0758892   -0.0051019   -0.1714045    0.5365374   -0.8262857
   0.0219899   -0.0767238   -0.0056529   -0.1890322    0.5092154   -0.8396228
   0.0200890   -0.0781402   -0.0060494   -0.4017509    0.4380491   -0.8041823
   0.0206100   -0.0788020   -0.0066500   -0.1872750    0.5854948   -0.7887483
   0.0245030   -0.0761817   -0.0056873    0.0080224    0.5864751   -0.8099276
   0.0258625   -0.0761708   -0.0057725    0.0809757    0.6337800   -0.7692632
   0.0245567   -0.0756083   -0.0053141    0.0056998    0.5863028   -0.8100720
   0.0295629   -0.0804719   -0.0094752    0.6005996    0.7108574   -0.3660081
   0.0291496   -0.0798184   -0.0088544    0.3681250    0.7624203   -0.5321646
   0.0287580   -0.0795045   -0.0085847    0.1038510    0.7714022   -0.6278165
   0.0285237   -0.0788694   -0.0078973    0.2181139    0.7148689   -0.6643709
   0.0280213   -0.0789807   -0.0079307    0.0958304    0.6885889   -0.7187920
   0.0264610   -0.0770302   -0.0064525    0.1361344    0.6645458   -0.7347424
   0.0288020   -0.0785719   -0.0074250    0.5068405    0.6923593   -0.5135673
   0.0289063   -0.0792013   -0.0081537    0.4020925    0.7366881   -0.5437024
   0.0288779   -0.0783889   -0.0069006    0.8567400    0.4878935   -0.1672021
   0.0288813   -0.0782584   -0.0056760    0.9584569    0.2674662    0.0991072
   0.0260852   -0.0783009    0.0003271    0.7935317   -0.3442455    0.5017992
   0.0271606   -0.0769385   -0.0006524    0.8708745   -0.2292631    0.4347597
   0.0286786   -0.0777951   -0.0061659    0.9043758    0.4133100   -0.1062036
   0.0285466   -0.0773600   -0.0052628    0.8521331    0.4919790   -0.1783983
   0.0280982   -0.0763413   -0.0043201    0.8233265    0.5339057   -0.1925569
   0.0277229   -0.0753247   -0.0026812    0.9698126    0.2394579    0.0460805
   0.0278052   -0.0756029   -0.0037459    0.9172874    0.3926283   -0.0665341
   0.0269451   -0.0756157    0.0007435    0.8947768   -0.2697594    0.3558151
   0.0269333   -0.0764155    0.0001430    0.8591076   -0.2969064    0.4168700
   0.0274658   -0.0742885   -0.0003541    0.9902903   -0.0861135    0.1091308
   0.0273857   -0.0747440   -0.0000831    0.9506505   -0.1994642    0.2376503
   0.0275724   -0.0747106   -0.0023099    0.9847563    0.1723399   -0.0235353
   0.0241385   -0.0794809    0.0008921    0.2513749   -0.6738535    0.6947892
   0.0236323   -0.0795853    0.0008395    0.0847816   -0.7553482    0.6498162
   0.0252205   -0.0789847    0.0007276    0.4571898   -0.5911912    0.6644325
   0.0248297   -0.0784400    0.0014564    0.4255290   -0.6022698    0.6754229
   0.0255013   -0.0780940    0.0011911    0.6700073   -0.4485293    0.5915333
   0.0229793   -0.0800426    0.0002972   -0.1771646   -0.7902087    0.5866711
   0.0228722   -0.0796857    0.0007329   -0.0806092   -0.7692118    0.6338890
   0.0220634   -0.0799639    0.0000962   -0.3330732   -0.7802378    0.5294253
   0.0200498   -0.0789718   -0.0000444   -0.5335662   -0.7664589    0.3575582
   0.0201795   -0.0787685    0.0004757   -0.4319929   -0.7939654    0.4277862
   0.0194766   -0.0791363   -0.0013959   -0.6259810   -0.7181023    0.3041001
   0.0184752   -0.0782535   -0.0024999   -0.8188022   -0.5740656    0.0033956
   0.0191328   -0.0787513   -0.0011787   -0.6493885   -0.7275469    0.2212919
   0.0193769   -0.0795868   -0.0043701   -0.8404074   -0.5377530    0.0673588
   0.0211414   -0.0809552   -0.0086612   -0.1648149    0.6778724   -0.7164670
   0.0193012   -0.0794103   -0.0052305   -0.9185368   -0.3826131   -0.0994858
   0.0190405   -0.0788301   -0.0048426   -0.9240423   -0.2801955   -0.2600699
   0.0205546   -0.0808242   -0.0082729   -0.5623390    0.4762796   -0.6759679
   0.0203132   -0.0801738   -0.0076028   -0.4831693    0.5231193   -0.7020638
   0.0209045   -0.0803146   -0.0079812   -0.1460811    0.7040380   -0.6949754
   0.0206559   -0.0796459   -0.0073272   -0.1956077    0.5968323   -0.7781573
   0.0236082   -0.0745521   -0.0045448   -0.0819928    0.5385574   -0.8385900
   0.0246730   -0.0751942   -0.0049965   -0.0149636    0.5650468   -0.8249232
   0.0200840   -0.0767092   -0.0052282   -0.1507703    0.4736820   -0.8676945
   0.0207863   -0.0771250   -0.0056116   -0.2085150    0.4743382   -0.8552922
   0.0201648   -0.0790546   -0.0066712   -0.5613812    0.4387662   -0.7016661
   0.0252367   -0.0752375   -0.0050201    0.0401870    0.5666966   -0.8229459
   0.0273344   -0.0775801   -0.0067396    0.1649584    0.7090761   -0.6855653
   0.0269370   -0.0768810   -0.0061575    0.2323083    0.6870634   -0.6884597
   0.0265597   -0.0769151    0.0005071    0.8310200   -0.3474486    0.4343792
   0.0262866   -0.0768628    0.0010570    0.7990643   -0.3672511    0.4760492
   0.0286248   -0.0779697   -0.0066904    0.5372586    0.6919182   -0.4822887
   0.0282556   -0.0767711   -0.0052208    0.8305623    0.5332811   -0.1605541
   0.0276490   -0.0751475   -0.0035419    0.8982164    0.3995715   -0.1831666
   0.0269590   -0.0752233    0.0010539    0.8945561   -0.3223299    0.3096334
   0.0261191   -0.0759232    0.0021504    0.7856026   -0.4286032    0.4462374
   0.0272018   -0.0741631    0.0014746    0.9351995   -0.2754135    0.2225968
   0.0274955   -0.0738928   -0.0013902    0.9998556   -0.0103652   -0.0134662
   0.0274865   -0.0727739    0.0022733    0.9696168   -0.2172807    0.1123939
   0.0272876   -0.0736693    0.0018472    0.9088875   -0.3274225    0.2582984
   0.0271679   -0.0748155    0.0007303    0.9277999   -0.2853466    0.2403429
   0.0275164   -0.0746204   -0.0029100    0.9211305    0.2982073   -0.2501820
   0.0237685   -0.0788610    0.0015556    0.1529725   -0.6813640    0.7157811
   0.0232702   -0.0793365    0.0011910    0.0359896   -0.7305486    0.6819117
   0.0248334   -0.0769888    0.0027912    0.5391905   -0.5434661    0.6433647
   0.0240191   -0.0784277    0.0018939    0.2246706   -0.6914149    0.6866357
   0.0236888   -0.0767931    0.0036386    0.2927631   -0.6512337    0.7001317
   0.0223510   -0.0797016    0.0006029   -0.1944755   -0.7836930    0.5899191
   0.0228100   -0.0790404    0.0014597   -0.0318940   -0.7343929    0.6779748
   0.0192024   -0.0784162   -0.0001266   -0.5535512   -0.7846447    0.2791303
   0.0190592   -0.0785425   -0.0007212   -0.6039642   -0.7480966    0.2749158
   0.0202823   -0.0780867    0.0018863   -0.2967619   -0.8186829    0.4916205
   0.0197312   -0.0779936    0.0015259   -0.3716504   -0.8256194    0.4245334
   0.0194647   -0.0783427    0.0005526   -0.4663842   -0.8229995    0.3242802
   0.0183441   -0.0779176   -0.0035239   -0.8769454   -0.4426779   -0.1870912
   0.0180559   -0.0775118   -0.0033111   -0.8352231   -0.5234403   -0.1685604
   0.0176623   -0.0772212   -0.0009987   -0.7266117   -0.6854473    0.0468768
   0.0199984   -0.0800339   -0.0071475   -0.7971832    0.2647215   -0.5426062
   0.0196347   -0.0790530   -0.0061467   -0.7940413    0.1714156   -0.5831939
   0.0191935   -0.0785747   -0.0053644   -0.8459462   -0.0412627   -0.5316694
   0.0187150   -0.0782674   -0.0044407   -0.8925411   -0.1899435   -0.4090132
   0.0222357   -0.0730964   -0.0034482   -0.1156008    0.5203729   -0.8460783
   0.0244204   -0.0745372   -0.0045990   -0.0369382    0.5170747   -0.8551429
   0.0239615   -0.0740490   -0.0042440   -0.0783457    0.5328895   -0.8425501
   0.0195839   -0.0775225   -0.0055030   -0.3264087    0.3604085   -0.8738210
   0.0194449   -0.0764633   -0.0050189   -0.1061836    0.4263361   -0.8983110
   0.0199211   -0.0755793   -0.0046051   -0.0451177    0.4838259   -0.8740005
   0.0207175   -0.0755209   -0.0046112   -0.0947023    0.5241939   -0.8463168
   0.0211400   -0.0752026   -0.0044710   -0.1190532    0.5141431   -0.8494017
   0.0200661   -0.0795079   -0.0069461   -0.6860770    0.3651956   -0.6292301
   0.0195380   -0.0781017   -0.0057149   -0.6438892    0.2728781   -0.7148036
   0.0191933   -0.0778948   -0.0053321   -0.7562412    0.1158217   -0.6439601
   0.0189978   -0.0773910   -0.0050815   -0.6894046    0.0637320   -0.7215675
   0.0265299   -0.0757553   -0.0053038    0.2669636    0.6102575   -0.7458661
   0.0273739   -0.0765627   -0.0056611    0.2772448    0.6733629   -0.6853596
   0.0281930   -0.0772331   -0.0061531    0.4500460    0.7213176   -0.5264594
   0.0255095   -0.0768454    0.0021723    0.6996930   -0.4572091    0.5489895
   0.0276192   -0.0756474   -0.0044294    0.5877797    0.5959820   -0.5471018
   0.0273990   -0.0751023   -0.0040980    0.7293469    0.4525199   -0.5131071
   0.0275489   -0.0762421   -0.0052391    0.4143375    0.7052615   -0.5752657
   0.0269956   -0.0742067    0.0021326    0.8599295   -0.3854980    0.3345333
   0.0257581   -0.0759016    0.0027042    0.6802624   -0.5023768    0.5337234
   0.0257676   -0.0751934    0.0033902    0.6776937   -0.4880677    0.5500191
   0.0265777   -0.0740546    0.0032205    0.7616859   -0.4469688    0.4690987
   0.0274046   -0.0733879   -0.0018892    0.9849685    0.1098736   -0.1332847
   0.0277680   -0.0721193    0.0003914    0.9814518   -0.1537987   -0.1144479
   0.0274206   -0.0725732    0.0027401    0.9348570   -0.2448546    0.2570770
   0.0279110   -0.0713971    0.0011019    0.9892437   -0.0997500    0.1069899
   0.0273240   -0.0737271   -0.0029412    0.9513883    0.2006327   -0.2336812
   0.0225125   -0.0787665    0.0017930    0.0126725   -0.7473639    0.6642941
   0.0242537   -0.0761444    0.0038608    0.4757337   -0.5629633    0.6758327
   0.0229486   -0.0777225    0.0029562    0.1031893   -0.7172395    0.6891440
   0.0227065   -0.0774082    0.0032682    0.0741065   -0.7160632    0.6940905
   0.0226740   -0.0769782    0.0037481    0.1042180   -0.7054242    0.7010815
   0.0233255   -0.0765432    0.0039782    0.2384153   -0.6481291    0.7232474
   0.0238945   -0.0759595    0.0042626    0.3989789   -0.5680692    0.7198009
   0.0251862   -0.0759639    0.0032768    0.5950409   -0.5243022    0.6091252
   0.0204666   -0.0769428    0.0035611   -0.0797603   -0.7635688    0.6407816
   0.0214307   -0.0778608    0.0026670   -0.1151668   -0.7453052    0.6567014
   0.0219368   -0.0772004    0.0035358   -0.0762565   -0.7361530    0.6725055
   0.0190526   -0.0779833    0.0007747   -0.5162920   -0.8074161    0.2855201
   0.0184499   -0.0775793    0.0009029   -0.5111432   -0.8178063    0.2644343
   0.0179587   -0.0773402    0.0005428   -0.6010027   -0.7864940    0.1422072
   0.0200395   -0.0772775    0.0030820   -0.2117463   -0.8227409    0.5275045
   0.0187140   -0.0771327    0.0025787   -0.3749638   -0.8355392    0.4015925
   0.0186630   -0.0773064    0.0020536   -0.4942792   -0.8189264    0.2916292
   0.0185082   -0.0776514   -0.0044033   -0.8444991   -0.3419221   -0.4122020
   0.0169582   -0.0762269   -0.0021247   -0.8237138   -0.5307932   -0.1993847
   0.0162601   -0.0754860   -0.0009916   -0.7974901   -0.5941651   -0.1047732
   0.0174534   -0.0769905    0.0000755   -0.6856056   -0.7268640    0.0401703
   0.0161642   -0.0755724    0.0004096   -0.7956502   -0.6052157   -0.0255866
   0.0215851   -0.0728186   -0.0031997   -0.1001867    0.4642894   -0.8799988
   0.0230694   -0.0724271   -0.0031250   -0.1354641    0.4606729   -0.8771716
   0.0241542   -0.0731290   -0.0037049   -0.0769269    0.5291570   -0.8450296
   0.0226136   -0.0726612   -0.0032247   -0.1515000    0.4541918   -0.8779280
   0.0222089   -0.0723136   -0.0029532   -0.1409447    0.4475032   -0.8831056
   0.0248133   -0.0741369   -0.0043557    0.0142723    0.4941924   -0.8692354
   0.0190366   -0.0761121   -0.0048067   -0.2351074    0.3526845   -0.9057252
   0.0190492   -0.0768362   -0.0050157   -0.4881432    0.1896010   -0.8519200
   0.0188345   -0.0748870   -0.0042062   -0.0204426    0.4436345   -0.8959746
   0.0198613   -0.0747124   -0.0040853    0.0017180    0.5033149   -0.8641014
   0.0207320   -0.0727220   -0.0030141   -0.1191028    0.4498801   -0.8851115
   0.0203039   -0.0737343   -0.0035319    0.0031748    0.4836546   -0.8752532
   0.0186634   -0.0772114   -0.0047272   -0.7354177   -0.1003012   -0.6701496
   0.0186676   -0.0765447   -0.0047210   -0.5902480    0.0794710   -0.8033005
   0.0262290   -0.0749683   -0.0047775    0.1512491    0.5522297   -0.8198574
   0.0259777   -0.0743142   -0.0043792    0.1424091    0.4854756   -0.8625735
   0.0268761   -0.0752091   -0.0046879    0.4562258    0.5284604   -0.7159522
   0.0272807   -0.0744118   -0.0036582    0.8264634    0.3500311   -0.4409496
   0.0270946   -0.0736196   -0.0034399    0.8517082    0.2883522   -0.4375455
   0.0254504   -0.0750482    0.0038403    0.5763911   -0.5238309    0.6271957
   0.0261517   -0.0733914    0.0045023    0.6459881   -0.4655465    0.6049511
   0.0265609   -0.0730266    0.0042752    0.7635402   -0.4546155    0.4586186
   0.0270096   -0.0731984    0.0032137    0.8508748   -0.3757340    0.3672002
   0.0272908   -0.0726459   -0.0021222    0.9507723    0.1564273   -0.2675117
   0.0276827   -0.0714697   -0.0006786    0.9471025   -0.1311622   -0.2929048
   0.0278280   -0.0715574   -0.0001178    0.9731708   -0.1176156   -0.1977505
   0.0272896   -0.0719337   -0.0017155    0.9182595    0.1250879   -0.3757027
   0.0279146   -0.0715502    0.0005726    0.9970907   -0.0509130   -0.0567280
   0.0270790   -0.0737818    0.0024305    0.8724120   -0.3710492    0.3181507
   0.0274853   -0.0720408    0.0029340    0.9632808   -0.0776879    0.2570112
   0.0271622   -0.0722929    0.0037544    0.8941531   -0.2684087    0.3583950
   0.0278312   -0.0703735    0.0007952    0.9866264    0.1557110   -0.0481910
   0.0225470   -0.0781153    0.0025395    0.0060432   -0.7363929    0.6765272
   0.0223499   -0.0761046    0.0046437    0.0887920   -0.6608813    0.7452194
   0.0235631   -0.0757255    0.0046252    0.2909799   -0.5813128    0.7598724
   0.0235200   -0.0748976    0.0051856    0.3802650   -0.5678158    0.7300574
   0.0239911   -0.0740006    0.0056041    0.4093370   -0.5000733    0.7631316
   0.0245174   -0.0739671    0.0053890    0.4448293   -0.5096262    0.7364835
   0.0209022   -0.0766429    0.0038713   -0.0867375   -0.7220930    0.6863369
   0.0202268   -0.0762952    0.0042338   -0.0272910   -0.7141366    0.6994742
   0.0194846   -0.0763801    0.0041076   -0.1139688   -0.7660885    0.6325500
   0.0219286   -0.0765169    0.0042399   -0.0881552   -0.7062264    0.7024763
   0.0174699   -0.0767006    0.0018283   -0.5451025   -0.8020764    0.2440012
   0.0169824   -0.0764983    0.0008313   -0.6777910   -0.7303541    0.0847483
   0.0193694   -0.0769568    0.0032696   -0.2407676   -0.8204138    0.5186060
   0.0178583   -0.0766568    0.0025696   -0.4557135   -0.8134867    0.3613371
   0.0187881   -0.0768894    0.0030457   -0.3489007   -0.8269967    0.4408455
   0.0176503   -0.0766401   -0.0035668   -0.8196112   -0.2685006   -0.5061076
   0.0173362   -0.0764889   -0.0029505   -0.8449140   -0.3824769   -0.3739408
   0.0166420   -0.0758312   -0.0019086   -0.8018569   -0.5566135   -0.2172717
   0.0170081   -0.0756817   -0.0030095   -0.8049136   -0.3885789   -0.4484647
   0.0154516   -0.0743605   -0.0008389   -0.8628443   -0.4889117   -0.1283159
   0.0155341   -0.0745753   -0.0000235   -0.8416630   -0.5391050   -0.0311322
   0.0158097   -0.0750113    0.0004606   -0.8431073   -0.5377420   -0.0019184
   0.0157782   -0.0749587    0.0017504   -0.8332701   -0.5508594    0.0470613
   0.0166180   -0.0761211    0.0010503   -0.7280024   -0.6793743    0.0919950
   0.0161322   -0.0754549    0.0016388   -0.7840015   -0.6130567    0.0974838
   0.0220316   -0.0718577   -0.0027397   -0.0983512    0.4237090   -0.9004431
   0.0250560   -0.0733493   -0.0039235   -0.0519713    0.4956662   -0.8669567
   0.0222968   -0.0704275   -0.0020346   -0.0304119    0.4605985   -0.8870875
   0.0226906   -0.0707401   -0.0022113   -0.1812298    0.4598856   -0.8692876
   0.0230903   -0.0710799   -0.0025508   -0.2295184    0.4417138   -0.8673006
   0.0240037   -0.0713273   -0.0027493   -0.2122406    0.3295606   -0.9199694
   0.0251623   -0.0715213   -0.0031510   -0.1212109    0.3520592   -0.9280960
   0.0246097   -0.0728992   -0.0036469   -0.0961345    0.4163050   -0.9041285
   0.0258057   -0.0731636   -0.0037804    0.0364649    0.4064998   -0.9129229
   0.0184389   -0.0752723   -0.0043402   -0.3238041    0.2407465   -0.9149820
   0.0177928   -0.0736186   -0.0036627    0.0251651    0.3710605   -0.9282676
   0.0189037   -0.0730309   -0.0032310    0.1142205    0.4750321   -0.8725240
   0.0203154   -0.0723509   -0.0028047    0.0364194    0.4632479   -0.8854801
   0.0196291   -0.0719936   -0.0026549    0.0639371    0.5015090   -0.8627866
   0.0181331   -0.0757104   -0.0043031   -0.6206234   -0.0275266   -0.7836255
   0.0174324   -0.0760924   -0.0034667   -0.7720068   -0.1867960   -0.6075466
   0.0266277   -0.0745682   -0.0043663    0.3728363    0.5058567   -0.7778831
   0.0267093   -0.0733638   -0.0037037    0.5283519    0.3429793   -0.7766656
   0.0271370   -0.0730118   -0.0029888    0.8597893    0.2183518   -0.4616111
   0.0253267   -0.0739860    0.0048322    0.5397494   -0.5030719    0.6749735
   0.0266612   -0.0725757    0.0045547    0.7829697   -0.3534974    0.5118575
   0.0277165   -0.0705458   -0.0004224    0.9523366    0.1660031   -0.2559257
   0.0276522   -0.0704915    0.0022022    0.9881508   -0.0175720    0.1524772
   0.0274971   -0.0714485    0.0030554    0.9694854   -0.0488210    0.2402385
   0.0278525   -0.0703911    0.0014900    0.9837900    0.0462071    0.1732688
   0.0271615   -0.0718304    0.0039941    0.9137819   -0.1434118    0.3800470
   0.0275270   -0.0696727    0.0000539    0.9292586    0.3181649   -0.1877489
   0.0276975   -0.0697299    0.0008289    0.9399980    0.3138445   -0.1338111
   0.0275777   -0.0691316    0.0022553    0.9754815    0.1910158    0.1093106
   0.0276192   -0.0692707    0.0017228    0.9497948    0.3109313   -0.0348086
   0.0231854   -0.0754427    0.0049297    0.2241307   -0.5888496    0.7765446
   0.0215366   -0.0754814    0.0051813   -0.0687744   -0.6879149    0.7225255
   0.0219580   -0.0750590    0.0055766    0.0601198   -0.5782125    0.8136682
   0.0236344   -0.0744790    0.0054980    0.4394619   -0.5679559    0.6959162
   0.0232733   -0.0742336    0.0058426    0.3024033   -0.5280597    0.7935397
   0.0244839   -0.0731703    0.0058554    0.3870487   -0.3903012    0.8353791
   0.0234723   -0.0733454    0.0061964    0.2196980   -0.3507953    0.9103162
   0.0252889   -0.0731702    0.0054033    0.5083581   -0.3832880    0.7711435
   0.0209116   -0.0759278    0.0046376   -0.0830496   -0.7145041    0.6946846
   0.0189655   -0.0753924    0.0050589   -0.0776993   -0.6328731    0.7703470
   0.0205014   -0.0755626    0.0049712   -0.0763756   -0.6630324    0.7446844
   0.0191207   -0.0766713    0.0036055   -0.2007184   -0.8315758    0.5178743
   0.0187808   -0.0760929    0.0043170   -0.2215027   -0.7754089    0.5913354
   0.0172975   -0.0762763    0.0027318   -0.5246813   -0.7907853    0.3152273
   0.0167490   -0.0759683    0.0022387   -0.6557914   -0.7285350    0.1979250
   0.0164956   -0.0753470   -0.0024031   -0.7742038   -0.5196948   -0.3612835
   0.0158294   -0.0746918   -0.0017399   -0.8132265   -0.4415626   -0.3790582
   0.0152646   -0.0741624    0.0001876   -0.8902365   -0.4542901   -0.0331590
   0.0158350   -0.0748978    0.0023817   -0.8121184   -0.5551185    0.1797418
   0.0150552   -0.0737772    0.0017907   -0.8715475   -0.4886867    0.0398777
   0.0162243   -0.0752911    0.0028587   -0.7203685   -0.6722004    0.1709265
   0.0212335   -0.0712064   -0.0023792   -0.0916290    0.4704024   -0.8776820
   0.0223847   -0.0699491   -0.0017869   -0.0615146    0.5043948   -0.8612792
   0.0219674   -0.0695762   -0.0015779   -0.0420388    0.4512612   -0.8914012
   0.0240575   -0.0707700   -0.0025751   -0.2356406    0.3648593   -0.9007504
   0.0234887   -0.0700008   -0.0021054   -0.3542886    0.4341176   -0.8282642
   0.0229102   -0.0698890   -0.0016967   -0.1651141    0.4779137   -0.8627490
   0.0247641   -0.0711976   -0.0029731   -0.2554884    0.2995211   -0.9192458
   0.0261442   -0.0726350   -0.0036161    0.1453708    0.3129691   -0.9385721
   0.0261010   -0.0711273   -0.0030198    0.3268159    0.4777518   -0.8154414
   0.0261609   -0.0719829   -0.0034020    0.2384392    0.4025100   -0.8838170
   0.0249868   -0.0703725   -0.0026881   -0.1127169    0.4210623   -0.9000008
   0.0180392   -0.0749447   -0.0041574   -0.4255811    0.1084369   -0.8983998
   0.0176330   -0.0745997   -0.0039535   -0.4400093   -0.0758337   -0.8947855
   0.0172119   -0.0735361   -0.0036913   -0.2307133    0.1046991   -0.9673725
   0.0170425   -0.0731021   -0.0035038   -0.1424156    0.3669673   -0.9192675
   0.0182097   -0.0725816   -0.0031721    0.1149391    0.4222675   -0.8991547
   0.0174658   -0.0720769   -0.0029638    0.0087319    0.4651962   -0.8851646
   0.0170579   -0.0724362   -0.0031566   -0.0182482    0.4768321   -0.8788050
   0.0180943   -0.0721266   -0.0029558    0.1675917    0.5014707   -0.8487875
   0.0199765   -0.0714772   -0.0023689    0.0134512    0.4769209   -0.8788433
   0.0207820   -0.0714456   -0.0024211   -0.1047127    0.4215675   -0.9007309
   0.0187220   -0.0717657   -0.0025043    0.1326152    0.5068290   -0.8517850
   0.0176830   -0.0755449   -0.0039100   -0.6750524   -0.1303799   -0.7261579
   0.0268100   -0.0719363    0.0046696    0.8474030   -0.1886567    0.4963032
   0.0263390   -0.0724194    0.0049925    0.6207240   -0.3606855    0.6961376
   0.0264051   -0.0718906    0.0051893    0.5818188   -0.2130542    0.7849170
   0.0273695   -0.0700270   -0.0007845    0.8380857    0.3914132   -0.3800107
   0.0272928   -0.0705567   -0.0013180    0.8483668    0.2570954   -0.4627913
   0.0268966   -0.0710041   -0.0022421    0.8019229    0.3206936   -0.5040588
   0.0269676   -0.0704676   -0.0017920    0.7866651    0.3473524   -0.5103962
   0.0275696   -0.0705476    0.0029063    0.9820061   -0.0251351    0.1871692
   0.0271290   -0.0712773    0.0041417    0.9165443   -0.0717482    0.3934447
   0.0273107   -0.0691284    0.0001585    0.8576253    0.4468469   -0.2545717
   0.0273845   -0.0688194    0.0012351    0.8688562    0.4760553   -0.1358682
   0.0272912   -0.0685703    0.0029982    0.8784666    0.4589263    0.1329776
   0.0273931   -0.0686869    0.0024606    0.8297755    0.5579090   -0.0144945
   0.0227261   -0.0742222    0.0059712    0.1679906   -0.4263701    0.8888125
   0.0209557   -0.0753084    0.0052844   -0.0674202   -0.6474675    0.7591050
   0.0216675   -0.0743039    0.0060270    0.0416070   -0.4449557    0.8945856
   0.0208830   -0.0743941    0.0060035   -0.0299352   -0.5154676    0.8563861
   0.0248446   -0.0727093    0.0058643    0.4551660   -0.3197965    0.8309959
   0.0236267   -0.0723527    0.0064689    0.2553252   -0.3202038    0.9122930
   0.0232382   -0.0720561    0.0066122   -0.0166039   -0.1554841    0.9876988
   0.0253413   -0.0726103    0.0055673    0.4780872   -0.2159850    0.8513419
   0.0183659   -0.0757167    0.0046342   -0.2810065   -0.7288047    0.6244030
   0.0194034   -0.0748352    0.0054515   -0.1170831   -0.5622423    0.8186422
   0.0190320   -0.0745190    0.0056075   -0.1641246   -0.5400693    0.8254625
   0.0184574   -0.0752273    0.0051191   -0.2133882   -0.4983726    0.8402918
   0.0183246   -0.0763605    0.0037691   -0.3327830   -0.8167866    0.4712909
   0.0168918   -0.0755090    0.0039212   -0.4679483   -0.7815201    0.4126144
   0.0163528   -0.0752679    0.0035470   -0.6852975   -0.6894964    0.2344399
   0.0172929   -0.0753569   -0.0035201   -0.7425350   -0.2855647   -0.6058834
   0.0153235   -0.0737304   -0.0015486   -0.9195416   -0.2444133   -0.3077423
   0.0150557   -0.0735213   -0.0004692   -0.9476993   -0.2881309   -0.1372831
   0.0148632   -0.0733351    0.0019974   -0.9600062   -0.2759515    0.0473167
   0.0148587   -0.0733118    0.0012997   -0.9672046   -0.2533593   -0.0180120
   0.0148867   -0.0732761    0.0005999   -0.9579562   -0.2782978   -0.0697873
   0.0151984   -0.0739288    0.0026445   -0.8756757   -0.4531132    0.1669745
   0.0160715   -0.0748440    0.0037758   -0.8006178   -0.4292637    0.4180237
   0.0153821   -0.0738537    0.0032985   -0.8364468   -0.4072771    0.3667181
   0.0157100   -0.0739451    0.0038314   -0.8400994   -0.3858125    0.3812895
   0.0205042   -0.0700135   -0.0015736   -0.0805935    0.6460369   -0.7590396
   0.0209338   -0.0697050   -0.0013414   -0.1869700    0.5818100   -0.7915423
   0.0201809   -0.0705958   -0.0019413   -0.1274300    0.5090466   -0.8512539
   0.0224735   -0.0694653   -0.0014568    0.1215849    0.5053367   -0.8543137
   0.0243583   -0.0701471   -0.0024000   -0.2426144    0.4198433   -0.8745684
   0.0264633   -0.0716091   -0.0031438    0.6000336    0.4293787   -0.6749768
   0.0260428   -0.0702647   -0.0024968    0.3109333    0.5202880   -0.7953747
   0.0266364   -0.0724864   -0.0034475    0.6790309    0.2942898   -0.6725404
   0.0255965   -0.0698256   -0.0023580    0.1755745    0.4715301   -0.8641950
   0.0165155   -0.0724418   -0.0030981   -0.4480366    0.3379488   -0.8276798
   0.0177055   -0.0712802   -0.0025084    0.0413581    0.5495213   -0.8344555
   0.0168583   -0.0719152   -0.0028223   -0.1144127    0.5379738   -0.8351610
   0.0186155   -0.0712622   -0.0022726    0.1153926    0.5370008   -0.8356522
   0.0193181   -0.0711834   -0.0021534   -0.0162155    0.5321251   -0.8465104
   0.0267685   -0.0714613    0.0048881    0.8233816   -0.1110589    0.5565147
   0.0262348   -0.0714519    0.0054048    0.5344047   -0.1175142    0.8370197
   0.0269011   -0.0688338   -0.0003600    0.7597389    0.5006962   -0.4148495
   0.0268331   -0.0693997   -0.0010684    0.7009808    0.4787412   -0.5286140
   0.0264741   -0.0707562   -0.0025907    0.5122937    0.4656908   -0.7215866
   0.0267662   -0.0713940   -0.0026940    0.7098840    0.3978340   -0.5811994
   0.0265864   -0.0703800   -0.0022392    0.6170293    0.4764181   -0.6263390
   0.0274967   -0.0695469    0.0032952    0.9821901    0.0824190    0.1688485
   0.0268955   -0.0705165    0.0047108    0.8573363   -0.0262140    0.5140887
   0.0274044   -0.0701210    0.0038066    0.9390665   -0.0255078    0.3427879
   0.0266972   -0.0709505    0.0050620    0.7666704   -0.0334278    0.6411700
   0.0273602   -0.0690839    0.0034973    0.9297097    0.2601567    0.2606882
   0.0268544   -0.0684536    0.0000720    0.7616410    0.5701779   -0.3078964
   0.0271270   -0.0684020    0.0014460    0.7601170    0.6392966   -0.1162838
   0.0271252   -0.0686577    0.0037080    0.7147027    0.5493106    0.4329641
   0.0269550   -0.0681826    0.0032140    0.5659557    0.8032079    0.1858797
   0.0265439   -0.0677861    0.0016654    0.6294917    0.7765737    0.0259512
   0.0268313   -0.0680239    0.0023586    0.6598694    0.7513405    0.0077331
   0.0220966   -0.0740031    0.0061458    0.0588238   -0.3771154    0.9242964
   0.0222224   -0.0729319    0.0065166   -0.0284128   -0.1201590    0.9923480
   0.0205152   -0.0748690    0.0056063   -0.1119326   -0.5966705    0.7946417
   0.0216765   -0.0737319    0.0062772    0.0652554   -0.3538464    0.9330243
   0.0208771   -0.0736742    0.0063596    0.0067886   -0.2825920    0.9592162
   0.0204546   -0.0739961    0.0061851   -0.0976457   -0.4759046    0.8740596
   0.0227061   -0.0727817    0.0064471    0.0406111   -0.2036665    0.9781977
   0.0251628   -0.0721524    0.0057627    0.5462731   -0.1707788    0.8200124
   0.0246738   -0.0715632    0.0064563    0.4554572   -0.2792570    0.8453249
   0.0239966   -0.0719082    0.0065576    0.2108744   -0.3469134    0.9138835
   0.0226786   -0.0720288    0.0065478   -0.2043957    0.1164824    0.9719333
   0.0255711   -0.0718259    0.0055695    0.4308374   -0.1711868    0.8860442
   0.0192356   -0.0736820    0.0062270   -0.1092931   -0.3250044    0.9393759
   0.0187069   -0.0737345    0.0061289   -0.1663220   -0.3316279    0.9286334
   0.0175180   -0.0753956    0.0046627   -0.3971352   -0.6287995    0.6685020
   0.0181477   -0.0744393    0.0053920   -0.2344886   -0.5524011    0.7999176
   0.0172952   -0.0758505    0.0036793   -0.4073830   -0.7860604    0.4649174
   0.0164129   -0.0750910    0.0040704   -0.6028905   -0.6277617    0.4923803
   0.0161435   -0.0744257   -0.0026904   -0.7493294   -0.3517882   -0.5610263
   0.0158710   -0.0738340   -0.0026467   -0.8204774   -0.2130996   -0.5304766
   0.0168881   -0.0747390   -0.0033846   -0.6527294   -0.3002847   -0.6955382
   0.0150413   -0.0728080   -0.0011425   -0.9595704   -0.0838490   -0.2686896
   0.0155006   -0.0729447   -0.0022339   -0.8451627   -0.0125633   -0.5343615
   0.0149171   -0.0730596   -0.0002685   -0.9797091   -0.1615181   -0.1186671
   0.0147433   -0.0724099    0.0016036   -0.9941568    0.0601935    0.0896049
   0.0148795   -0.0731744    0.0025249   -0.9517695   -0.2290240    0.2041635
   0.0148047   -0.0725144    0.0021857   -0.9743210    0.1224284    0.1889705
   0.0147517   -0.0726328    0.0006338   -0.9903145   -0.1223882   -0.0655616
   0.0162639   -0.0746002    0.0043090   -0.6670439   -0.3870620    0.6365811
   0.0154210   -0.0730220    0.0038784   -0.8514072   -0.1751267    0.4944051
   0.0151731   -0.0733363    0.0032966   -0.9299805   -0.0550252    0.3634672
   0.0201445   -0.0690420   -0.0005627   -0.2068965    0.6843988   -0.6991366
   0.0197456   -0.0694399   -0.0009724   -0.0744481    0.7075771   -0.7027035
   0.0195348   -0.0703184   -0.0015564   -0.1741523    0.5810016   -0.7950523
   0.0195321   -0.0688519   -0.0002349   -0.1741189    0.8476915   -0.5011005
   0.0221781   -0.0686970   -0.0009941   -0.1588356    0.5076132   -0.8468176
   0.0220697   -0.0691294   -0.0012935    0.1131468    0.2353932   -0.9652916
   0.0229966   -0.0694065   -0.0014499   -0.3689686    0.4364783   -0.8205783
   0.0249937   -0.0689796   -0.0019708   -0.0176408    0.5294331   -0.8481683
   0.0237307   -0.0692217   -0.0017958   -0.3051807    0.5227947   -0.7959588
   0.0242005   -0.0690334   -0.0018178   -0.2426777    0.4957988   -0.8338412
   0.0260836   -0.0698747   -0.0021782    0.3625064    0.5160601   -0.7760613
   0.0254097   -0.0693492   -0.0021827    0.1985976    0.5032988   -0.8409811
   0.0259696   -0.0693618   -0.0019327    0.4696138    0.5260211   -0.7090590
   0.0169627   -0.0742685   -0.0036378   -0.5097580   -0.2279636   -0.8295658
   0.0166345   -0.0734428   -0.0034751   -0.5980074   -0.0463080   -0.8001517
   0.0160989   -0.0713405   -0.0022252   -0.3096092    0.5649818   -0.7648122
   0.0160030   -0.0718012   -0.0024927   -0.5293768    0.4287786   -0.7320581
   0.0171776   -0.0706069   -0.0019653   -0.0235550    0.6227942   -0.7820310
   0.0183647   -0.0708467   -0.0020677    0.1076901    0.6035504   -0.7900188
   0.0186177   -0.0693337   -0.0007117   -0.0096565    0.7147308   -0.6993330
   0.0257379   -0.0711558    0.0056629    0.4545247   -0.2244944    0.8619800
   0.0265487   -0.0688771   -0.0009618    0.6881018    0.5106937   -0.5154686
   0.0273373   -0.0695646    0.0039404    0.9059170    0.1092009    0.4091326
   0.0266487   -0.0702748    0.0050897    0.7038072    0.1207027    0.7000616
   0.0271091   -0.0692034    0.0042132    0.7957176    0.2653097    0.5444669
   0.0263793   -0.0684267   -0.0007574    0.6579746    0.5299761   -0.5349717
   0.0261682   -0.0679915   -0.0005493    0.6496059    0.6481663   -0.3973571
   0.0266318   -0.0681092    0.0003624    0.7438112    0.6279212   -0.2290413
   0.0262281   -0.0675061    0.0010314    0.6998476    0.7141735    0.0130177
   0.0261516   -0.0675091    0.0003411    0.7336242    0.6586278   -0.1673469
   0.0258850   -0.0674539    0.0023394    0.4362882    0.8782977    0.1955652
   0.0257987   -0.0672807    0.0018424    0.5953221    0.7697656    0.2303313
   0.0264988   -0.0678141    0.0027436    0.4441070    0.8891524    0.1103492
   0.0216624   -0.0729044    0.0064522   -0.0493197   -0.0559599    0.9972141
   0.0199466   -0.0733998    0.0063763   -0.0701929   -0.0801991    0.9943043
   0.0246636   -0.0710698    0.0066319    0.3973292   -0.0074871    0.9176456
   0.0230245   -0.0715325    0.0065542   -0.4247675    0.4178439    0.8031058
   0.0221378   -0.0720545    0.0064163   -0.3410206    0.4528905    0.8237689
   0.0253054   -0.0714979    0.0058622    0.6623951   -0.1763319    0.7281070
   0.0169792   -0.0749906    0.0046329   -0.5282610   -0.4770846    0.7023749
   0.0174359   -0.0747341    0.0050527   -0.2927909   -0.4985781    0.8159003
   0.0178817   -0.0737424    0.0059088   -0.2870681   -0.4490809    0.8461195
   0.0177437   -0.0741042    0.0055360   -0.3201114   -0.5675230    0.7585818
   0.0162469   -0.0740271   -0.0030339   -0.7383572   -0.2457513   -0.6280405
   0.0160746   -0.0733688   -0.0029658   -0.7445489   -0.0244562   -0.6671198
   0.0150806   -0.0719195   -0.0012893   -0.8934252    0.1575895   -0.4206626
   0.0153083   -0.0720536   -0.0017760   -0.8592789    0.1285011   -0.4951032
   0.0156711   -0.0723227   -0.0023702   -0.7241373    0.2217763   -0.6530241
   0.0147384   -0.0715843    0.0003227   -0.9962463    0.0220896   -0.0836980
   0.0149043   -0.0719323    0.0020409   -0.9173860    0.3299207    0.2226100
   0.0149411   -0.0721498    0.0025130   -0.9237314    0.2286495    0.3073103
   0.0147052   -0.0721363    0.0008291   -0.9988415    0.0471648    0.0095452
   0.0159848   -0.0730155    0.0047030   -0.8066107   -0.1496441    0.5718267
   0.0154861   -0.0720399    0.0038192   -0.8947629    0.1871017    0.4054532
   0.0218214   -0.0684623   -0.0006392   -0.2804689    0.6923238   -0.6648496
   0.0206647   -0.0682393    0.0001783   -0.2706376    0.8110712   -0.5185737
   0.0193852   -0.0691972   -0.0006272   -0.0953866    0.7837411   -0.6137192
   0.0187790   -0.0690217   -0.0002844   -0.0765576    0.8315662   -0.5501241
   0.0219476   -0.0680709   -0.0002988   -0.3295931    0.7401935   -0.5860734
   0.0224079   -0.0678627   -0.0003664   -0.4532450    0.6497294   -0.6102627
   0.0229598   -0.0686137   -0.0011346   -0.3107228    0.4463829   -0.8391625
   0.0249628   -0.0681795   -0.0013825    0.0511311    0.6576044   -0.7516263
   0.0241874   -0.0682883   -0.0013703   -0.1642300    0.5599356   -0.8120964
   0.0233563   -0.0682391   -0.0010975   -0.3146823    0.5025134   -0.8052673
   0.0156518   -0.0708487   -0.0014618   -0.6333857    0.4994474   -0.5910794
   0.0155489   -0.0712935   -0.0017467   -0.7117076    0.3655136   -0.5998934
   0.0167902   -0.0703003   -0.0016608   -0.2274325    0.6545277   -0.7210187
   0.0179406   -0.0697276   -0.0012028    0.0018493    0.7302126   -0.6832175
   0.0174680   -0.0691771   -0.0005021   -0.0613202    0.8389841   -0.5406899
   0.0253867   -0.0706581    0.0060044    0.6458492   -0.0679509    0.7604350
   0.0251256   -0.0700032    0.0061122    0.5779743    0.1871361    0.7943083
   0.0262336   -0.0707665    0.0054826    0.5481310    0.0281956    0.8359171
   0.0256945   -0.0700873    0.0057495    0.5329991    0.2208484    0.8167851
   0.0263660   -0.0697639    0.0052070    0.5853237    0.3248738    0.7428682
   0.0267142   -0.0688373    0.0044358    0.6282877    0.4234240    0.6526612
   0.0258059   -0.0682137   -0.0011153    0.4084315    0.6773022   -0.6119195
   0.0257498   -0.0669912    0.0010917    0.6498034    0.7599880   -0.0131789
   0.0258274   -0.0671168    0.0005566    0.4777688    0.7919264   -0.3802492
   0.0260470   -0.0683518    0.0045530    0.4633374    0.6253769    0.6278712
   0.0261965   -0.0680869    0.0040426    0.3688961    0.8150881    0.4467070
   0.0258174   -0.0678482    0.0037574    0.2375961    0.8988167    0.3683430
   0.0260109   -0.0677046    0.0030945    0.2856519    0.9293502    0.2339044
   0.0252677   -0.0672688    0.0024716    0.3509634    0.8670084    0.3537246
   0.0208576   -0.0729438    0.0064324   -0.0550889    0.1657834    0.9846223
   0.0212313   -0.0725229    0.0063456   -0.1934231    0.4907119    0.8495819
   0.0241273   -0.0708628    0.0067494   -0.2370648    0.2518456    0.9382825
   0.0216088   -0.0721122    0.0062455   -0.3485699    0.6131003    0.7089478
   0.0192760   -0.0730990    0.0062978   -0.1208685    0.4838134    0.8667845
   0.0184869   -0.0731820    0.0062259   -0.1342441    0.2289070    0.9641474
   0.0178238   -0.0732503    0.0061042   -0.3074805    0.1237476    0.9434735
   0.0169254   -0.0734256    0.0056212   -0.5432653   -0.3101909    0.7801567
   0.0148955   -0.0718347   -0.0007479   -0.9659140    0.0800805   -0.2461653
   0.0149890   -0.0711739   -0.0006675   -0.8883921    0.2962250   -0.3507282
   0.0148133   -0.0711969   -0.0000214   -0.9706694    0.1803362   -0.1589960
   0.0148388   -0.0713523    0.0008864   -0.9705079    0.2120205    0.1147243
   0.0152778   -0.0715949    0.0029498   -0.8871702    0.3703797    0.2752232
   0.0152157   -0.0711217    0.0020409   -0.8951554    0.2978842    0.3316050
   0.0147982   -0.0718851    0.0014175   -0.9298936    0.3055138    0.2048398
   0.0157539   -0.0707461    0.0029140   -0.7714659    0.5252355    0.3591211
   0.0164402   -0.0729190    0.0054105   -0.6299142    0.2051089    0.7490918
   0.0161491   -0.0726197    0.0050508   -0.8145583    0.0833044    0.5740689
   0.0157906   -0.0720350    0.0044040   -0.7421215    0.3051819    0.5967576
   0.0155497   -0.0715382    0.0036053   -0.7920430    0.4394076    0.4237793
   0.0201122   -0.0681870    0.0006497   -0.3197220    0.8697757   -0.3758564
   0.0200523   -0.0679997    0.0011315   -0.3219316    0.9052785   -0.2771840
   0.0205969   -0.0680340    0.0006402   -0.3060319    0.8600795   -0.4081760
   0.0183190   -0.0688540    0.0001032   -0.0727369    0.9003164   -0.4291150
   0.0181620   -0.0687746    0.0006261   -0.2117083    0.9735145   -0.0863081
   0.0186362   -0.0685658    0.0009871   -0.3442231    0.9235977   -0.1687534
   0.0195679   -0.0681344    0.0013687   -0.3773667    0.9220358   -0.0862809
   0.0220901   -0.0677156    0.0000833   -0.3897076    0.7889991   -0.4749826
   0.0228533   -0.0676203   -0.0004694   -0.3764659    0.5930346   -0.7117467
   0.0255246   -0.0685421   -0.0015595    0.2690628    0.6260552   -0.7318880
   0.0241903   -0.0675746   -0.0008160   -0.0262164    0.6936807   -0.7198054
   0.0236996   -0.0677140   -0.0008213   -0.2112462    0.6555332   -0.7250181
   0.0158820   -0.0700150   -0.0008319   -0.5293688    0.6245128   -0.5742407
   0.0164407   -0.0700812   -0.0012885   -0.3439024    0.6729790   -0.6548515
   0.0154592   -0.0703085   -0.0006739   -0.7245606    0.5142233   -0.4588969
   0.0170605   -0.0695569   -0.0009336   -0.1357694    0.7661583   -0.6281466
   0.0167116   -0.0693402   -0.0005608   -0.1990781    0.8152652   -0.5437928
   0.0171359   -0.0689987   -0.0000891   -0.1360514    0.9214943   -0.3637834
   0.0246569   -0.0701624    0.0065267    0.0753225    0.3297307    0.9410654
   0.0254761   -0.0695506    0.0057079    0.5785529    0.2886259    0.7628707
   0.0252826   -0.0666969    0.0016330    0.4456463    0.8545105    0.2668542
   0.0254357   -0.0681821    0.0046675    0.1894975    0.8677048    0.4595423
   0.0250829   -0.0685973    0.0054740    0.3208740    0.6112464    0.7234761
   0.0255422   -0.0690563    0.0054841    0.5941499    0.3293947    0.7338154
   0.0249232   -0.0675568    0.0034129    0.1519661    0.9188706    0.3641196
   0.0249652   -0.0677568    0.0039014    0.0777504    0.9109973    0.4050171
   0.0243838   -0.0670902    0.0027253    0.1182691    0.8535879    0.5073461
   0.0223385   -0.0712541    0.0057346   -0.5162516    0.6830534    0.5166452
   0.0219400   -0.0716061    0.0059084   -0.3760506    0.7289292    0.5720560
   0.0228334   -0.0711023    0.0060235   -0.6061616    0.6127857    0.5070126
