NORM_ASCII
3558 7126
3 183 147 220 
3 147 218 219 
3 221 148 149 
3 221 150 148 
3 149 155 222 
3 149 222 223 
3 149 224 221 
3 224 149 223 
3 185 150 221 
3 225 151 167 
3 151 225 226 
3 151 227 152 
3 227 151 226 
3 228 152 227 
3 154 153 152 
3 154 152 228 
3 228 229 154 
3 229 230 154 
3 154 230 155 
3 155 230 231 
3 231 222 155 
3 161 179 156 
3 156 232 233 
3 179 232 156 
3 234 156 233 
3 156 234 157 
3 235 157 234 
3 235 236 157 
3 236 158 157 
3 159 158 237 
3 237 158 236 
3 238 160 159 
3 237 238 159 
3 160 238 168 
3 163 170 166 
3 165 239 164 
3 164 225 167 
3 239 240 164 
3 164 240 241 
3 164 241 225 
3 166 239 165 
3 239 166 242 
3 166 243 242 
3 243 166 170 
3 168 244 245 
3 246 244 168 
3 168 238 246 
3 171 168 245 
3 169 168 171 
3 171 243 170 
3 171 245 247 
3 171 247 243 
3 173 172 176 
3 176 248 173 
3 173 248 174 
3 174 248 177 
3 175 249 250 
3 250 251 175 
3 175 180 249 
3 176 175 248 
3 175 251 248 
3 177 252 178 
3 177 253 252 
3 248 253 177 
3 178 252 254 
3 178 254 179 
3 179 254 232 
3 255 180 181 
3 255 249 180 
3 256 255 181 
3 181 257 256 
3 182 257 181 
3 183 258 182 
3 182 258 259 
3 182 259 257 
3 183 260 258 
3 220 260 183 
3 184 261 210 
3 261 184 185 
3 262 261 185 
3 185 221 262 
3 186 263 191 
3 187 264 186 
3 186 264 265 
3 186 265 263 
3 205 264 187 
3 198 188 266 
3 266 188 190 
3 190 189 267 
3 268 267 189 
3 194 268 189 
3 267 269 190 
3 190 270 266 
3 269 270 190 
3 191 263 192 
3 271 195 192 
3 192 272 271 
3 273 272 192 
3 263 274 192 
3 192 274 273 
3 193 275 194 
3 193 195 276 
3 277 275 193 
3 276 277 193 
3 275 268 194 
3 276 195 271 
3 196 278 197 
3 196 279 280 
3 196 198 279 
3 280 278 196 
3 197 278 200 
3 198 281 279 
3 266 281 198 
3 282 199 283 
3 199 282 284 
3 284 202 199 
3 199 200 283 
3 278 283 200 
3 201 285 217 
3 203 285 201 
3 202 284 286 
3 202 286 204 
3 287 285 203 
3 288 287 203 
3 203 204 288 
3 204 289 288 
3 289 204 286 
3 290 291 205 
3 291 264 205 
3 207 290 205 
3 207 206 290 
3 206 292 290 
3 209 292 206 
3 208 293 209 
3 294 295 208 
3 208 295 293 
3 210 294 208 
3 293 292 209 
3 261 294 210 
3 212 296 218 
3 212 297 298 
3 212 215 297 
3 298 296 212 
3 214 213 299 
3 299 213 216 
3 300 301 214 
3 214 302 300 
3 299 302 214 
3 214 301 215 
3 215 303 304 
3 215 301 303 
3 215 304 297 
3 217 299 216 
3 217 305 306 
3 217 306 307 
3 285 308 217 
3 307 299 217 
3 308 305 217 
3 309 219 218 
3 310 309 218 
3 218 311 312 
3 218 312 310 
3 296 311 218 
3 260 220 219 
3 219 309 260 
3 221 313 314 
3 314 315 221 
3 262 221 315 
3 313 221 224 
3 222 316 223 
3 231 316 222 
3 317 224 223 
3 223 316 318 
3 318 319 223 
3 223 319 317 
3 320 224 317 
3 224 321 313 
3 320 321 224 
3 322 225 241 
3 225 322 323 
3 226 225 323 
3 227 226 323 
3 323 324 227 
3 325 227 324 
3 228 227 325 
3 325 229 228 
3 325 326 229 
3 327 328 229 
3 230 229 328 
3 229 326 327 
3 230 328 231 
3 231 328 329 
3 329 316 231 
3 330 233 232 
3 232 331 330 
3 254 331 232 
3 332 233 330 
3 234 233 332 
3 332 333 234 
3 333 235 234 
3 235 333 334 
3 335 336 235 
3 335 235 334 
3 235 336 236 
3 236 238 237 
3 336 238 236 
3 238 337 246 
3 336 337 238 
3 239 338 240 
3 338 239 242 
3 240 339 340 
3 341 339 240 
3 340 342 240 
3 240 338 341 
3 240 342 343 
3 241 240 343 
3 241 343 344 
3 344 345 241 
3 241 345 322 
3 242 346 338 
3 243 346 242 
3 247 346 243 
3 244 347 245 
3 244 348 347 
3 349 348 244 
3 246 349 244 
3 245 347 350 
3 247 245 350 
3 337 349 246 
3 247 351 352 
3 350 351 247 
3 346 247 352 
3 248 251 253 
3 249 255 250 
3 250 255 353 
3 250 353 354 
3 251 250 354 
3 251 354 253 
3 252 355 254 
3 252 356 355 
3 253 356 252 
3 253 354 356 
3 254 355 331 
3 255 256 357 
3 255 357 353 
3 257 358 256 
3 256 358 357 
3 359 358 257 
3 257 259 359 
3 258 260 360 
3 360 259 258 
3 359 259 361 
3 360 361 259 
3 360 260 309 
3 261 362 294 
3 363 362 261 
3 261 262 363 
3 315 364 262 
3 262 364 363 
3 274 263 265 
3 265 264 365 
3 264 366 365 
3 291 366 264 
3 265 365 274 
3 270 281 266 
3 367 267 368 
3 269 267 367 
3 368 267 268 
3 369 268 275 
3 368 268 369 
3 269 370 270 
3 367 370 269 
3 270 371 281 
3 270 370 371 
3 276 271 372 
3 372 271 272 
3 272 373 372 
3 374 373 272 
3 273 374 272 
3 374 273 375 
3 273 365 375 
3 274 365 273 
3 372 275 277 
3 369 275 372 
3 277 276 372 
3 278 280 283 
3 376 280 279 
3 281 377 279 
3 279 377 378 
3 378 376 279 
3 283 280 379 
3 379 280 380 
3 380 280 376 
3 281 371 377 
3 381 282 283 
3 284 282 382 
3 382 282 383 
3 282 381 383 
3 283 379 381 
3 382 286 284 
3 285 384 308 
3 287 384 285 
3 289 286 385 
3 286 382 385 
3 386 384 287 
3 288 386 287 
3 387 288 289 
3 387 386 288 
3 387 289 388 
3 385 388 289 
3 389 291 290 
3 290 292 389 
3 291 390 366 
3 389 390 291 
3 391 389 292 
3 293 392 292 
3 391 292 392 
3 293 295 392 
3 294 393 295 
3 362 393 294 
3 393 394 295 
3 295 394 395 
3 295 395 392 
3 296 396 311 
3 298 396 296 
3 297 304 298 
3 396 298 397 
3 304 398 298 
3 298 398 399 
3 298 399 397 
3 400 302 299 
3 401 400 299 
3 307 401 299 
3 300 303 301 
3 402 300 403 
3 300 402 303 
3 302 403 300 
3 404 403 302 
3 400 404 302 
3 303 402 304 
3 398 304 402 
3 305 405 306 
3 305 406 405 
3 308 406 305 
3 307 306 405 
3 407 401 307 
3 307 408 407 
3 405 408 307 
3 409 308 384 
3 308 409 406 
3 309 410 360 
3 410 309 310 
3 411 410 310 
3 412 310 312 
3 411 310 412 
3 312 311 413 
3 311 396 413 
3 312 413 412 
3 313 414 314 
3 321 414 313 
3 314 414 415 
3 314 416 315 
3 415 416 314 
3 417 418 315 
3 315 416 417 
3 364 315 419 
3 315 418 420 
3 315 420 419 
3 316 421 318 
3 422 421 316 
3 422 316 329 
3 423 320 317 
3 317 319 424 
3 423 317 424 
3 425 319 318 
3 318 421 425 
3 319 425 424 
3 426 320 423 
3 320 426 427 
3 320 427 414 
3 320 414 321 
3 322 345 428 
3 322 429 430 
3 430 323 322 
3 322 428 429 
3 430 324 323 
3 324 430 431 
3 432 433 324 
3 324 433 325 
3 432 324 431 
3 325 433 326 
3 326 434 327 
3 435 326 433 
3 326 436 434 
3 435 436 326 
3 328 327 422 
3 327 434 422 
3 329 328 422 
3 330 437 438 
3 332 330 438 
3 437 330 331 
3 331 439 437 
3 355 439 331 
3 438 333 332 
3 334 333 438 
3 438 335 334 
3 335 440 337 
3 337 336 335 
3 438 441 335 
3 440 335 441 
3 337 440 349 
3 442 338 443 
3 346 352 338 
3 338 352 444 
3 338 444 443 
3 338 442 341 
3 340 339 445 
3 446 447 339 
3 448 446 339 
3 339 447 445 
3 339 341 448 
3 449 340 450 
3 340 445 451 
3 340 451 450 
3 340 449 342 
3 341 442 448 
3 343 342 449 
3 452 343 449 
3 344 343 452 
3 452 453 344 
3 428 345 344 
3 454 428 344 
3 454 344 453 
3 347 455 350 
3 348 455 347 
3 348 456 457 
3 349 440 348 
3 348 440 458 
3 348 458 456 
3 457 459 348 
3 459 455 348 
3 350 455 351 
3 352 351 444 
3 351 455 460 
3 444 351 460 
3 353 357 461 
3 353 461 462 
3 354 353 462 
3 354 462 356 
3 439 355 356 
3 356 462 439 
3 357 358 463 
3 357 463 461 
3 464 358 359 
3 358 464 463 
3 359 361 464 
3 465 360 466 
3 361 360 465 
3 360 410 466 
3 361 465 464 
3 467 393 362 
3 363 467 362 
3 364 467 363 
3 364 468 467 
3 419 468 364 
3 365 469 375 
3 365 366 469 
3 366 470 469 
3 390 470 366 
3 368 471 367 
3 367 471 472 
3 367 472 370 
3 368 473 471 
3 368 474 473 
3 474 368 369 
3 372 474 369 
3 370 475 371 
3 476 475 370 
3 477 370 472 
3 476 370 477 
3 377 371 475 
3 373 474 372 
3 373 478 474 
3 373 479 478 
3 374 479 373 
3 375 479 374 
3 479 375 480 
3 375 469 480 
3 481 380 376 
3 481 376 482 
3 376 378 482 
3 483 378 377 
3 475 483 377 
3 482 378 484 
3 484 378 483 
3 379 485 381 
3 486 485 379 
3 380 486 379 
3 487 486 380 
3 487 380 481 
3 383 381 485 
3 382 383 385 
3 383 488 489 
3 385 383 489 
3 383 485 488 
3 409 384 386 
3 385 490 388 
3 385 489 490 
3 387 409 386 
3 491 387 492 
3 491 409 387 
3 493 494 387 
3 494 492 387 
3 388 493 387 
3 493 388 490 
3 391 390 389 
3 391 470 390 
3 470 391 495 
3 391 392 395 
3 395 394 391 
3 495 391 496 
3 394 496 391 
3 497 394 393 
3 497 393 467 
3 498 394 499 
3 394 500 496 
3 498 500 394 
3 501 499 394 
3 501 394 497 
3 413 396 502 
3 397 503 396 
3 396 503 502 
3 397 399 503 
3 398 504 399 
3 398 402 505 
3 505 504 398 
3 506 399 504 
3 399 506 503 
3 400 507 404 
3 507 400 508 
3 400 407 509 
3 509 508 400 
3 401 407 400 
3 402 403 510 
3 510 505 402 
3 404 510 403 
3 510 404 507 
3 405 406 511 
3 511 408 405 
3 409 512 406 
3 511 406 512 
3 408 509 407 
3 513 509 408 
3 511 513 408 
3 409 491 512 
3 514 466 410 
3 410 411 514 
3 515 516 411 
3 514 411 516 
3 411 517 515 
3 517 411 412 
3 412 518 517 
3 413 519 412 
3 412 519 518 
3 502 519 413 
3 415 414 427 
3 427 416 415 
3 427 417 416 
3 417 520 418 
3 426 520 417 
3 417 427 426 
3 418 521 522 
3 418 522 420 
3 418 520 521 
3 419 420 468 
3 420 522 523 
3 468 420 523 
3 422 434 421 
3 421 434 436 
3 436 425 421 
3 424 524 423 
3 423 525 426 
3 423 524 526 
3 423 527 525 
3 423 526 528 
3 529 423 528 
3 527 423 529 
3 435 424 425 
3 524 424 435 
3 425 436 435 
3 426 525 530 
3 530 520 426 
3 428 454 531 
3 531 429 428 
3 431 430 429 
3 429 531 532 
3 431 429 532 
3 432 431 533 
3 534 431 535 
3 532 535 431 
3 533 431 534 
3 524 433 432 
3 526 432 533 
3 432 526 524 
3 435 433 524 
3 438 437 536 
3 537 437 439 
3 536 437 537 
3 438 536 538 
3 538 441 438 
3 439 462 461 
3 461 537 439 
3 458 440 441 
3 458 441 538 
3 443 539 442 
3 448 442 540 
3 539 540 442 
3 444 539 443 
3 444 541 539 
3 460 541 444 
3 542 451 445 
3 542 445 543 
3 445 447 543 
3 446 544 447 
3 544 446 545 
3 446 546 547 
3 446 547 545 
3 540 546 446 
3 540 446 448 
3 548 543 447 
3 548 447 544 
3 449 450 549 
3 449 549 452 
3 451 550 450 
3 450 550 549 
3 551 451 542 
3 551 550 451 
3 549 552 452 
3 452 552 553 
3 553 453 452 
3 453 554 454 
3 555 554 453 
3 453 553 556 
3 453 556 555 
3 554 557 454 
3 454 558 531 
3 454 557 558 
3 455 459 559 
3 460 455 560 
3 456 561 457 
3 456 562 561 
3 458 562 456 
3 459 457 563 
3 564 457 561 
3 457 564 565 
3 565 563 457 
3 562 458 566 
3 458 538 566 
3 567 568 459 
3 568 559 459 
3 563 567 459 
3 460 569 541 
3 560 569 460 
3 461 463 570 
3 537 461 570 
3 463 464 571 
3 571 570 463 
3 464 465 571 
3 572 465 466 
3 572 571 465 
3 466 514 572 
3 573 497 467 
3 467 574 573 
3 574 468 575 
3 468 523 575 
3 576 469 470 
3 469 576 480 
3 495 577 470 
3 470 577 576 
3 471 578 472 
3 578 471 473 
3 472 579 477 
3 578 579 472 
3 473 580 578 
3 473 581 580 
3 474 581 473 
3 474 478 581 
3 582 483 475 
3 476 582 475 
3 583 584 476 
3 583 476 477 
3 584 582 476 
3 583 477 585 
3 477 579 585 
3 478 586 581 
3 587 586 478 
3 479 587 478 
3 480 588 479 
3 588 587 479 
3 589 480 576 
3 589 588 480 
3 481 590 487 
3 591 590 481 
3 484 591 481 
3 481 482 484 
3 582 484 483 
3 484 592 591 
3 593 592 484 
3 593 484 582 
3 594 488 485 
3 485 595 594 
3 486 596 485 
3 485 596 595 
3 487 596 486 
3 590 596 487 
3 597 489 488 
3 488 594 598 
3 488 598 597 
3 597 490 489 
3 493 490 597 
3 491 492 599 
3 600 512 491 
3 491 599 600 
3 601 599 492 
3 602 492 494 
3 602 601 492 
3 494 493 602 
3 603 602 493 
3 603 493 597 
3 496 604 495 
3 495 604 605 
3 495 605 577 
3 500 606 496 
3 606 607 496 
3 496 607 604 
3 497 608 501 
3 497 573 608 
3 609 498 499 
3 609 610 498 
3 498 610 611 
3 606 498 611 
3 500 498 606 
3 499 612 609 
3 613 612 499 
3 613 499 614 
3 501 614 499 
3 501 608 615 
3 501 615 614 
3 502 616 518 
3 518 519 502 
3 503 616 502 
3 503 506 616 
3 617 504 505 
3 506 504 617 
3 618 505 510 
3 505 619 617 
3 618 619 505 
3 620 616 506 
3 617 621 506 
3 621 620 506 
3 510 507 622 
3 622 507 508 
3 508 623 624 
3 624 622 508 
3 625 623 508 
3 625 508 509 
3 625 509 513 
3 622 618 510 
3 600 625 511 
3 625 513 511 
3 600 511 512 
3 514 626 572 
3 514 516 626 
3 627 516 515 
3 515 517 628 
3 629 515 628 
3 515 629 627 
3 630 516 627 
3 516 630 626 
3 518 628 517 
3 518 631 628 
3 616 632 518 
3 632 631 518 
3 520 633 521 
3 633 520 530 
3 522 521 634 
3 634 521 635 
3 635 521 633 
3 522 634 636 
3 636 637 522 
3 638 522 637 
3 638 523 522 
3 575 523 638 
3 639 530 525 
3 525 527 639 
3 526 533 528 
3 527 640 639 
3 529 640 527 
3 528 533 534 
3 534 641 528 
3 528 642 529 
3 643 528 641 
3 528 643 642 
3 529 642 640 
3 530 644 633 
3 530 639 644 
3 645 531 558 
3 532 531 645 
3 646 641 532 
3 535 532 641 
3 532 645 646 
3 641 534 535 
3 566 536 647 
3 566 538 536 
3 536 537 647 
3 648 647 537 
3 649 650 537 
3 537 571 649 
3 537 650 648 
3 537 570 571 
3 541 540 539 
3 651 546 540 
3 541 651 540 
3 569 651 541 
3 551 542 652 
3 543 653 542 
3 653 652 542 
3 543 654 653 
3 548 654 543 
3 544 655 548 
3 545 655 544 
3 547 655 545 
3 546 656 547 
3 651 656 546 
3 547 657 655 
3 658 657 547 
3 547 656 658 
3 659 654 548 
3 655 659 548 
3 549 660 552 
3 550 660 549 
3 661 660 550 
3 550 551 662 
3 550 662 661 
3 652 663 551 
3 551 664 662 
3 663 664 551 
3 665 552 666 
3 665 667 552 
3 667 553 552 
3 552 660 666 
3 667 556 553 
3 554 668 669 
3 554 555 668 
3 554 669 557 
3 555 670 671 
3 555 556 670 
3 671 668 555 
3 556 667 672 
3 673 670 556 
3 556 672 673 
3 557 674 558 
3 674 557 669 
3 558 675 645 
3 558 674 675 
3 559 676 677 
3 559 568 678 
3 559 678 676 
3 560 679 569 
3 680 679 560 
3 560 677 680 
3 681 561 562 
3 682 561 681 
3 561 682 564 
3 681 562 683 
3 683 562 566 
3 684 685 563 
3 563 686 684 
3 565 686 563 
3 567 563 685 
3 564 682 687 
3 688 564 687 
3 564 688 689 
3 689 565 564 
3 686 565 689 
3 566 647 683 
3 568 567 690 
3 567 685 690 
3 691 678 568 
3 691 568 690 
3 569 692 651 
3 679 692 569 
3 572 649 571 
3 693 649 572 
3 694 693 572 
3 694 572 626 
3 573 695 608 
3 695 573 696 
3 573 697 696 
3 697 573 574 
3 575 698 574 
3 574 699 697 
3 698 699 574 
3 700 698 575 
3 575 701 700 
3 702 703 575 
3 575 638 702 
3 575 703 701 
3 576 577 589 
3 704 577 605 
3 577 705 589 
3 704 705 577 
3 578 580 579 
3 580 585 579 
3 706 585 580 
3 586 706 580 
3 580 581 586 
3 584 593 582 
3 583 707 584 
3 585 706 583 
3 708 707 583 
3 709 583 710 
3 708 583 709 
3 706 710 583 
3 584 711 593 
3 707 711 584 
3 712 706 586 
3 587 712 586 
3 713 712 587 
3 588 713 587 
3 589 713 588 
3 589 714 713 
3 705 714 589 
3 596 590 715 
3 715 590 716 
3 590 591 716 
3 716 591 717 
3 717 591 592 
3 592 718 717 
3 718 592 719 
3 711 719 592 
3 711 592 593 
3 720 598 594 
3 595 715 594 
3 715 721 594 
3 594 721 720 
3 595 596 715 
3 597 598 603 
3 720 603 598 
3 599 722 600 
3 599 723 722 
3 601 724 599 
3 723 599 724 
3 725 625 600 
3 600 726 727 
3 727 725 600 
3 728 729 600 
3 729 726 600 
3 600 722 730 
3 730 728 600 
3 731 601 602 
3 724 601 731 
3 731 602 732 
3 732 602 603 
3 603 733 734 
3 734 732 603 
3 733 603 720 
3 604 607 605 
3 605 607 735 
3 605 736 704 
3 735 736 605 
3 606 737 607 
3 611 737 606 
3 607 737 735 
3 608 695 615 
3 738 609 739 
3 609 740 739 
3 609 612 740 
3 609 741 610 
3 738 741 609 
3 610 741 742 
3 611 610 742 
3 611 743 737 
3 742 743 611 
3 740 612 613 
3 613 744 740 
3 613 614 615 
3 615 744 613 
3 745 744 615 
3 745 615 695 
3 620 632 616 
3 746 621 617 
3 747 746 617 
3 617 619 747 
3 619 618 622 
3 619 748 747 
3 624 619 622 
3 748 619 624 
3 621 632 620 
3 749 632 621 
3 750 751 621 
3 752 621 746 
3 621 752 750 
3 621 751 753 
3 753 749 621 
3 754 624 623 
3 725 623 625 
3 754 623 725 
3 624 754 748 
3 626 630 694 
3 755 756 627 
3 757 627 756 
3 627 629 758 
3 627 757 630 
3 627 758 755 
3 628 631 629 
3 631 758 629 
3 759 694 630 
3 757 759 630 
3 760 761 631 
3 632 749 631 
3 760 631 762 
3 631 749 762 
3 761 758 631 
3 633 763 635 
3 644 763 633 
3 634 635 636 
3 764 636 635 
3 764 635 765 
3 635 763 765 
3 636 764 766 
3 637 636 766 
3 702 638 637 
3 767 702 637 
3 768 767 637 
3 637 766 768 
3 639 769 644 
3 769 639 640 
3 769 640 642 
3 641 770 771 
3 641 771 772 
3 641 646 770 
3 643 641 772 
3 642 643 773 
3 642 773 769 
3 774 773 643 
3 643 775 774 
3 772 775 643 
3 769 776 644 
3 777 778 644 
3 777 644 776 
3 778 779 644 
3 644 779 763 
3 675 780 645 
3 646 645 780 
3 770 646 781 
3 646 780 781 
3 648 683 647 
3 681 683 648 
3 648 782 681 
3 782 648 650 
3 650 649 783 
3 649 693 783 
3 783 784 650 
3 784 785 650 
3 785 786 650 
3 787 782 650 
3 787 650 786 
3 692 656 651 
3 788 663 652 
3 789 652 790 
3 652 653 790 
3 789 788 652 
3 653 654 791 
3 653 791 790 
3 791 654 792 
3 654 659 793 
3 654 793 792 
3 659 655 657 
3 658 656 794 
3 656 795 794 
3 796 656 692 
3 795 656 796 
3 657 797 659 
3 794 797 657 
3 794 657 658 
3 798 799 659 
3 659 799 793 
3 659 797 798 
3 661 666 660 
3 662 800 661 
3 666 661 801 
3 801 661 800 
3 664 800 662 
3 802 803 663 
3 803 804 663 
3 663 804 664 
3 802 663 788 
3 664 804 800 
3 666 801 665 
3 805 806 665 
3 665 807 805 
3 665 801 807 
3 665 808 667 
3 806 808 665 
3 809 810 667 
3 667 808 809 
3 672 667 810 
3 669 668 811 
3 668 671 812 
3 812 811 668 
3 811 813 669 
3 669 813 814 
3 669 814 674 
3 671 670 815 
3 810 816 670 
3 673 810 670 
3 815 670 816 
3 815 812 671 
3 673 672 810 
3 674 817 675 
3 674 818 817 
3 818 674 814 
3 675 817 819 
3 780 675 819 
3 820 677 676 
3 820 676 821 
3 676 678 821 
3 822 677 820 
3 823 677 822 
3 680 677 823 
3 821 678 824 
3 824 678 691 
3 825 692 679 
3 825 679 680 
3 680 823 825 
3 782 826 681 
3 682 681 826 
3 782 827 682 
3 682 826 782 
3 827 687 682 
3 684 828 685 
3 684 686 829 
3 829 828 684 
3 828 830 685 
3 685 830 831 
3 831 832 685 
3 685 832 690 
3 833 686 689 
3 829 686 833 
3 834 687 827 
3 835 687 834 
3 687 835 688 
3 836 837 688 
3 688 838 836 
3 688 835 838 
3 839 688 840 
3 688 837 840 
3 688 839 689 
3 689 839 841 
3 833 689 842 
3 842 689 841 
3 690 843 691 
3 843 690 844 
3 845 690 832 
3 690 845 844 
3 843 824 691 
3 796 692 825 
3 693 694 846 
3 693 846 847 
3 783 693 847 
3 694 759 846 
3 745 695 696 
3 696 848 745 
3 849 848 696 
3 696 697 849 
3 849 697 850 
3 850 697 699 
3 700 699 698 
3 851 850 699 
3 699 852 853 
3 700 852 699 
3 851 699 853 
3 701 854 700 
3 700 854 852 
3 701 855 854 
3 856 855 701 
3 701 857 856 
3 703 857 701 
3 702 857 703 
3 857 702 767 
3 704 858 705 
3 736 858 704 
3 705 859 714 
3 858 859 705 
3 706 712 860 
3 706 860 710 
3 861 711 707 
3 862 707 708 
3 861 707 862 
3 708 709 863 
3 708 863 864 
3 862 708 864 
3 865 709 710 
3 709 865 863 
3 860 866 710 
3 866 865 710 
3 867 868 711 
3 711 861 867 
3 868 719 711 
3 713 860 712 
3 714 860 713 
3 714 866 860 
3 859 866 714 
3 715 869 721 
3 716 869 715 
3 716 718 869 
3 717 718 716 
3 719 870 718 
3 718 870 871 
3 718 871 872 
3 873 718 872 
3 873 869 718 
3 868 870 719 
3 720 721 733 
3 733 721 874 
3 721 869 874 
3 875 722 876 
3 875 877 722 
3 730 722 877 
3 723 876 722 
3 723 878 879 
3 723 879 876 
3 878 723 724 
3 878 724 880 
3 881 880 724 
3 881 724 731 
3 725 727 754 
3 726 882 727 
3 882 726 883 
3 883 726 729 
3 882 754 727 
3 884 729 728 
3 877 728 730 
3 884 728 885 
3 885 728 877 
3 886 729 887 
3 729 888 883 
3 886 888 729 
3 884 887 729 
3 889 731 890 
3 734 890 731 
3 889 881 731 
3 731 732 734 
3 891 734 733 
3 733 874 891 
3 734 891 890 
3 735 737 892 
3 735 893 736 
3 892 893 735 
3 736 894 858 
3 893 894 736 
3 737 743 892 
3 738 739 895 
3 895 741 738 
3 895 739 896 
3 896 739 897 
3 898 739 899 
3 897 739 898 
3 740 899 739 
3 900 899 740 
3 744 901 740 
3 740 901 900 
3 902 903 741 
3 902 741 895 
3 742 741 903 
3 742 904 743 
3 903 904 742 
3 904 905 743 
3 743 905 906 
3 743 906 907 
3 892 743 907 
3 901 744 745 
3 848 901 745 
3 752 746 747 
3 752 747 748 
3 752 748 754 
3 749 753 762 
3 908 751 750 
3 750 752 909 
3 750 909 910 
3 910 908 750 
3 751 911 762 
3 751 762 753 
3 751 908 912 
3 912 911 751 
3 910 909 752 
3 754 913 752 
3 910 752 914 
3 913 914 752 
3 915 754 916 
3 917 913 754 
3 915 917 754 
3 888 754 882 
3 916 754 888 
3 918 756 755 
3 755 919 918 
3 920 755 761 
3 755 758 761 
3 920 919 755 
3 757 756 921 
3 756 918 921 
3 922 923 757 
3 921 922 757 
3 757 923 759 
3 759 923 924 
3 846 759 924 
3 761 760 925 
3 760 926 927 
3 762 926 760 
3 760 927 925 
3 761 925 920 
3 762 911 926 
3 779 765 763 
3 766 764 928 
3 929 928 764 
3 765 929 764 
3 765 930 929 
3 765 931 930 
3 779 931 765 
3 932 933 766 
3 766 933 934 
3 768 766 934 
3 766 928 932 
3 767 935 857 
3 936 767 937 
3 937 767 768 
3 767 936 935 
3 768 934 937 
3 769 938 776 
3 773 938 769 
3 770 939 771 
3 939 770 781 
3 771 939 940 
3 940 941 771 
3 941 942 771 
3 772 771 942 
3 772 942 775 
3 938 773 774 
3 943 774 775 
3 944 938 774 
3 943 945 774 
3 774 945 944 
3 946 947 775 
3 947 943 775 
3 775 942 946 
3 948 776 938 
3 776 948 777 
3 778 777 931 
3 777 949 931 
3 948 949 777 
3 778 931 779 
3 780 819 950 
3 780 950 951 
3 952 780 951 
3 781 780 952 
3 939 781 953 
3 781 952 954 
3 953 781 954 
3 782 955 827 
3 787 955 782 
3 847 784 783 
3 956 784 847 
3 784 956 785 
3 785 957 786 
3 785 956 958 
3 785 958 957 
3 786 957 959 
3 786 959 787 
3 787 959 960 
3 787 960 955 
3 788 961 802 
3 788 789 961 
3 962 789 790 
3 962 963 789 
3 789 963 964 
3 789 964 961 
3 790 965 962 
3 791 965 790 
3 791 792 965 
3 792 966 965 
3 793 966 792 
3 793 967 966 
3 968 967 793 
3 793 799 968 
3 794 969 797 
3 794 795 969 
3 795 970 969 
3 971 970 795 
3 796 972 795 
3 795 972 973 
3 795 973 971 
3 825 972 796 
3 974 798 797 
3 797 975 974 
3 976 975 797 
3 797 969 976 
3 798 977 799 
3 978 798 974 
3 979 977 798 
3 798 978 979 
3 977 980 799 
3 799 980 981 
3 799 981 968 
3 800 807 801 
3 807 800 982 
3 800 804 983 
3 800 983 982 
3 802 984 803 
3 802 961 985 
3 802 985 986 
3 986 987 802 
3 802 987 984 
3 804 803 988 
3 988 803 989 
3 803 984 989 
3 983 804 988 
3 805 990 806 
3 991 990 805 
3 992 991 805 
3 992 805 993 
3 807 993 805 
3 994 806 990 
3 806 994 808 
3 982 993 807 
3 808 994 995 
3 808 995 809 
3 810 809 996 
3 995 996 809 
3 996 997 810 
3 816 810 997 
3 998 813 811 
3 815 998 811 
3 811 812 815 
3 999 813 1000 
3 998 1000 813 
3 999 814 813 
3 1001 814 1002 
3 814 1001 818 
3 1002 814 999 
3 815 1003 1004 
3 815 1004 1005 
3 1005 1006 815 
3 1007 815 1006 
3 816 1003 815 
3 815 1007 998 
3 1003 816 997 
3 818 819 817 
3 819 818 1008 
3 818 1001 1008 
3 819 1008 950 
3 821 1009 820 
3 1009 1010 820 
3 820 1010 822 
3 1009 821 1011 
3 824 1012 821 
3 821 1012 1013 
3 821 1013 1011 
3 823 822 825 
3 822 972 825 
3 972 822 1014 
3 1014 822 1010 
3 1012 824 843 
3 955 834 827 
3 842 828 1015 
3 830 828 842 
3 1015 828 829 
3 833 1015 829 
3 842 1016 830 
3 831 830 1017 
3 1017 830 1016 
3 1017 832 831 
3 832 1017 1018 
3 1019 845 832 
3 1018 1019 832 
3 1015 833 842 
3 1020 834 955 
3 835 834 1021 
3 1021 834 1020 
3 1014 835 1021 
3 1014 838 835 
3 836 1022 837 
3 1023 836 838 
3 1023 1022 836 
3 1022 1024 837 
3 837 1024 840 
3 1010 838 1014 
3 1010 1023 838 
3 840 1025 839 
3 839 1025 841 
3 840 1024 1026 
3 840 1027 1028 
3 1026 1027 840 
3 1028 1025 840 
3 841 1025 1029 
3 841 1029 842 
3 1030 1016 842 
3 842 1029 1031 
3 842 1031 1030 
3 843 1032 1012 
3 1033 1032 843 
3 1033 843 1034 
3 1035 1034 843 
3 844 1035 843 
3 844 1036 1037 
3 844 845 1036 
3 1037 1035 844 
3 1036 845 1019 
3 846 924 847 
3 847 1038 956 
3 847 924 1039 
3 1039 1038 847 
3 848 1040 901 
3 1041 1040 848 
3 1042 1041 848 
3 1042 848 849 
3 1042 849 1043 
3 850 1043 849 
3 1043 850 1044 
3 1044 850 851 
3 851 853 1045 
3 1046 1044 851 
3 1045 1046 851 
3 852 1047 853 
3 852 855 1047 
3 854 855 852 
3 1045 853 1048 
3 1048 853 1049 
3 853 1047 1049 
3 1050 855 856 
3 1050 1051 855 
3 1051 1052 855 
3 855 1052 1047 
3 856 857 1050 
3 857 935 1050 
3 858 1053 859 
3 894 1053 858 
3 859 1054 866 
3 1053 1054 859 
3 1055 867 861 
3 862 1055 861 
3 1056 1055 862 
3 864 1056 862 
3 863 1057 1058 
3 1059 1057 863 
3 863 1058 864 
3 1060 1061 863 
3 1061 1062 863 
3 863 1062 1059 
3 863 865 1060 
3 1063 1056 864 
3 1064 1063 864 
3 864 1058 1064 
3 1054 865 866 
3 1054 1060 865 
3 867 1065 868 
3 1055 1065 867 
3 868 1065 1066 
3 1066 870 868 
3 873 874 869 
3 1067 871 870 
3 870 1068 1069 
3 1069 1067 870 
3 870 1066 1068 
3 871 1067 1070 
3 871 1070 1071 
3 1072 871 1071 
3 871 1072 872 
3 872 1072 873 
3 874 873 891 
3 873 890 891 
3 1073 890 873 
3 1072 1073 873 
3 875 876 1074 
3 877 875 1075 
3 1076 875 1077 
3 1076 1075 875 
3 875 1074 1077 
3 1074 876 879 
3 1075 885 877 
3 878 1078 879 
3 1079 1078 878 
3 878 880 1079 
3 879 1078 1074 
3 1080 880 1081 
3 1081 880 1082 
3 880 1083 1082 
3 1080 1079 880 
3 1083 880 881 
3 881 889 1084 
3 1085 1086 881 
3 1083 881 1087 
3 1086 1087 881 
3 881 1084 1085 
3 882 883 888 
3 1088 887 884 
3 1089 884 885 
3 1089 1088 884 
3 1089 885 1075 
3 886 887 1088 
3 888 886 1090 
3 1088 1090 886 
3 888 1091 916 
3 1092 1091 888 
3 1090 1092 888 
3 889 890 1073 
3 1084 889 1093 
3 1094 1095 889 
3 889 1095 1093 
3 1094 889 1073 
3 892 1096 893 
3 907 1096 892 
3 893 1097 894 
3 1096 1097 893 
3 894 1098 1053 
3 1097 1098 894 
3 902 895 896 
3 1099 896 1100 
3 896 897 1100 
3 902 896 1099 
3 1100 897 1101 
3 1101 897 898 
3 1102 898 899 
3 1103 1101 898 
3 1103 898 1102 
3 1102 899 900 
3 900 1104 1102 
3 900 901 1104 
3 1104 901 1040 
3 1105 903 902 
3 1099 1105 902 
3 903 1106 904 
3 1105 1106 903 
3 904 1107 905 
3 1106 1107 904 
3 1108 905 1107 
3 1109 905 1108 
3 1110 906 905 
3 1110 905 1109 
3 1111 906 1110 
3 1111 1112 906 
3 906 1112 907 
3 1112 1113 907 
3 907 1113 1096 
3 912 908 1114 
3 1115 1114 908 
3 1116 908 910 
3 1117 1115 908 
3 908 1116 1117 
3 910 914 1116 
3 926 911 1118 
3 911 912 1119 
3 1119 1118 911 
3 1120 912 1114 
3 1119 912 1120 
3 917 914 913 
3 1121 914 915 
3 1122 1116 914 
3 1121 1122 914 
3 915 914 917 
3 915 916 1091 
3 1091 1092 915 
3 1092 1123 915 
3 1124 1121 915 
3 915 1123 1124 
3 921 918 1125 
3 918 919 1126 
3 918 1126 1125 
3 920 1127 919 
3 1128 919 1127 
3 1129 919 1128 
3 1126 919 1129 
3 920 925 1127 
3 921 1125 922 
3 922 1130 923 
3 1131 922 1125 
3 922 1131 1130 
3 923 1130 1132 
3 924 923 1132 
3 924 1132 1039 
3 925 1133 1127 
3 925 927 1133 
3 926 1118 927 
3 1133 927 1134 
3 927 1118 1134 
3 929 932 928 
3 929 1135 932 
3 929 930 1136 
3 1137 1135 929 
3 929 1136 1137 
3 1136 930 1138 
3 931 1139 930 
3 930 1139 1140 
3 930 1140 1138 
3 931 949 1139 
3 933 932 1141 
3 1141 932 1135 
3 1142 933 1143 
3 1141 1143 933 
3 936 937 934 
3 935 1144 1050 
3 935 1145 1144 
3 1145 935 1146 
3 935 936 1142 
3 1142 1146 935 
3 938 944 1147 
3 1147 948 938 
3 939 953 940 
3 1148 941 940 
3 1149 940 953 
3 940 1150 1151 
3 1151 1152 940 
3 1153 1154 940 
3 1150 940 1149 
3 1155 1148 940 
3 940 1154 1155 
3 1153 940 1152 
3 941 1156 1157 
3 942 941 1157 
3 942 1157 946 
3 947 945 943 
3 1147 944 945 
3 947 1147 945 
3 1158 947 946 
3 946 1157 1158 
3 947 1158 1147 
3 948 1159 949 
3 1147 1159 948 
3 949 1159 1139 
3 1002 950 1008 
3 950 1002 951 
3 1160 951 1002 
3 951 1161 952 
3 1160 1161 951 
3 952 1162 954 
3 1161 1162 952 
3 953 954 1149 
3 954 1162 1163 
3 954 1163 1149 
3 955 960 1164 
3 955 1164 1165 
3 1165 1020 955 
3 956 1038 1166 
3 956 1166 958 
3 974 957 978 
3 974 959 957 
3 957 958 978 
3 958 1167 978 
3 958 1166 1167 
3 1168 959 974 
3 959 1168 960 
3 1169 960 1170 
3 960 1168 1170 
3 1169 1164 960 
3 961 964 1171 
3 985 961 1172 
3 961 1171 1172 
3 1173 1174 962 
3 962 965 1173 
3 1174 963 962 
3 1175 1176 963 
3 963 1174 1175 
3 963 1176 964 
3 964 1176 1177 
3 964 1177 1178 
3 1179 964 1178 
3 1171 964 1179 
3 965 1180 1173 
3 965 966 1180 
3 967 1180 966 
3 981 1181 967 
3 1181 1182 967 
3 967 1182 1180 
3 981 967 968 
3 969 970 976 
3 1183 976 970 
3 970 1184 1185 
3 1184 970 1164 
3 1164 970 971 
3 970 1185 1183 
3 973 1164 971 
3 972 1021 973 
3 1021 972 1014 
3 1165 1164 973 
3 973 1020 1165 
3 1021 1020 973 
3 974 975 1168 
3 1168 975 1170 
3 975 1186 1170 
3 975 1183 1186 
3 976 1183 975 
3 977 1187 980 
3 1188 1187 977 
3 979 1188 977 
3 978 1167 979 
3 1167 1188 979 
3 1189 1181 980 
3 1190 1189 980 
3 1187 1190 980 
3 981 980 1181 
3 983 993 982 
3 993 983 988 
3 989 984 1191 
3 1191 984 1192 
3 1192 984 987 
3 985 1172 1193 
3 1193 986 985 
3 1193 987 986 
3 987 1194 1192 
3 1195 1194 987 
3 987 1193 1195 
3 988 1196 1197 
3 988 1197 993 
3 989 1196 988 
3 1175 1196 989 
3 1198 1175 989 
3 1198 989 1191 
3 994 990 1199 
3 1200 1199 990 
3 990 991 1201 
3 1201 1200 990 
3 1202 1203 991 
3 991 1203 1204 
3 991 1204 1201 
3 1202 991 992 
3 1197 1202 992 
3 993 1197 992 
3 1199 995 994 
3 996 995 1205 
3 1205 995 1199 
3 996 1206 997 
3 1207 1208 996 
3 1205 1207 996 
3 996 1208 1206 
3 997 1206 1004 
3 1003 997 1004 
3 998 1209 1210 
3 1007 1209 998 
3 1210 1211 998 
3 1211 1000 998 
3 999 1000 1212 
3 999 1213 1002 
3 999 1212 1213 
3 1000 1211 1214 
3 1000 1214 1212 
3 1002 1008 1001 
3 1002 1213 1215 
3 1002 1215 1216 
3 1216 1160 1002 
3 1217 1004 1206 
3 1004 1217 1005 
3 1217 1218 1005 
3 1218 1006 1005 
3 1218 1219 1006 
3 1006 1209 1007 
3 1209 1006 1219 
3 1009 1011 1220 
3 1009 1220 1010 
3 1010 1220 1023 
3 1011 1221 1220 
3 1013 1221 1011 
3 1012 1032 1013 
3 1013 1032 1222 
3 1013 1223 1221 
3 1222 1223 1013 
3 1224 1016 1030 
3 1225 1016 1224 
3 1017 1016 1225 
3 1017 1226 1018 
3 1227 1017 1228 
3 1228 1017 1225 
3 1226 1017 1227 
3 1018 1226 1229 
3 1229 1019 1018 
3 1036 1019 1229 
3 1230 1024 1022 
3 1231 1022 1232 
3 1231 1230 1022 
3 1232 1022 1023 
3 1220 1232 1023 
3 1026 1024 1233 
3 1024 1230 1233 
3 1028 1234 1025 
3 1234 1235 1025 
3 1235 1236 1025 
3 1025 1236 1029 
3 1233 1237 1026 
3 1237 1238 1026 
3 1026 1238 1027 
3 1027 1234 1028 
3 1238 1234 1027 
3 1029 1236 1031 
3 1031 1236 1030 
3 1236 1239 1030 
3 1030 1239 1240 
3 1240 1224 1030 
3 1032 1241 1222 
3 1033 1241 1032 
3 1242 1241 1033 
3 1242 1033 1243 
3 1243 1033 1034 
3 1243 1034 1244 
3 1035 1244 1034 
3 1035 1245 1244 
3 1037 1245 1035 
3 1037 1036 1246 
3 1229 1246 1036 
3 1037 1247 1245 
3 1246 1248 1037 
3 1037 1249 1247 
3 1248 1249 1037 
3 1250 1038 1039 
3 1250 1166 1038 
3 1039 1132 1251 
3 1252 1039 1251 
3 1253 1039 1252 
3 1253 1250 1039 
3 1104 1040 1254 
3 1254 1040 1255 
3 1255 1040 1041 
3 1255 1041 1256 
3 1256 1041 1042 
3 1257 1042 1043 
3 1258 1259 1042 
3 1042 1257 1258 
3 1259 1256 1042 
3 1260 1257 1043 
3 1043 1261 1260 
3 1261 1043 1044 
3 1261 1044 1262 
3 1262 1044 1046 
3 1045 1263 1046 
3 1045 1264 1265 
3 1265 1266 1045 
3 1045 1266 1263 
3 1048 1264 1045 
3 1262 1046 1263 
3 1047 1267 1049 
3 1052 1267 1047 
3 1048 1268 1269 
3 1268 1048 1049 
3 1269 1264 1048 
3 1268 1049 1267 
3 1050 1144 1051 
3 1270 1052 1051 
3 1051 1144 1270 
3 1270 1271 1052 
3 1271 1272 1052 
3 1052 1272 1267 
3 1053 1273 1054 
3 1098 1273 1053 
3 1273 1060 1054 
3 1274 1065 1055 
3 1275 1274 1055 
3 1276 1055 1056 
3 1275 1055 1276 
3 1277 1056 1063 
3 1276 1056 1277 
3 1057 1278 1058 
3 1279 1057 1059 
3 1279 1278 1057 
3 1058 1278 1280 
3 1058 1280 1064 
3 1059 1281 1282 
3 1059 1062 1283 
3 1282 1284 1059 
3 1281 1059 1283 
3 1060 1273 1061 
3 1061 1273 1285 
3 1061 1286 1062 
3 1061 1287 1286 
3 1285 1287 1061 
3 1283 1062 1288 
3 1062 1286 1288 
3 1063 1064 1277 
3 1064 1280 1277 
3 1289 1066 1065 
3 1289 1065 1290 
3 1290 1065 1274 
3 1291 1068 1066 
3 1289 1291 1066 
3 1067 1069 1292 
3 1292 1070 1067 
3 1293 1069 1068 
3 1068 1291 1293 
3 1069 1293 1294 
3 1294 1295 1069 
3 1292 1069 1295 
3 1070 1296 1071 
3 1297 1070 1292 
3 1070 1298 1296 
3 1070 1299 1298 
3 1297 1299 1070 
3 1073 1071 1300 
3 1071 1073 1072 
3 1300 1071 1296 
3 1073 1300 1094 
3 1079 1080 1074 
3 1074 1078 1079 
3 1077 1074 1080 
3 1075 1301 1089 
3 1302 1301 1075 
3 1302 1075 1076 
3 1303 1076 1077 
3 1304 1302 1076 
3 1304 1076 1303 
3 1077 1080 1081 
3 1077 1081 1305 
3 1303 1077 1306 
3 1077 1305 1306 
3 1307 1308 1081 
3 1082 1307 1081 
3 1309 1305 1081 
3 1309 1081 1308 
3 1082 1087 1307 
3 1082 1083 1087 
3 1310 1085 1084 
3 1311 1084 1093 
3 1085 1310 1086 
3 1087 1086 1312 
3 1313 1312 1086 
3 1310 1314 1086 
3 1086 1314 1313 
3 1087 1312 1315 
3 1307 1087 1315 
3 1316 1317 1088 
3 1316 1088 1089 
3 1090 1088 1317 
3 1316 1089 1318 
3 1301 1318 1089 
3 1319 1092 1090 
3 1320 1319 1090 
3 1321 1322 1090 
3 1322 1320 1090 
3 1090 1317 1321 
3 1319 1123 1092 
3 1323 1311 1093 
3 1323 1093 1324 
3 1324 1093 1325 
3 1325 1093 1095 
3 1300 1095 1094 
3 1300 1325 1095 
3 1096 1326 1097 
3 1113 1326 1096 
3 1097 1326 1098 
3 1285 1098 1327 
3 1273 1098 1285 
3 1098 1326 1328 
3 1328 1327 1098 
3 1099 1100 1329 
3 1330 1099 1329 
3 1099 1330 1331 
3 1331 1105 1099 
3 1332 1333 1100 
3 1334 1100 1101 
3 1332 1100 1334 
3 1100 1333 1329 
3 1334 1101 1103 
3 1102 1335 1103 
3 1336 1335 1102 
3 1102 1104 1337 
3 1102 1337 1336 
3 1103 1335 1334 
3 1337 1104 1338 
3 1338 1104 1254 
3 1331 1106 1105 
3 1331 1107 1106 
3 1108 1107 1330 
3 1330 1107 1331 
3 1330 1339 1108 
3 1108 1339 1109 
3 1110 1109 1340 
3 1109 1341 1340 
3 1109 1339 1341 
3 1340 1342 1110 
3 1343 1110 1342 
3 1110 1280 1111 
3 1343 1280 1110 
3 1280 1344 1111 
3 1344 1112 1111 
3 1345 1112 1346 
3 1346 1112 1344 
3 1113 1112 1345 
3 1345 1326 1113 
3 1114 1347 1120 
3 1115 1348 1114 
3 1114 1348 1347 
3 1115 1349 1348 
3 1349 1115 1117 
3 1117 1116 1124 
3 1122 1124 1116 
3 1349 1117 1350 
3 1124 1350 1117 
3 1118 1119 1134 
3 1134 1119 1351 
3 1119 1120 1351 
3 1352 1353 1120 
3 1353 1351 1120 
3 1352 1120 1347 
3 1121 1124 1122 
3 1124 1123 1354 
3 1354 1123 1355 
3 1123 1319 1356 
3 1356 1355 1123 
3 1357 1358 1124 
3 1124 1358 1350 
3 1354 1357 1124 
3 1125 1359 1360 
3 1125 1126 1359 
3 1125 1360 1131 
3 1359 1126 1129 
3 1127 1133 1134 
3 1134 1361 1127 
3 1127 1361 1362 
3 1127 1362 1128 
3 1363 1364 1128 
3 1364 1129 1128 
3 1128 1362 1363 
3 1359 1129 1360 
3 1129 1364 1360 
3 1132 1130 1365 
3 1130 1131 1365 
3 1131 1360 1366 
3 1131 1366 1367 
3 1365 1131 1367 
3 1132 1365 1251 
3 1351 1361 1134 
3 1135 1368 1141 
3 1137 1368 1135 
3 1369 1136 1370 
3 1136 1371 1370 
3 1138 1371 1136 
3 1137 1369 1372 
3 1372 1368 1137 
3 1140 1371 1138 
3 1373 1374 1139 
3 1140 1139 1374 
3 1139 1159 1373 
3 1140 1374 1371 
3 1141 1375 1143 
3 1141 1372 1375 
3 1141 1368 1372 
3 1142 1143 1376 
3 1146 1142 1376 
3 1143 1375 1376 
3 1377 1144 1145 
3 1144 1377 1270 
3 1146 1377 1145 
3 1376 1378 1146 
3 1379 1377 1146 
3 1146 1378 1379 
3 1158 1380 1147 
3 1380 1159 1147 
3 1381 1156 1148 
3 1148 1382 1381 
3 1148 1155 1382 
3 1149 1383 1150 
3 1149 1163 1384 
3 1149 1384 1385 
3 1385 1383 1149 
3 1386 1151 1150 
3 1383 1386 1150 
3 1386 1152 1151 
3 1387 1152 1383 
3 1152 1386 1383 
3 1152 1388 1153 
3 1388 1152 1389 
3 1389 1152 1387 
3 1153 1390 1154 
3 1390 1153 1391 
3 1153 1388 1391 
3 1392 1154 1393 
3 1154 1390 1394 
3 1394 1393 1154 
3 1381 1382 1155 
3 1157 1156 1395 
3 1396 1156 1397 
3 1398 1156 1396 
3 1395 1156 1398 
3 1399 1397 1156 
3 1381 1399 1156 
3 1157 1395 1400 
3 1157 1400 1158 
3 1401 1158 1400 
3 1402 1380 1158 
3 1158 1401 1403 
3 1403 1402 1158 
3 1159 1402 1404 
3 1402 1159 1380 
3 1373 1159 1404 
3 1161 1160 1405 
3 1405 1160 1406 
3 1407 1406 1160 
3 1160 1216 1407 
3 1405 1163 1161 
3 1163 1162 1161 
3 1405 1408 1163 
3 1163 1408 1384 
3 1169 1184 1164 
3 1409 1188 1166 
3 1166 1188 1167 
3 1410 1166 1250 
3 1410 1409 1166 
3 1169 1170 1411 
3 1169 1412 1184 
3 1411 1413 1169 
3 1169 1413 1414 
3 1414 1412 1169 
3 1170 1415 1416 
3 1411 1170 1416 
3 1170 1186 1415 
3 1171 1179 1417 
3 1417 1172 1171 
3 1193 1172 1418 
3 1172 1417 1418 
3 1196 1174 1173 
3 1180 1419 1173 
3 1420 1421 1173 
3 1421 1422 1173 
3 1173 1422 1423 
3 1420 1173 1419 
3 1196 1173 1197 
3 1197 1173 1423 
3 1196 1175 1174 
3 1175 1424 1176 
3 1425 1175 1198 
3 1425 1424 1175 
3 1426 1176 1424 
3 1177 1176 1426 
3 1427 1178 1177 
3 1177 1426 1427 
3 1178 1427 1428 
3 1178 1428 1179 
3 1179 1428 1429 
3 1179 1429 1417 
3 1182 1419 1180 
3 1189 1182 1181 
3 1189 1419 1182 
3 1183 1430 1186 
3 1431 1430 1183 
3 1432 1183 1433 
3 1431 1183 1432 
3 1185 1433 1183 
3 1184 1412 1185 
3 1414 1433 1185 
3 1414 1185 1412 
3 1186 1434 1415 
3 1430 1434 1186 
3 1190 1187 1435 
3 1409 1187 1188 
3 1435 1187 1409 
3 1436 1419 1189 
3 1189 1437 1436 
3 1437 1189 1190 
3 1438 1439 1190 
3 1439 1437 1190 
3 1190 1440 1438 
3 1190 1435 1440 
3 1441 1198 1191 
3 1191 1442 1441 
3 1192 1442 1191 
3 1192 1194 1442 
3 1443 1444 1193 
3 1418 1443 1193 
3 1444 1445 1193 
3 1193 1445 1446 
3 1446 1447 1193 
3 1193 1447 1195 
3 1448 1194 1449 
3 1194 1448 1442 
3 1194 1450 1449 
3 1450 1194 1195 
3 1195 1451 1450 
3 1195 1447 1451 
3 1423 1202 1197 
3 1452 1198 1441 
3 1198 1452 1425 
3 1453 1199 1454 
3 1455 1454 1199 
3 1200 1456 1199 
3 1199 1456 1455 
3 1457 1199 1453 
3 1199 1458 1205 
3 1457 1458 1199 
3 1201 1456 1200 
3 1204 1456 1201 
3 1423 1203 1202 
3 1203 1459 1204 
3 1422 1459 1203 
3 1422 1203 1423 
3 1204 1459 1460 
3 1204 1455 1456 
3 1460 1455 1204 
3 1205 1458 1207 
3 1461 1462 1206 
3 1207 1461 1206 
3 1206 1462 1217 
3 1208 1207 1206 
3 1458 1463 1207 
3 1464 1461 1207 
3 1207 1463 1464 
3 1209 1465 1210 
3 1219 1465 1209 
3 1211 1210 1214 
3 1214 1210 1465 
3 1466 1212 1214 
3 1212 1466 1213 
3 1213 1466 1467 
3 1213 1467 1215 
3 1466 1214 1465 
3 1216 1215 1467 
3 1467 1407 1216 
3 1217 1462 1218 
3 1218 1468 1219 
3 1218 1462 1469 
3 1218 1469 1468 
3 1219 1468 1470 
3 1219 1470 1471 
3 1219 1471 1465 
3 1220 1472 1232 
3 1220 1221 1473 
3 1473 1472 1220 
3 1223 1473 1221 
3 1222 1241 1474 
3 1222 1475 1223 
3 1474 1475 1222 
3 1223 1476 1473 
3 1475 1476 1223 
3 1477 1224 1240 
3 1224 1477 1225 
3 1228 1225 1477 
3 1227 1478 1226 
3 1226 1478 1479 
3 1226 1479 1480 
3 1226 1480 1229 
3 1228 1481 1227 
3 1227 1481 1478 
3 1228 1477 1482 
3 1481 1228 1483 
3 1483 1228 1482 
3 1480 1246 1229 
3 1233 1230 1484 
3 1230 1231 1472 
3 1472 1485 1230 
3 1230 1485 1484 
3 1472 1231 1232 
3 1484 1486 1233 
3 1233 1486 1487 
3 1233 1487 1488 
3 1488 1237 1233 
3 1489 1234 1238 
3 1490 1234 1489 
3 1235 1234 1490 
3 1235 1491 1492 
3 1235 1239 1236 
3 1490 1491 1235 
3 1492 1239 1235 
3 1493 1237 1494 
3 1494 1237 1488 
3 1495 1237 1493 
3 1238 1237 1495 
3 1495 1489 1238 
3 1492 1240 1239 
3 1482 1477 1240 
3 1496 1240 1492 
3 1240 1496 1482 
3 1241 1497 1474 
3 1242 1497 1241 
3 1498 1497 1242 
3 1243 1498 1242 
3 1499 1498 1243 
3 1500 1243 1501 
3 1499 1243 1500 
3 1501 1243 1244 
3 1245 1501 1244 
3 1501 1245 1502 
3 1247 1502 1245 
3 1248 1246 1503 
3 1504 1503 1246 
3 1480 1504 1246 
3 1505 1506 1247 
3 1506 1502 1247 
3 1505 1247 1507 
3 1507 1247 1249 
3 1508 1248 1503 
3 1249 1248 1508 
3 1507 1249 1508 
3 1250 1509 1510 
3 1253 1509 1250 
3 1250 1510 1410 
3 1251 1365 1511 
3 1512 1251 1511 
3 1252 1251 1512 
3 1252 1513 1514 
3 1512 1513 1252 
3 1252 1514 1253 
3 1253 1514 1509 
3 1254 1515 1338 
3 1255 1515 1254 
3 1255 1516 1517 
3 1517 1515 1255 
3 1518 1516 1255 
3 1518 1255 1256 
3 1258 1518 1256 
3 1256 1259 1258 
3 1258 1257 1519 
3 1519 1257 1260 
3 1519 1520 1258 
3 1520 1518 1258 
3 1519 1260 1521 
3 1522 1260 1523 
3 1521 1260 1522 
3 1523 1260 1261 
3 1523 1261 1524 
3 1262 1524 1261 
3 1524 1262 1525 
3 1525 1262 1266 
3 1262 1263 1266 
3 1265 1264 1526 
3 1264 1527 1526 
3 1264 1269 1527 
3 1265 1528 1529 
3 1526 1528 1265 
3 1265 1529 1266 
3 1266 1529 1530 
3 1525 1266 1530 
3 1267 1531 1268 
3 1272 1531 1267 
3 1532 1269 1268 
3 1268 1533 1532 
3 1531 1533 1268 
3 1269 1532 1534 
3 1534 1527 1269 
3 1377 1535 1270 
3 1270 1535 1271 
3 1536 1272 1271 
3 1271 1535 1536 
3 1536 1537 1272 
3 1272 1537 1531 
3 1538 1290 1274 
3 1274 1275 1539 
3 1539 1538 1274 
3 1275 1276 1540 
3 1540 1539 1275 
3 1277 1541 1276 
3 1276 1541 1542 
3 1276 1542 1540 
3 1342 1277 1343 
3 1541 1277 1342 
3 1277 1280 1343 
3 1543 1346 1278 
3 1278 1346 1344 
3 1278 1344 1280 
3 1544 1545 1278 
3 1543 1278 1545 
3 1278 1279 1546 
3 1546 1544 1278 
3 1284 1546 1279 
3 1281 1547 1282 
3 1281 1295 1547 
3 1292 1295 1281 
3 1281 1297 1292 
3 1548 1297 1281 
3 1283 1548 1281 
3 1282 1549 1550 
3 1547 1549 1282 
3 1551 1282 1550 
3 1284 1282 1551 
3 1283 1288 1548 
3 1551 1546 1284 
3 1327 1552 1285 
3 1285 1552 1287 
3 1288 1286 1553 
3 1287 1553 1286 
3 1554 1553 1287 
3 1552 1554 1287 
3 1555 1288 1553 
3 1548 1288 1556 
3 1557 1556 1288 
3 1288 1555 1557 
3 1289 1558 1291 
3 1558 1289 1559 
3 1538 1559 1289 
3 1290 1538 1289 
3 1558 1560 1291 
3 1291 1560 1561 
3 1291 1561 1293 
3 1293 1561 1294 
3 1294 1561 1562 
3 1295 1294 1563 
3 1294 1562 1564 
3 1564 1563 1294 
3 1565 1549 1295 
3 1295 1549 1547 
3 1563 1565 1295 
3 1296 1325 1300 
3 1296 1298 1325 
3 1297 1556 1299 
3 1548 1556 1297 
3 1325 1298 1566 
3 1299 1566 1298 
3 1567 1566 1299 
3 1556 1567 1299 
3 1318 1301 1302 
3 1568 1318 1302 
3 1302 1304 1568 
3 1306 1569 1303 
3 1303 1570 1304 
3 1570 1303 1569 
3 1571 1568 1304 
3 1572 1571 1304 
3 1304 1570 1572 
3 1306 1305 1309 
3 1573 1306 1574 
3 1573 1569 1306 
3 1306 1309 1574 
3 1575 1308 1307 
3 1575 1307 1576 
3 1315 1577 1307 
3 1307 1577 1576 
3 1578 1309 1308 
3 1578 1308 1575 
3 1578 1574 1309 
3 1310 1311 1579 
3 1579 1580 1310 
3 1580 1581 1310 
3 1581 1314 1310 
3 1582 1579 1311 
3 1311 1583 1582 
3 1311 1584 1583 
3 1584 1311 1585 
3 1311 1586 1585 
3 1311 1323 1586 
3 1312 1587 1315 
3 1587 1312 1313 
3 1579 1588 1313 
3 1588 1589 1313 
3 1313 1589 1587 
3 1580 1313 1314 
3 1579 1313 1580 
3 1580 1314 1581 
3 1315 1590 1591 
3 1315 1587 1590 
3 1591 1577 1315 
3 1592 1317 1316 
3 1316 1318 1593 
3 1593 1592 1316 
3 1592 1321 1317 
3 1318 1568 1593 
3 1319 1320 1594 
3 1356 1319 1594 
3 1320 1322 1595 
3 1595 1594 1320 
3 1592 1322 1321 
3 1595 1322 1592 
3 1324 1586 1323 
3 1586 1324 1596 
3 1324 1597 1596 
3 1324 1598 1597 
3 1598 1324 1325 
3 1599 1325 1566 
3 1598 1325 1599 
3 1326 1345 1600 
3 1600 1328 1326 
3 1328 1552 1327 
3 1600 1601 1328 
3 1328 1602 1552 
3 1601 1602 1328 
3 1603 1329 1333 
3 1603 1604 1329 
3 1604 1605 1329 
3 1329 1605 1606 
3 1606 1607 1329 
3 1329 1607 1339 
3 1329 1339 1330 
3 1608 1333 1332 
3 1609 1332 1610 
3 1334 1610 1332 
3 1332 1609 1608 
3 1603 1333 1608 
3 1335 1610 1334 
3 1336 1610 1335 
3 1611 1336 1337 
3 1611 1612 1336 
3 1612 1610 1336 
3 1337 1338 1611 
3 1613 1614 1338 
3 1338 1517 1613 
3 1338 1614 1615 
3 1517 1338 1515 
3 1615 1611 1338 
3 1339 1607 1341 
3 1607 1616 1340 
3 1607 1340 1341 
3 1340 1616 1342 
3 1342 1617 1541 
3 1616 1617 1342 
3 1618 1345 1346 
3 1618 1600 1345 
3 1619 1346 1543 
3 1618 1346 1619 
3 1347 1620 1621 
3 1347 1621 1352 
3 1347 1348 1622 
3 1622 1620 1347 
3 1348 1623 1622 
3 1348 1624 1625 
3 1349 1624 1348 
3 1348 1625 1623 
3 1350 1624 1349 
3 1625 1350 1626 
3 1358 1626 1350 
3 1625 1624 1350 
3 1351 1353 1361 
3 1627 1353 1352 
3 1352 1628 1629 
3 1630 1352 1621 
3 1628 1352 1630 
3 1352 1629 1627 
3 1361 1353 1362 
3 1362 1353 1627 
3 1357 1354 1631 
3 1355 1631 1354 
3 1632 1631 1355 
3 1632 1355 1356 
3 1356 1594 1633 
3 1633 1634 1356 
3 1634 1632 1356 
3 1635 1358 1357 
3 1357 1631 1635 
3 1636 1358 1635 
3 1358 1636 1626 
3 1360 1364 1637 
3 1637 1366 1360 
3 1363 1362 1627 
3 1364 1363 1638 
3 1627 1639 1363 
3 1363 1639 1638 
3 1364 1638 1637 
3 1365 1367 1511 
3 1640 1366 1637 
3 1640 1641 1366 
3 1641 1642 1366 
3 1366 1642 1643 
3 1367 1366 1643 
3 1367 1643 1644 
3 1511 1367 1644 
3 1376 1645 1369 
3 1369 1378 1376 
3 1645 1372 1369 
3 1369 1370 1646 
3 1646 1647 1369 
3 1648 1378 1369 
3 1369 1647 1648 
3 1646 1370 1649 
3 1371 1649 1370 
3 1374 1373 1371 
3 1371 1373 1649 
3 1375 1372 1645 
3 1404 1650 1373 
3 1650 1651 1373 
3 1373 1651 1649 
3 1645 1376 1375 
3 1535 1377 1652 
3 1653 1652 1377 
3 1379 1653 1377 
3 1379 1378 1648 
3 1379 1654 1653 
3 1654 1379 1648 
3 1655 1399 1381 
3 1381 1656 1655 
3 1656 1381 1392 
3 1387 1383 1385 
3 1657 1384 1408 
3 1384 1657 1658 
3 1385 1384 1658 
3 1658 1659 1385 
3 1385 1659 1660 
3 1385 1661 1389 
3 1385 1660 1661 
3 1389 1387 1385 
3 1389 1662 1388 
3 1662 1391 1388 
3 1389 1663 1664 
3 1664 1662 1389 
3 1389 1661 1665 
3 1665 1663 1389 
3 1666 1394 1390 
3 1666 1390 1391 
3 1391 1664 1667 
3 1391 1662 1664 
3 1391 1667 1666 
3 1393 1668 1392 
3 1392 1668 1669 
3 1669 1656 1392 
3 1670 1668 1393 
3 1393 1671 1670 
3 1393 1394 1671 
3 1394 1672 1671 
3 1394 1666 1673 
3 1394 1673 1672 
3 1674 1395 1398 
3 1675 1395 1674 
3 1400 1395 1675 
3 1676 1396 1397 
3 1676 1398 1396 
3 1397 1677 1676 
3 1677 1397 1399 
3 1678 1398 1676 
3 1679 1674 1398 
3 1398 1678 1679 
3 1677 1399 1680 
3 1655 1680 1399 
3 1681 1400 1675 
3 1401 1400 1681 
3 1401 1652 1653 
3 1403 1401 1653 
3 1681 1682 1401 
3 1401 1682 1652 
3 1403 1683 1402 
3 1683 1404 1402 
3 1683 1403 1684 
3 1685 1684 1403 
3 1685 1403 1653 
3 1684 1404 1683 
3 1404 1684 1686 
3 1686 1650 1404 
3 1408 1405 1406 
3 1687 1688 1406 
3 1406 1407 1687 
3 1406 1688 1408 
3 1407 1467 1689 
3 1689 1687 1407 
3 1408 1688 1690 
3 1690 1691 1408 
3 1408 1691 1657 
3 1435 1409 1692 
3 1693 1692 1409 
3 1409 1410 1693 
3 1410 1694 1693 
3 1410 1510 1694 
3 1411 1416 1695 
3 1695 1696 1411 
3 1696 1413 1411 
3 1472 1414 1413 
3 1472 1413 1696 
3 1697 1433 1414 
3 1472 1473 1414 
3 1414 1473 1697 
3 1416 1415 1698 
3 1415 1434 1698 
3 1416 1699 1700 
3 1698 1699 1416 
3 1416 1700 1695 
3 1417 1429 1701 
3 1443 1417 1702 
3 1418 1417 1443 
3 1417 1701 1702 
3 1703 1419 1436 
3 1703 1420 1419 
3 1420 1704 1421 
3 1703 1704 1420 
3 1705 1422 1421 
3 1421 1706 1705 
3 1706 1421 1704 
3 1705 1707 1422 
3 1707 1459 1422 
3 1708 1424 1709 
3 1709 1424 1425 
3 1424 1708 1426 
3 1425 1452 1709 
3 1426 1708 1710 
3 1426 1710 1427 
3 1427 1710 1711 
3 1427 1711 1431 
3 1427 1431 1428 
3 1428 1431 1432 
3 1428 1432 1712 
3 1713 1428 1712 
3 1429 1428 1713 
3 1714 1429 1713 
3 1701 1429 1714 
3 1430 1711 1434 
3 1431 1711 1430 
3 1697 1432 1433 
3 1432 1715 1712 
3 1715 1432 1697 
3 1716 1434 1717 
3 1698 1434 1716 
3 1434 1711 1718 
3 1434 1718 1717 
3 1440 1435 1692 
3 1703 1436 1719 
3 1719 1436 1437 
3 1437 1720 1719 
3 1439 1720 1437 
3 1438 1721 1439 
3 1722 1721 1438 
3 1722 1438 1723 
3 1723 1438 1440 
3 1721 1720 1439 
3 1692 1724 1440 
3 1723 1440 1724 
3 1725 1726 1441 
3 1441 1442 1725 
3 1441 1726 1452 
3 1448 1725 1442 
3 1702 1444 1443 
3 1727 1444 1702 
3 1445 1444 1728 
3 1727 1728 1444 
3 1445 1728 1729 
3 1730 1731 1445 
3 1445 1729 1730 
3 1446 1445 1731 
3 1446 1732 1447 
3 1732 1446 1733 
3 1734 1446 1731 
3 1734 1733 1446 
3 1451 1447 1735 
3 1735 1447 1732 
3 1449 1736 1448 
3 1725 1448 1737 
3 1737 1448 1736 
3 1738 1736 1449 
3 1738 1449 1739 
3 1739 1449 1450 
3 1451 1739 1450 
3 1740 1739 1451 
3 1740 1451 1735 
3 1452 1726 1741 
3 1452 1741 1709 
3 1453 1454 1742 
3 1453 1743 1744 
3 1744 1457 1453 
3 1453 1742 1743 
3 1460 1742 1454 
3 1454 1455 1460 
3 1744 1745 1457 
3 1463 1457 1745 
3 1463 1458 1457 
3 1746 1747 1459 
3 1459 1747 1460 
3 1707 1746 1459 
3 1460 1747 1742 
3 1461 1748 1462 
3 1748 1461 1464 
3 1462 1748 1469 
3 1749 1464 1463 
3 1745 1749 1463 
3 1464 1749 1750 
3 1464 1750 1748 
3 1466 1465 1471 
3 1751 1467 1466 
3 1751 1466 1471 
3 1751 1752 1467 
3 1467 1752 1689 
3 1468 1469 1753 
3 1468 1753 1754 
3 1755 1468 1754 
3 1470 1468 1755 
3 1756 1469 1757 
3 1758 1757 1469 
3 1748 1758 1469 
3 1753 1469 1756 
3 1470 1759 1471 
3 1755 1759 1470 
3 1471 1759 1751 
3 1696 1760 1472 
3 1760 1485 1472 
3 1697 1473 1476 
3 1761 1474 1497 
3 1474 1761 1475 
3 1761 1476 1475 
3 1697 1476 1762 
3 1762 1476 1761 
3 1763 1479 1478 
3 1763 1478 1764 
3 1478 1481 1764 
3 1763 1480 1479 
3 1763 1765 1480 
3 1765 1504 1480 
3 1483 1764 1481 
3 1483 1482 1496 
3 1483 1496 1766 
3 1483 1766 1767 
3 1767 1768 1483 
3 1768 1764 1483 
3 1486 1484 1485 
3 1486 1485 1769 
3 1769 1485 1760 
3 1769 1770 1486 
3 1771 1486 1770 
3 1771 1487 1486 
3 1487 1771 1772 
3 1488 1487 1772 
3 1494 1488 1772 
3 1773 1489 1495 
3 1774 1489 1773 
3 1490 1489 1774 
3 1490 1775 1491 
3 1774 1775 1490 
3 1776 1492 1491 
3 1775 1777 1491 
3 1776 1491 1777 
3 1766 1496 1492 
3 1492 1776 1766 
3 1494 1778 1493 
3 1493 1778 1779 
3 1780 1493 1779 
3 1495 1493 1780 
3 1781 1778 1494 
3 1782 1494 1772 
3 1781 1494 1782 
3 1495 1780 1773 
3 1761 1497 1714 
3 1714 1497 1783 
3 1783 1497 1498 
3 1498 1499 1783 
3 1783 1499 1784 
3 1784 1499 1500 
3 1501 1785 1500 
3 1784 1500 1786 
3 1785 1786 1500 
3 1502 1785 1501 
3 1787 1788 1502 
3 1788 1785 1502 
3 1502 1506 1787 
3 1789 1503 1504 
3 1503 1789 1508 
