NORM_ASCII
1321 2638
  -0.0212052   -0.1399624    0.0049051    0.1573568   -0.3316280   -0.9301944
  -0.0215062   -0.1402999    0.0050090   -0.1304718   -0.3575402   -0.9247389
  -0.0192643   -0.1407737    0.0064968    0.9052216   -0.1637773   -0.3921108
  -0.0191807   -0.1412611    0.0068276    0.8949427    0.0072681   -0.4461218
  -0.0190178   -0.1363115    0.0078049    0.1579256   -0.0658445    0.9852533
  -0.0189821   -0.1358051    0.0078270    0.0130323   -0.1431610    0.9896136
  -0.0184157   -0.1359652    0.0077831    0.1294386   -0.1584665    0.9788432
  -0.0195134   -0.1350801    0.0079039   -0.1450733   -0.1551649    0.9771784
  -0.0188464   -0.1394975    0.0068569    0.9743523   -0.2229199   -0.0307304
  -0.0184928   -0.1382062    0.0071736    0.8453268   -0.3462678    0.4068430
  -0.0183456   -0.1373300    0.0074107    0.6679432   -0.2634916    0.6960058
  -0.0187251   -0.1390535    0.0066257    0.9408527   -0.3258089   -0.0929770
  -0.0180219   -0.1364809    0.0075108    0.3157068   -0.6055668    0.7304917
  -0.0182279   -0.1364482    0.0076285    0.2836652   -0.4454633    0.8491741
  -0.0190058   -0.1399110    0.0065538    0.8965863   -0.2600381   -0.3584874
  -0.0221295   -0.1379056    0.0050710   -0.9133067   -0.1842795   -0.3631967
  -0.0225766   -0.1346368    0.0052759   -0.8168143   -0.2609437    0.5145122
  -0.0227999   -0.1350267    0.0046724   -0.8345545   -0.3376488    0.4353298
  -0.0222844   -0.1347092    0.0056923   -0.8018531   -0.2038716    0.5616653
  -0.0221782   -0.1370992    0.0046856   -0.8844447   -0.3346667   -0.3252011
  -0.0225630   -0.1359663    0.0042986   -0.9234124   -0.3768411   -0.0728030
  -0.0226170   -0.1358260    0.0042465   -0.9019182   -0.4312026    0.0246540
  -0.0229015   -0.1354297    0.0038684   -0.8307313   -0.4845925    0.2739626
  -0.0224375   -0.1333327    0.0061613   -0.7253728   -0.2462185    0.6428147
  -0.0197666   -0.1346198    0.0079377   -0.2404619   -0.2384229    0.9409211
  -0.0200108   -0.1340849    0.0079685   -0.4702669   -0.2310389    0.8517453
  -0.0222615   -0.1333718    0.0063209   -0.5683291   -0.2922850    0.7691369
  -0.0217822   -0.1330011    0.0069566   -0.6679040   -0.2763665    0.6910324
  -0.0221324   -0.1329520    0.0066303   -0.7340491   -0.2158367    0.6438838
  -0.0222817   -0.1331020    0.0063974   -0.7297573   -0.2609323    0.6319562
  -0.0208583   -0.1326982    0.0077610   -0.5470432   -0.2072463    0.8110442
  -0.0212604   -0.1326943    0.0075121   -0.5406882   -0.2055752    0.8157175
  -0.0214568   -0.1326528    0.0073864   -0.6161730   -0.2107115    0.7589015
  -0.0202735   -0.1333541    0.0080612   -0.5342093   -0.2683632    0.8016243
  -0.0201010   -0.1329411    0.0082977   -0.4716502   -0.1945552    0.8600548
  -0.0208611   -0.1323236    0.0078259   -0.5321339   -0.0072625    0.8466291
  -0.0204696   -0.1324077    0.0080787   -0.5501716    0.0347170    0.8343296
  -0.0215891   -0.1402850    0.0050265   -0.3264269   -0.3553468   -0.8758848
  -0.0215449   -0.1401892    0.0049701   -0.1897643   -0.3506765   -0.9170690
  -0.0216325   -0.1398134    0.0048672   -0.4504708   -0.2487105   -0.8574492
  -0.0218032   -0.1397679    0.0050059   -0.7507003   -0.1510552   -0.6431419
  -0.0218461   -0.1388605    0.0048646   -0.8252042   -0.1376203   -0.5478126
  -0.0189258   -0.1394574    0.0062947    0.8897404   -0.3410695   -0.3033705
  -0.0192783   -0.1398066    0.0058610    0.7831186   -0.3710237   -0.4990658
  -0.0213668   -0.1396599    0.0047643    0.0571556   -0.3417548   -0.9380495
  -0.0212409   -0.1398853    0.0048728    0.1274177   -0.3363410   -0.9330806
  -0.0195473   -0.1382629    0.0047362    0.4048252   -0.4089564   -0.8178455
  -0.0195208   -0.1394522    0.0054083    0.4963407   -0.3898114   -0.7756887
  -0.0197615   -0.1373922    0.0043195    0.2701950   -0.2720701   -0.9235651
  -0.0211695   -0.1389717    0.0045522    0.0894857   -0.3095712   -0.9466562
  -0.0191210   -0.1387455    0.0053217    0.6298015   -0.4203762   -0.6531722
  -0.0186999   -0.1354606    0.0078745    0.0463338   -0.1597089    0.9860762
  -0.0180389   -0.1360295    0.0076965    0.1541529   -0.3207177    0.9345464
  -0.0190274   -0.1343886    0.0081270   -0.1430536   -0.3033462    0.9420811
  -0.0180178   -0.1369300    0.0073166    0.6112610   -0.3794362    0.6945417
  -0.0179985   -0.1373711    0.0068779    0.8491261   -0.4688764    0.2431866
  -0.0181161   -0.1374207    0.0070625    0.7931064   -0.4079267    0.4523031
  -0.0188529   -0.1394089    0.0065886    0.8952090   -0.2856524   -0.3420577
  -0.0186688   -0.1388348    0.0063804    0.9036288   -0.4064103   -0.1352246
  -0.0180219   -0.1364808    0.0075112    0.1491745   -0.7741345    0.6151933
  -0.0180211   -0.1364813    0.0075102    0.1908819   -0.7003661    0.6877873
  -0.0217578   -0.1384096    0.0046115   -0.7560558   -0.2284904   -0.6133285
  -0.0218606   -0.1386333    0.0048275   -0.8267602   -0.1432425   -0.5440122
  -0.0229497   -0.1340314    0.0050755   -0.7466799   -0.3269382    0.5792932
  -0.0227178   -0.1335859    0.0056737   -0.7972211   -0.2710465    0.5394184
  -0.0231267   -0.1351186    0.0038329   -0.8555030   -0.4294150    0.2893397
  -0.0231000   -0.1340671    0.0048623   -0.7966309   -0.2597432    0.5458138
  -0.0232469   -0.1341094    0.0046425   -0.8213082   -0.3433631    0.4555816
  -0.0230969   -0.1346897    0.0043050   -0.8603131   -0.3825006    0.3369788
  -0.0223666   -0.1363120    0.0042135   -0.8650625   -0.4556120   -0.2099635
  -0.0222422   -0.1364706    0.0040597   -0.8245092   -0.4789127   -0.3013756
  -0.0219705   -0.1372215    0.0043272   -0.7929561   -0.3705619   -0.4836367
  -0.0224328   -0.1361383    0.0038965   -0.8409235   -0.5251226   -0.1307439
  -0.0226894   -0.1357032    0.0039316   -0.8150262   -0.5690265    0.1092758
  -0.0230443   -0.1353491    0.0036613   -0.8249329   -0.5593021    0.0816503
  -0.0228690   -0.1355437    0.0037974   -0.7575117   -0.6474188    0.0838148
  -0.0224535   -0.1328777    0.0062601   -0.0757707   -0.0741378    0.9943653
  -0.0226043   -0.1328401    0.0060602   -0.8288790   -0.0210302    0.5590325
  -0.0225961   -0.1332957    0.0059737   -0.8099245   -0.1455113    0.5681979
  -0.0198470   -0.1334812    0.0082504   -0.2908656   -0.2821364    0.9142189
  -0.0197349   -0.1339131    0.0081230   -0.1436485   -0.2962266    0.9442536
  -0.0224535   -0.1328777    0.0062601    0.7539349   -0.2444618    0.6097709
  -0.0219922   -0.1325343    0.0069208   -0.7510393   -0.1023781    0.6522719
  -0.0218209   -0.1325720    0.0070885   -0.6938232   -0.1524831    0.7038169
  -0.0222983   -0.1329140    0.0064543   -0.6840898   -0.1568259    0.7123390
  -0.0222946   -0.1324609    0.0065206   -0.8351746    0.0355362    0.5488356
  -0.0222322   -0.1324766    0.0066042   -0.8219863   -0.0086489    0.5694416
  -0.0210591   -0.1322833    0.0077019   -0.5361380   -0.0107842    0.8440614
  -0.0214495   -0.1322000    0.0074472   -0.5794029    0.0221443    0.8147404
  -0.0216418   -0.1325834    0.0072470   -0.6649435   -0.1279266    0.7358566
  -0.0216340   -0.1321591    0.0073018   -0.6527951    0.0152920    0.7573801
  -0.0202768   -0.1324485    0.0082107   -0.5354375    0.0909616    0.8396623
  -0.0198865   -0.1329040    0.0084064   -0.3536405   -0.1468027    0.9237897
  -0.0194251   -0.1330740    0.0085328   -0.2573119   -0.1965688    0.9461243
  -0.0198026   -0.1334510    0.0082751   -0.2746887   -0.3207441    0.9064598
  -0.0198706   -0.1325326    0.0084399   -0.3687643    0.0604320    0.9275564
  -0.0200811   -0.1324894    0.0083376   -0.4854178    0.0923127    0.8693951
  -0.0205956   -0.1319197    0.0079101   -0.4451721    0.2477269    0.8604959
  -0.0210019   -0.1318356    0.0076804   -0.4749439    0.2274519    0.8501141
  -0.0203959   -0.1319614    0.0080303   -0.4538902    0.2808604    0.8456365
  -0.0216633   -0.1395402    0.0048136   -0.5152463   -0.2277966   -0.8262142
  -0.0214419   -0.1393841    0.0046820   -0.2344654   -0.2721923   -0.9332402
  -0.0216882   -0.1393422    0.0047727   -0.5976483   -0.2064848   -0.7747132
  -0.0217221   -0.1388762    0.0046928   -0.6955233   -0.1749465   -0.6968795
  -0.0189532   -0.1389712    0.0057102    0.8051991   -0.4162474   -0.4223653
  -0.0192388   -0.1379636    0.0047335    0.4467718   -0.3812593   -0.8093431
  -0.0205999   -0.1378089    0.0042618    0.2110536   -0.2996115   -0.9304243
  -0.0201430   -0.1368575    0.0041218    0.2977415   -0.2214857   -0.9285979
  -0.0196843   -0.1369486    0.0042642    0.1742053   -0.1528218   -0.9727785
  -0.0190188   -0.1370800    0.0045163    0.4116803   -0.2341917   -0.8807233
  -0.0214402   -0.1389222    0.0045488   -0.1847432   -0.2545280   -0.9492552
  -0.0213086   -0.1384825    0.0044049   -0.1388245   -0.2810532   -0.9495983
  -0.0209691   -0.1382747    0.0043376    0.0584666   -0.3208993   -0.9453070
  -0.0189620   -0.1376707    0.0047820    0.5735328   -0.3905741   -0.7200778
  -0.0188874   -0.1385149    0.0054300    0.7027033   -0.4518980   -0.5495419
  -0.0171481   -0.1360691    0.0075102    0.1589374   -0.6059279    0.7794808
  -0.0169576   -0.1357721    0.0076996    0.0235927   -0.5073638    0.8614089
  -0.0178078   -0.1365161    0.0073989    0.3873214   -0.5464405    0.7425530
  -0.0183130   -0.1341799    0.0083028   -0.1253457   -0.3528230    0.9272564
  -0.0178256   -0.1356229    0.0077815    0.0297779   -0.3803980    0.9243434
  -0.0179776   -0.1346924    0.0081776   -0.1189630   -0.3628339    0.9242291
  -0.0185777   -0.1339870    0.0083631   -0.1132335   -0.3847393    0.9160534
  -0.0186185   -0.1336762    0.0084792   -0.0799150   -0.2275340    0.9704854
  -0.0189074   -0.1331702    0.0085786   -0.0707423   -0.1500211    0.9861487
  -0.0191728   -0.1331227    0.0085657   -0.1513745   -0.2514867    0.9559499
  -0.0178496   -0.1368890    0.0071655    0.6395662   -0.5072051    0.5776660
  -0.0182576   -0.1380381    0.0062898    0.8849705   -0.4656289   -0.0041167
  -0.0177605   -0.1369625    0.0069783    0.6341189   -0.6154631    0.4680794
  -0.0181156   -0.1377710    0.0061014    0.8550667   -0.5174646   -0.0330367
  -0.0175628   -0.1369703    0.0063456    0.7597249   -0.6353762    0.1382575
  -0.0183598   -0.1381522    0.0059858    0.8216362   -0.4996247   -0.2743885
  -0.0215728   -0.1384374    0.0044797   -0.4271623   -0.2481223   -0.8694640
  -0.0217168   -0.1376819    0.0042932   -0.5663630   -0.3597319   -0.7415025
  -0.0231468   -0.1336084    0.0050117   -0.8626817   -0.1627924    0.4788308
  -0.0230100   -0.1336443    0.0052351   -0.8649904   -0.1673022    0.4730768
  -0.0229991   -0.1336467    0.0052492   -0.7065518   -0.2739322    0.6524919
  -0.0229286   -0.1332141    0.0054931   -0.8375440   -0.1036728    0.5364438
  -0.0227485   -0.1332592    0.0057754   -0.8425197   -0.0945459    0.5303033
  -0.0232078   -0.1350623    0.0035211   -0.9314936   -0.3611807   -0.0432217
  -0.0232413   -0.1349052    0.0037335   -0.9213129   -0.3210885    0.2192821
  -0.0233008   -0.1340182    0.0045968   -0.8872149   -0.1636244    0.4313663
  -0.0232221   -0.1335882    0.0048467   -0.9217622   -0.0211751    0.3871771
  -0.0233474   -0.1342100    0.0043379   -0.9033025   -0.3344468    0.2686819
  -0.0233548   -0.1344330    0.0038618   -0.9703592   -0.2333594    0.0628208
  -0.0221681   -0.1364765    0.0038634   -0.7858701   -0.5828405   -0.2066521
  -0.0221644   -0.1364792    0.0038572   -0.7034270   -0.5706141   -0.4237806
  -0.0220071   -0.1368147    0.0039996   -0.7026340   -0.4796062   -0.5256266
  -0.0224938   -0.1359234    0.0035776   -0.7093500   -0.5637707   -0.4230664
  -0.0223331   -0.1362315    0.0037189   -0.7011115   -0.6101623   -0.3689778
  -0.0225966   -0.1358535    0.0037566   -0.7834789   -0.6173882   -0.0706589
  -0.0229804   -0.1354007    0.0035495   -0.7363318   -0.6618251   -0.1407233
  -0.0231097   -0.1351715    0.0033441   -0.7553408   -0.5418981   -0.3685196
  -0.0227679   -0.1356295    0.0036192   -0.6352119   -0.6854476   -0.3559037
  -0.0229638   -0.1353994    0.0034653   -0.6432366   -0.6808805   -0.3502121
  -0.0225446   -0.1323943    0.0060335   -0.8670292    0.2047578    0.4542407
  -0.0224765   -0.1324132    0.0061872   -0.8541164    0.2213957    0.4706050
  -0.0224535   -0.1328777    0.0062601    0.7844068    0.0090774    0.6201803
  -0.0227326   -0.1328064    0.0058224   -0.9417485    0.0862925    0.3250589
  -0.0227328   -0.1328170    0.0058209   -0.9410778    0.0199559    0.3376009
  -0.0219618   -0.1320838    0.0069433   -0.7485169    0.0929158    0.6565737
  -0.0221161   -0.1320481    0.0067474   -0.8220613    0.1728413    0.5425321
  -0.0218032   -0.1321207    0.0071315   -0.7204306    0.0792478    0.6889844
  -0.0224293   -0.1324267    0.0062932   -0.8607717    0.0878775    0.5013478
  -0.0222383   -0.1320148    0.0064996   -0.8657384    0.2513445    0.4328083
  -0.0223417   -0.1319822    0.0062217   -0.8772467    0.3385046    0.3403717
  -0.0211975   -0.1317948    0.0075531   -0.5353791    0.2587104    0.8040138
  -0.0215651   -0.1317136    0.0072607   -0.6363972    0.2533268    0.7285768
  -0.0201992   -0.1320031    0.0081557   -0.4496106    0.3271897    0.8311421
  -0.0196396   -0.1325783    0.0085084   -0.2835740    0.0415857    0.9580482
  -0.0191531   -0.1327241    0.0085978   -0.0455126   -0.0276482    0.9985811
  -0.0194078   -0.1326222    0.0085768   -0.1634598    0.0620387    0.9845974
  -0.0200034   -0.1320440    0.0082822   -0.3983192    0.2867956    0.8712577
  -0.0197490   -0.1320952    0.0083922   -0.2688937    0.3390881    0.9015073
  -0.0204759   -0.1314798    0.0077850   -0.3230512    0.4473137    0.8339954
  -0.0206864   -0.1314366    0.0076826   -0.3690367    0.4331359    0.8223170
  -0.0210811   -0.1313546    0.0074339   -0.4501746    0.4502085    0.7711388
  -0.0202650   -0.1315235    0.0078863   -0.3155719    0.4763861    0.8206526
  -0.0215248   -0.1389081    0.0045695   -0.4025205   -0.2297516   -0.8861103
  -0.0212495   -0.1375659    0.0040702   -0.0021514   -0.3816778   -0.9242929
  -0.0208953   -0.1371704    0.0039932    0.2296659   -0.3455470   -0.9098631
  -0.0203549   -0.1367490    0.0040318    0.3574040   -0.2175478   -0.9082595
  -0.0202550   -0.1363715    0.0039296    0.3727834   -0.3053316   -0.8762449
  -0.0207853   -0.1367283    0.0038316    0.3294937   -0.2890499   -0.8988237
  -0.0199583   -0.1359714    0.0039620    0.4242976   -0.2098530   -0.8808707
  -0.0193894   -0.1365472    0.0042999    0.3492397   -0.1560621   -0.9239460
  -0.0196085   -0.1364632    0.0042185    0.0944948   -0.1271431   -0.9873730
  -0.0195287   -0.1360579    0.0041531    0.1765178   -0.1987354   -0.9640258
  -0.0186345   -0.1371631    0.0047810    0.5993278   -0.3092152   -0.7383713
  -0.0187390   -0.1366784    0.0045760    0.4813625   -0.1990361   -0.8536245
  -0.0214152   -0.1380013    0.0042724   -0.2482797   -0.3424521   -0.9061367
  -0.0185898   -0.1376396    0.0050854    0.6428096   -0.4243908   -0.6377212
  -0.0183307   -0.1377033    0.0054417    0.7225050   -0.4941995   -0.4834805
  -0.0166975   -0.1356616    0.0077461    0.1867613   -0.5459290    0.8167507
  -0.0176007   -0.1364983    0.0072751    0.3734668   -0.6627166    0.6490988
  -0.0172816   -0.1364339    0.0072175    0.1739121   -0.7587264    0.6277649
  -0.0168449   -0.1361340    0.0074582    0.0802959   -0.6023031    0.7942188
  -0.0176648   -0.1350386    0.0080644   -0.0477706   -0.4782194    0.8769403
  -0.0174464   -0.1348928    0.0081848   -0.0416522   -0.4431953    0.8954569
  -0.0168183   -0.1353536    0.0079920    0.0925246   -0.4731098    0.8761314
  -0.0178159   -0.1342744    0.0083783   -0.0808702   -0.2421999    0.9668502
  -0.0183498   -0.1337606    0.0084802   -0.0436415   -0.2620326    0.9640717
  -0.0179737   -0.1337927    0.0084707    0.0753184   -0.1450338    0.9865558
  -0.0177553   -0.1347362    0.0082221   -0.1103438   -0.3877857    0.9151210
  -0.0186383   -0.1332207    0.0085837    0.0017756   -0.0839558    0.9964679
  -0.0183563   -0.1332721    0.0085686    0.0845374   -0.0732823    0.9937219
  -0.0183017   -0.1328245    0.0085510    0.1024195    0.1006726    0.9896339
  -0.0175518   -0.1365540    0.0071857    0.4591284   -0.6178461    0.6383317
  -0.0173992   -0.1366715    0.0069188    0.5480683   -0.8091306    0.2119641
  -0.0174528   -0.1365689    0.0071251    0.3845814   -0.7383049    0.5540785
  -0.0181623   -0.1377498    0.0058080    0.7954110   -0.5719334   -0.2005332
  -0.0170305   -0.1364036    0.0063606    0.6400020   -0.7431095   -0.1954115
  -0.0215796   -0.1374799    0.0041020   -0.3954782   -0.4494391   -0.8010003
  -0.0231263   -0.1331570    0.0050504   -0.9350047    0.1262109    0.3314166
  -0.0231030   -0.1331655    0.0051226   -0.9348429    0.0978726    0.3413058
  -0.0230102   -0.1336246    0.0052389   -0.8657901   -0.1136593    0.4873285
  -0.0229463   -0.1327432    0.0052753   -0.9044729    0.3241308    0.2772507
  -0.0228502   -0.1327744    0.0055662   -0.8994446    0.2081428    0.3842862
  -0.0233389   -0.1345213    0.0033694   -0.9602763   -0.2168229   -0.1756622
  -0.0232472   -0.1346793    0.0031946   -0.8620601   -0.2837582   -0.4199210
  -0.0233524   -0.1335483    0.0045050   -0.9564567    0.1704447    0.2369372
  -0.0234285   -0.1339810    0.0042578   -0.9836194   -0.0821412    0.1604544
  -0.0231898   -0.1331308    0.0047056   -0.9332212    0.3241544    0.1549908
  -0.0234205   -0.1340910    0.0040232   -0.9712612   -0.2287203    0.0658691
  -0.0234322   -0.1339577    0.0037460   -0.9923591    0.0495511   -0.1129962
  -0.0233966   -0.1340890    0.0035322   -0.9916355   -0.1024445   -0.0785128
  -0.0234452   -0.1339665    0.0039922   -0.9988198   -0.0463967   -0.0143631
  -0.0233558   -0.1344097    0.0033450   -0.9803065   -0.1017056   -0.1692781
  -0.0221665   -0.1364764    0.0038556   -0.5864689   -0.7323547   -0.3459925
  -0.0218883   -0.1367594    0.0038150   -0.4940591   -0.5273982   -0.6911995
  -0.0221596   -0.1364764    0.0038498   -0.5155531   -0.6920709   -0.5052157
  -0.0223089   -0.1359756    0.0034488   -0.4762881   -0.5054460   -0.7194957
  -0.0226450   -0.1355409    0.0034330   -0.4500138   -0.6079244   -0.6541525
  -0.0220493   -0.1364492    0.0036738   -0.4404307   -0.6422807   -0.6272928
  -0.0230725   -0.1349077    0.0030816   -0.6556804   -0.3521478   -0.6678885
  -0.0229927   -0.1351299    0.0031602   -0.4892385   -0.5739041   -0.6567189
  -0.0228226   -0.1353636    0.0032980   -0.3877395   -0.6944582   -0.6061237
  -0.0228965   -0.1354095    0.0034114   -0.4107052   -0.7196209   -0.5598812
  -0.0226254   -0.1323712    0.0058340   -0.8960200    0.2755087    0.3481999
  -0.0224205   -0.1319557    0.0059126   -0.8652684    0.4167470    0.2786263
  -0.0227297   -0.1327893    0.0058198   -0.9557071    0.1844404    0.2293593
  -0.0218790   -0.1316401    0.0068791   -0.7326623    0.3585616    0.5784804
  -0.0219934   -0.1316094    0.0066479   -0.7828056    0.4872069    0.3870981
  -0.0220858   -0.1315433    0.0063270   -0.7748222    0.5872407    0.2340918
  -0.0222784   -0.1316756    0.0057146   -0.7585016    0.6498629    0.0485122
  -0.0215082   -0.1315182    0.0071990   -0.6359979    0.4141197    0.6511617
  -0.0212656   -0.1313135    0.0072888   -0.5364897    0.4757227    0.6970414
  -0.0199612   -0.1319147    0.0082343   -0.3221864    0.4506933    0.8325092
  -0.0200553   -0.1315661    0.0079906   -0.3188408    0.5089453    0.7995719
  -0.0195649   -0.1321328    0.0084580   -0.2137720    0.2818405    0.9353435
  -0.0191390   -0.1326105    0.0085927    0.0122396    0.1225446    0.9923875
  -0.0193241   -0.1321794    0.0085104   -0.0765401    0.3037532    0.9496713
  -0.0194343   -0.1317823    0.0083010   -0.0605879    0.5185721    0.8528846
  -0.0196131   -0.1316192    0.0081664   -0.1401222    0.5779892    0.8039243
  -0.0205439   -0.1310885    0.0075062   -0.1699576    0.6470263    0.7432842
  -0.0203590   -0.1312007    0.0076385   -0.1316151    0.6577866    0.7416160
  -0.0207338   -0.1310113    0.0073754   -0.2986332    0.6739529    0.6757260
  -0.0211317   -0.1310017    0.0071206   -0.4324964    0.7239748    0.5374080
  -0.0201737   -0.1313151    0.0077708   -0.1484687    0.6695145    0.7278100
  -0.0215933   -0.1368848    0.0037660   -0.1837523   -0.4626414   -0.8672935
  -0.0213825   -0.1370761    0.0038444    0.1311703   -0.4007894   -0.9067316
  -0.0205343   -0.1365877    0.0038973    0.3835161   -0.3288200   -0.8630138
  -0.0208803   -0.1354666    0.0032830    0.3731581   -0.3644588   -0.8531839
  -0.0197919   -0.1350824    0.0038331    0.4460546   -0.1687853   -0.8789464
  -0.0197304   -0.1360190    0.0040852    0.3577179   -0.1983275   -0.9125262
  -0.0193378   -0.1351958    0.0039792    0.2895522   -0.1558108   -0.9443953
  -0.0192134   -0.1356588    0.0041558    0.4036020   -0.1923465   -0.8944877
  -0.0178616   -0.1368546    0.0053810    0.6468008   -0.3555249   -0.6747228
  -0.0181476   -0.1372754    0.0053269    0.6884019   -0.4082480   -0.5995301
  -0.0182924   -0.1363129    0.0048121    0.5597762   -0.2736886   -0.7821414
  -0.0185912   -0.1357883    0.0044778    0.4458439   -0.1722252   -0.8783858
  -0.0175895   -0.1369761    0.0058229    0.7386893   -0.4855259   -0.4675496
  -0.0165341   -0.1361362    0.0074036    0.3566016   -0.6047417    0.7121255
  -0.0165659   -0.1358390    0.0075992    0.4325327   -0.4314106    0.7917073
  -0.0167087   -0.1353713    0.0079557    0.3436285   -0.3891907    0.8546637
  -0.0165163   -0.1354015    0.0078292    0.5400272   -0.3613009    0.7601528
  -0.0171783   -0.1364978    0.0070382    0.3150822   -0.8979468    0.3072698
  -0.0169681   -0.1364145    0.0071616    0.2043079   -0.9049701    0.3732121
  -0.0167967   -0.1362426    0.0073623    0.0988267   -0.7230214    0.6837202
  -0.0166822   -0.1362626    0.0073249    0.2631052   -0.7878679    0.5568123
  -0.0168492   -0.1350910    0.0080842    0.1955441   -0.2799183    0.9398980
  -0.0170655   -0.1348590    0.0081705    0.1101394   -0.2413544    0.9641667
  -0.0173633   -0.1348081    0.0082278    0.1246804   -0.2967131    0.9467926
  -0.0174541   -0.1343404    0.0083643    0.1385372   -0.1524817    0.9785483
  -0.0174648   -0.1338817    0.0083762    0.2538088   -0.0129548    0.9671676
  -0.0175876   -0.1334058    0.0084154    0.4017716    0.0441061    0.9146771
  -0.0177539   -0.1333779    0.0084746    0.2683840    0.0134111    0.9632186
  -0.0181086   -0.1328576    0.0085206    0.2295325    0.1645923    0.9592832
  -0.0188014   -0.1322748    0.0085127    0.1330472    0.3258211    0.9360230
  -0.0184680   -0.1323334    0.0084791    0.1779268    0.3008767    0.9369180
  -0.0181574   -0.1323886    0.0084309    0.2845358    0.2839086    0.9156611
  -0.0172300   -0.1365941    0.0067640    0.4397434   -0.8980599   -0.0106879
  -0.0173119   -0.1365881    0.0069644    0.4614037   -0.8258803    0.3240809
  -0.0167004   -0.1357411    0.0059279    0.7569187   -0.4547007   -0.4693840
  -0.0166668   -0.1359826    0.0062870    0.6865895   -0.5963606   -0.4158713
  -0.0170655   -0.1364896    0.0068559    0.4621285   -0.8865431    0.0218762
  -0.0167284   -0.1362864    0.0067918    0.5249670   -0.8152236   -0.2445815
  -0.0165925   -0.1360919    0.0066010    0.6744829   -0.6447342   -0.3597090
  -0.0229799   -0.1326813    0.0048873   -0.9038087    0.4141907    0.1075914
  -0.0227676   -0.1323072    0.0049757   -0.8652297    0.4946246    0.0820009
  -0.0226475   -0.1323622    0.0057548   -0.9020525    0.3548978    0.2456601
  -0.0232816   -0.1344150    0.0031398   -0.8923694   -0.1121834   -0.4371404
  -0.0231562   -0.1344293    0.0029678   -0.7390399   -0.1340679   -0.6601863
  -0.0232140   -0.1331081    0.0042962   -0.8913875    0.4515391    0.0392528
  -0.0234069   -0.1335252    0.0042140   -0.9587311    0.2769997    0.0640769
  -0.0232098   -0.1331204    0.0045425   -0.8948833    0.4462992    0.0009793
  -0.0234433   -0.1339691    0.0040803   -0.9970775   -0.0583549    0.0493072
  -0.0234038   -0.1335212    0.0040870   -0.9720441    0.2344025    0.0136300
  -0.0227354   -0.1322933    0.0045515   -0.8480198    0.5284745   -0.0397125
  -0.0234016   -0.1339527    0.0035117   -0.9776520    0.1095407   -0.1794366
  -0.0233569   -0.1337759    0.0035179   -0.9476113    0.2333452   -0.2181350
  -0.0232979   -0.1335160    0.0035233   -0.8977383    0.3664384   -0.2445176
  -0.0234001   -0.1335165    0.0039644   -0.9631991    0.2478087   -0.1041077
  -0.0233545   -0.1339512    0.0032881   -0.9366861    0.1045877   -0.3341864
  -0.0217571   -0.1365410    0.0036184   -0.2368597   -0.5020449   -0.8317743
  -0.0217510   -0.1365532    0.0036238   -0.1932666   -0.4778979   -0.8568907
  -0.0220736   -0.1359447    0.0033419   -0.2517083   -0.4782232   -0.8413950
  -0.0224914   -0.1354787    0.0032704   -0.5115062   -0.4593883   -0.7261706
  -0.0220370   -0.1360221    0.0033748   -0.2126754   -0.4983906   -0.8404618
  -0.0225761   -0.1354658    0.0033323   -0.4407864   -0.5619079   -0.6999763
  -0.0227419   -0.1354354    0.0033581   -0.2646237   -0.7397140   -0.6187063
  -0.0228745   -0.1349377    0.0029583   -0.3571144   -0.4545164   -0.8160173
  -0.0230191   -0.1344505    0.0028592   -0.6134784   -0.1166065   -0.7810552
  -0.0229809   -0.1344558    0.0028301   -0.5233935   -0.1925230   -0.8300567
  -0.0226931   -0.1352243    0.0031096   -0.2720892   -0.6515600   -0.7081222
  -0.0225167   -0.1354050    0.0032452   -0.3557944   -0.6456652   -0.6756677
  -0.0224765   -0.1319283    0.0055449   -0.8293390    0.5470433    0.1137563
  -0.0215597   -0.1312291    0.0068766   -0.6778836    0.6327887    0.3742355
  -0.0216781   -0.1312052    0.0065448   -0.6665724    0.7219371    0.1857097
  -0.0216933   -0.1311912    0.0062802   -0.5088810    0.8580538   -0.0691656
  -0.0219480   -0.1313332    0.0061356   -0.5743474    0.8184294   -0.0172709
  -0.0221424   -0.1315523    0.0059649   -0.7420074    0.6681868    0.0543276
  -0.0223828   -0.1318053    0.0054114   -0.5929698    0.7844967   -0.1815262
  -0.0221607   -0.1316281    0.0055305   -0.2885354    0.8499030   -0.4409219
  -0.0221431   -0.1315431    0.0057843   -0.5986854    0.7815079   -0.1755597
  -0.0214323   -0.1312746    0.0071148   -0.6476656    0.5046191    0.5708668
  -0.0213398   -0.1310694    0.0069965   -0.5485940    0.7306267    0.4064840
  -0.0198490   -0.1316084    0.0081000   -0.2601301    0.5387655    0.8012890
  -0.0199862   -0.1314139    0.0079025   -0.1778701    0.6790664    0.7122016
  -0.0190602   -0.1322280    0.0085254    0.0594794    0.3335685    0.9408476
  -0.0192642   -0.1320204    0.0084386    0.0394182    0.4919235    0.8697456
  -0.0192924   -0.1315431    0.0081079    0.1420175    0.7146323    0.6849319
  -0.0191377   -0.1317433    0.0082314    0.1791831    0.6174962    0.7658928
  -0.0197980   -0.1315008    0.0080336   -0.1411942    0.6830633    0.7165813
  -0.0194758   -0.1314130    0.0079748    0.0775514    0.8176438    0.5704774
  -0.0202405   -0.1310532    0.0074690    0.0107166    0.7311586    0.6821233
  -0.0204843   -0.1310065    0.0074215   -0.0872858    0.7342536    0.6732405
  -0.0200412   -0.1311502    0.0075814    0.1099029    0.8522064    0.5115326
  -0.0205986   -0.1308227    0.0071849   -0.1359627    0.9322917    0.3351810
  -0.0208774   -0.1309236    0.0071705   -0.3339246    0.8355733    0.4362473
  -0.0210046   -0.1308899    0.0069348   -0.3227363    0.9255443    0.1980126
  -0.0198532   -0.1312431    0.0077127    0.0644431    0.8729148    0.4835978
  -0.0214329   -0.1364966    0.0035664    0.0486843   -0.4206044   -0.9059370
  -0.0209125   -0.1348407    0.0029834    0.5275146   -0.2165246   -0.8214897
  -0.0215958   -0.1362082    0.0034260    0.0230157   -0.4422154   -0.8966135
  -0.0214182   -0.1356850    0.0032204    0.2355505   -0.4851525   -0.8421063
  -0.0210269   -0.1352824    0.0030987    0.3866597   -0.4237563   -0.8191001
  -0.0208606   -0.1343934    0.0029699    0.5736764    0.0317146   -0.8184678
  -0.0194710   -0.1342315    0.0038984    0.3640340   -0.0726088   -0.9285511
  -0.0202811   -0.1340629    0.0034354    0.5309929    0.0375360   -0.8465445
  -0.0191099   -0.1352178    0.0040569    0.4698332   -0.1939025   -0.8611960
  -0.0190029   -0.1343231    0.0040252    0.4406094   -0.0882194   -0.8933536
  -0.0187979   -0.1356644    0.0043819    0.4456551   -0.1119255   -0.8881803
  -0.0189796   -0.1355225    0.0042483    0.5560384   -0.1952255   -0.8079036
  -0.0175598   -0.1364733    0.0054021    0.6341481   -0.4028246   -0.6599913
  -0.0180104   -0.1359105    0.0048689    0.4479740   -0.3477905   -0.8236268
  -0.0184358   -0.1348976    0.0043668    0.4286733   -0.0652270   -0.9011019
  -0.0178313   -0.1352128    0.0046884    0.3891263   -0.2399604   -0.8893817
  -0.0173752   -0.1360482    0.0053370    0.7382725   -0.3815342   -0.5562241
  -0.0168433   -0.1357051    0.0057144    0.7329180   -0.3349527   -0.5921468
  -0.0169969   -0.1356676    0.0055186    0.7049562   -0.3451004   -0.6196309
  -0.0164263   -0.1361691    0.0072229    0.6702581   -0.7188898    0.1842594
  -0.0163717   -0.1358678    0.0074730    0.6981883   -0.3778162    0.6081019
  -0.0162794   -0.1354331    0.0075530    0.7267594   -0.2518240    0.6390660
  -0.0165481   -0.1349472    0.0080051    0.5312394   -0.0935625    0.8420396
  -0.0164357   -0.1351651    0.0078509    0.7142378   -0.2358718    0.6589604
  -0.0164687   -0.1349588    0.0079372    0.6227879   -0.1085956    0.7748176
  -0.0168554   -0.1364084    0.0069792    0.3637599   -0.9314068   -0.0126557
  -0.0166461   -0.1363307    0.0071030    0.4660091   -0.8845743    0.0190759
  -0.0168654   -0.1348949    0.0081417    0.2816897   -0.1055632    0.9536809
  -0.0169669   -0.1344206    0.0081783    0.3569139    0.0196759    0.9339301
  -0.0171929   -0.1343853    0.0082834    0.3742254   -0.0636823    0.9251486
  -0.0173888   -0.1338950    0.0083501    0.4198832    0.0540104    0.9059696
  -0.0173730   -0.1334189    0.0083003    0.5221748    0.1664535    0.8364369
  -0.0175911   -0.1329457    0.0083555    0.4684095    0.1860984    0.8636897
  -0.0174060   -0.1329736    0.0082236    0.6302801    0.2763912    0.7255032
  -0.0178285   -0.1329067    0.0084525    0.3472299    0.2019186    0.9157840
  -0.0178866   -0.1325509    0.0083708    0.4269095    0.4427503    0.7884925
  -0.0179242   -0.1324263    0.0083310    0.4763535    0.4377549    0.7625339
  -0.0184779   -0.1323037    0.0084691    0.1925847    0.4481482    0.8729687
  -0.0186391   -0.1319993    0.0083283    0.2163889    0.6305149    0.7454038
  -0.0189474   -0.1319756    0.0083817    0.1580772    0.5793772    0.7995834
  -0.0181722   -0.1323449    0.0084163    0.3211247    0.4744548    0.8196167
  -0.0164564   -0.1358077    0.0064241    0.7969108   -0.4412812   -0.4125580
  -0.0165976   -0.1352993    0.0058309    0.7985038   -0.1827903   -0.5735672
  -0.0164882   -0.1354538    0.0060808    0.8105271   -0.3219922   -0.4892514
  -0.0165179   -0.1361990    0.0069150    0.6598216   -0.6999328   -0.2733669
  -0.0165911   -0.1362646    0.0070237    0.5684877   -0.8020013   -0.1833455
  -0.0163444   -0.1358398    0.0066893    0.7896030   -0.4922245   -0.3663906
  -0.0226190   -0.1320962    0.0052972   -0.8396776    0.5394122    0.0630562
  -0.0227245   -0.1322378    0.0049944   -0.7584458    0.6500583   -0.0467357
  -0.0225929   -0.1320787    0.0048052   -0.6366308    0.7657887   -0.0909329
  -0.0232576   -0.1339600    0.0030977   -0.8120778    0.1552537   -0.5625174
  -0.0231221   -0.1339775    0.0029332   -0.6570946    0.1112594   -0.7455522
  -0.0231979   -0.1331002    0.0040411   -0.8540827    0.5088639   -0.1077044
  -0.0226662   -0.1322953    0.0042792   -0.7495213    0.6181168   -0.2369587
  -0.0227297   -0.1322935    0.0044918   -0.8096592    0.5557595   -0.1886353
  -0.0233287   -0.1333586    0.0039903   -0.8825393    0.4535399   -0.1242010
  -0.0227024   -0.1322516    0.0045038   -0.6832227    0.7081083   -0.1782957
  -0.0232269   -0.1335202    0.0033159   -0.8566242    0.3436984   -0.3847941
  -0.0232090   -0.1334876    0.0033227   -0.7201079    0.5386775   -0.4373456
  -0.0230698   -0.1330797    0.0036135   -0.7694066    0.5544797   -0.3171210
  -0.0223901   -0.1352870    0.0030578   -0.3202516   -0.5503614   -0.7710650
  -0.0221914   -0.1355270    0.0031483   -0.2046485   -0.4962123   -0.8437371
  -0.0217601   -0.1359294    0.0032862    0.0200229   -0.4835012   -0.8751146
  -0.0217790   -0.1353777    0.0029522   -0.0278451   -0.4887320   -0.8719895
  -0.0224069   -0.1347217    0.0027231   -0.1574618   -0.3784865   -0.9121150
  -0.0219456   -0.1351166    0.0028132   -0.1228485   -0.4577218   -0.8805674
  -0.0227500   -0.1344947    0.0027292   -0.3578677   -0.1689729   -0.9183566
  -0.0227126   -0.1346785    0.0027756   -0.2760669   -0.3391750   -0.8993038
  -0.0229377   -0.1340071    0.0028016   -0.4894914    0.0869507   -0.8676622
  -0.0224844   -0.1319186    0.0053604   -0.6980177    0.7112815   -0.0827644
  -0.0216410   -0.1311767    0.0065650   -0.5921806    0.7940242    0.1372871
  -0.0214235   -0.1310326    0.0066858   -0.4726974    0.8752566    0.1023867
  -0.0212123   -0.1309415    0.0068088   -0.3684810    0.9271910    0.0673688
  -0.0215160   -0.1310725    0.0063782   -0.4123551    0.9023827   -0.1251747
  -0.0215852   -0.1312036    0.0060977   -0.1726995    0.8917500   -0.4182784
  -0.0214083   -0.1311033    0.0061977   -0.0807791    0.8466341   -0.5260090
  -0.0220512   -0.1314552    0.0058318   -0.5689141    0.7950814   -0.2101956
  -0.0218335   -0.1313090    0.0059525   -0.2589460    0.8975777   -0.3567930
  -0.0222687   -0.1317893    0.0052284   -0.3040164    0.8826733   -0.3584159
  -0.0220581   -0.1317020    0.0053517   -0.0952533    0.8905723   -0.4447559
  -0.0219444   -0.1314958    0.0056517   -0.1434432    0.8046395   -0.5761765
  -0.0219106   -0.1315766    0.0055834    0.1065824    0.7048001   -0.7013537
  -0.0218536   -0.1316597    0.0054771    0.1166963    0.8420415   -0.5266385
  -0.0196637   -0.1313222    0.0078435    0.0419218    0.8692445    0.4926017
  -0.0191711   -0.1314662    0.0079225    0.3573116    0.8764316    0.3227942
  -0.0189893   -0.1316100    0.0080561    0.3760261    0.7712595    0.5135788
  -0.0188417   -0.1317955    0.0081736    0.3655416    0.6883083    0.6265868
  -0.0193575   -0.1313616    0.0077905    0.3101487    0.9333050    0.1809685
  -0.0201914   -0.1310616    0.0074745    0.1849180    0.8152087    0.5488534
  -0.0202259   -0.1310318    0.0074490    0.1992355    0.7852974    0.5861853
  -0.0204083   -0.1308960    0.0073154    0.1012817    0.8311372    0.5467659
  -0.0199521   -0.1311013    0.0073789    0.4223434    0.8846013    0.1977539
  -0.0197372   -0.1312071    0.0075292    0.3357207    0.9347542    0.1163021
  -0.0210009   -0.1308891    0.0069252   -0.2136700    0.9765637   -0.0258545
  -0.0206856   -0.1308133    0.0068754    0.0635980    0.9475620   -0.3131797
  -0.0202925   -0.1308641    0.0071320    0.3913667    0.9157530   -0.0907107
  -0.0195475   -0.1312863    0.0076599    0.2999111    0.9468407    0.1163875
  -0.0211097   -0.1347987    0.0028591    0.4086926   -0.2189057   -0.8860309
  -0.0210574   -0.1343516    0.0028451    0.4831512    0.0206837   -0.8752926
  -0.0214391   -0.1351489    0.0028870    0.2134800   -0.4494243   -0.8674354
  -0.0212382   -0.1352385    0.0029979    0.2988063   -0.4290599   -0.8524215
  -0.0210667   -0.1338973    0.0029327    0.4339188    0.2213804   -0.8733299
  -0.0202120   -0.1331637    0.0034669    0.3891336    0.0177388   -0.9210105
  -0.0199486   -0.1327605    0.0035536    0.3324468    0.0865086   -0.9391461
  -0.0208666   -0.1337702    0.0030791    0.3886938    0.2029054   -0.8987472
  -0.0206703   -0.1335269    0.0032506    0.4901639    0.0760036   -0.8683103
  -0.0186936   -0.1330162    0.0041827    0.4970334    0.0131257   -0.8676321
  -0.0182974   -0.1330993    0.0044285    0.5531284    0.0143600   -0.8329723
  -0.0179517   -0.1336310    0.0046851    0.5684331    0.0110659   -0.8226551
  -0.0174291   -0.1360352    0.0052585    0.6058852   -0.3878066   -0.6946288
  -0.0174772   -0.1355559    0.0049612    0.6038670   -0.3199393   -0.7300572
  -0.0176660   -0.1354859    0.0048281    0.4320494   -0.2718058   -0.8599157
  -0.0175766   -0.1347730    0.0047959    0.5560748    0.0868810   -0.8265788
  -0.0175882   -0.1350705    0.0047675    0.4779444   -0.0954448   -0.8731893
  -0.0167530   -0.1352734    0.0056362    0.7405234   -0.2138276   -0.6371050
  -0.0167475   -0.1352629    0.0056388    0.7278206   -0.1723882   -0.6637465
  -0.0170570   -0.1351880    0.0052404    0.7009106   -0.1608762   -0.6948692
  -0.0168957   -0.1352269    0.0054234    0.7721523   -0.1566134   -0.6158353
  -0.0162907   -0.1359785    0.0070324    0.8252662   -0.5447993   -0.1487595
  -0.0162582   -0.1358820    0.0072943    0.8667946   -0.4201134    0.2686481
  -0.0162499   -0.1354655    0.0075004    0.8390078   -0.2082889    0.5026746
  -0.0161500   -0.1354448    0.0073082    0.9243416   -0.1992730    0.3253966
  -0.0161706   -0.1349923    0.0074914    0.8837369   -0.0966719    0.4578904
  -0.0167383   -0.1344588    0.0080760    0.4914751    0.1383430    0.8598334
  -0.0163720   -0.1345132    0.0078095    0.7185325    0.1843224    0.6706238
  -0.0163803   -0.1347246    0.0078308    0.7580394    0.0619657    0.6492584
  -0.0163809   -0.1349711    0.0078616    0.7887679   -0.0569132    0.6120507
  -0.0169682   -0.1339613    0.0081198    0.5733609    0.1726116    0.8009136
  -0.0167558   -0.1343469    0.0080507    0.5469681    0.2176863    0.8083554
  -0.0171842   -0.1334684    0.0081740    0.6045184    0.1751165    0.7771047
  -0.0172641   -0.1329932    0.0080636    0.7389049    0.4180598    0.5284369
  -0.0172258   -0.1331344    0.0081054    0.6816094    0.3656737    0.6337913
  -0.0176110   -0.1328373    0.0083287    0.5426640    0.3829060    0.7475953
  -0.0174874   -0.1327385    0.0081425    0.6907108    0.5804893    0.4312202
  -0.0177811   -0.1324463    0.0081716    0.7175817    0.6854749    0.1232910
  -0.0177638   -0.1324623    0.0081846    0.6248398    0.7344797    0.2647919
  -0.0180433   -0.1322114    0.0082281    0.5835228    0.7140777    0.3867740
  -0.0183342   -0.1320485    0.0082757    0.3650293    0.7099909    0.6022180
  -0.0188165   -0.1318223    0.0081929    0.2930597    0.7676301    0.5699650
  -0.0185157   -0.1319048    0.0081420    0.4101578    0.8673279    0.2819803
  -0.0162198   -0.1353993    0.0065568    0.8894962   -0.2791198   -0.3617853
  -0.0162548   -0.1353891    0.0064749    0.8891618   -0.2215718   -0.4003715
  -0.0163307   -0.1353678    0.0062900    0.8526165   -0.2217332   -0.4731592
  -0.0164191   -0.1348850    0.0060541    0.8201817    0.0160651   -0.5718775
  -0.0167494   -0.1352439    0.0056350    0.7704459   -0.0529010   -0.6353067
  -0.0163268   -0.1358454    0.0067396    0.8464940   -0.4302740   -0.3135476
  -0.0224895   -0.1319567    0.0051088   -0.6665987    0.7254037   -0.1715682
  -0.0223763   -0.1319445    0.0049264   -0.2896555    0.9135563   -0.2855077
  -0.0224774   -0.1320468    0.0046217   -0.3122914    0.9259726   -0.2122470
  -0.0222695   -0.1319851    0.0047461   -0.0928342    0.9694581   -0.2270086
  -0.0229784   -0.1335498    0.0029713   -0.5801215    0.3699826   -0.7256527
  -0.0227057   -0.1324670    0.0040222   -0.6139696    0.6926037   -0.3786047
  -0.0225692   -0.1323042    0.0040888   -0.5674754    0.6827449   -0.4602511
  -0.0225829   -0.1321883    0.0043189   -0.5606906    0.7839465   -0.2665592
  -0.0224717   -0.1321937    0.0041371   -0.4034788    0.8142782   -0.4173200
  -0.0223671   -0.1320579    0.0044404   -0.2033237    0.9531486   -0.2239804
  -0.0227326   -0.1331420    0.0030766   -0.5535420    0.5752427   -0.6022351
  -0.0226116   -0.1327975    0.0033639   -0.4869507    0.6544575   -0.5784155
  -0.0216080   -0.1349072    0.0027488    0.1297370   -0.3635279   -0.9225052
  -0.0218008   -0.1346631    0.0026500    0.0745476   -0.2302957   -0.9702611
  -0.0226568   -0.1345101    0.0027117   -0.1797720   -0.1668000   -0.9694637
  -0.0220681   -0.1346141    0.0026405   -0.0884633   -0.2057087   -0.9746067
  -0.0227091   -0.1340433    0.0026983   -0.2877719    0.0944475   -0.9530304
  -0.0224410   -0.1319177    0.0051352   -0.4512930    0.8581244   -0.2448614
  -0.0213056   -0.1309831    0.0065015   -0.2409731    0.9590504   -0.1488430
  -0.0210999   -0.1309350    0.0066265   -0.1138104    0.9661942   -0.2313353
  -0.0209261   -0.1308947    0.0067322   -0.1067630    0.9583160   -0.2650134
  -0.0212002   -0.1310356    0.0063218    0.0436042    0.8831874   -0.4669890
  -0.0215242   -0.1313271    0.0058985    0.0838766    0.8011812   -0.5925145
  -0.0213408   -0.1312454    0.0060652    0.1607120    0.7460005   -0.6462622
  -0.0211139   -0.1312346    0.0061489    0.3227338    0.6719939   -0.6665336
  -0.0221671   -0.1318670    0.0050499    0.0118015    0.8893612   -0.4570528
  -0.0219634   -0.1318345    0.0051758    0.1564152    0.8293639   -0.5363673
  -0.0214369   -0.1315224    0.0057253    0.2463304    0.6486983   -0.7200776
  -0.0213953   -0.1316732    0.0056332    0.2793918    0.7280690   -0.6259838
  -0.0190633   -0.1314969    0.0077419    0.5423857    0.8287865   -0.1375889
  -0.0188785   -0.1316174    0.0078745    0.6113630    0.7878655   -0.0741840
  -0.0186970   -0.1317612    0.0080080    0.5675668    0.8002923    0.1933911
  -0.0187709   -0.1318069    0.0081209    0.3996415    0.7737818    0.4914757
  -0.0192527   -0.1314179    0.0076110    0.5110052    0.8107512   -0.2855804
  -0.0201071   -0.1309766    0.0072644    0.4748826    0.8600131    0.1867188
  -0.0200336   -0.1310761    0.0071280    0.6022748    0.7431443   -0.2915505
  -0.0196344   -0.1312791    0.0073505    0.5488742    0.7675597   -0.3310427
  -0.0194435   -0.1313485    0.0074806    0.4922436    0.8292806   -0.2645561
  -0.0203948   -0.1309803    0.0068280    0.4472425    0.7053072   -0.5500144
  -0.0208774   -0.1309038    0.0067211    0.1265198    0.8517303   -0.5084764
  -0.0213229   -0.1347556    0.0027606    0.2819771   -0.2459197   -0.9273685
  -0.0212740   -0.1343081    0.0027523    0.3144672    0.0530694   -0.9477838
  -0.0215138   -0.1341575    0.0027148    0.2802913    0.2133886   -0.9358964
  -0.0215498   -0.1335570    0.0028699    0.2395534    0.2930882   -0.9255882
  -0.0211232   -0.1333374    0.0031142    0.2598047    0.3878376   -0.8843549
  -0.0206587   -0.1330752    0.0033037    0.3226572    0.1437383   -0.9355382
  -0.0204148   -0.1326681    0.0034239    0.2497960    0.1721999   -0.9528637
  -0.0204249   -0.1325408    0.0034599    0.1173851    0.4514049   -0.8845645
  -0.0200953   -0.1322810    0.0036376    0.0710145    0.5426078   -0.8369789
  -0.0199653   -0.1323050    0.0036537    0.2675246    0.3804572   -0.8852587
  -0.0194672   -0.1324025    0.0037998    0.3536053    0.3572360   -0.8644916
  -0.0192807   -0.1324400    0.0038734    0.4532039    0.1627508   -0.8764236
  -0.0209465   -0.1326299    0.0033916    0.0563524    0.4150691   -0.9080430
  -0.0208179   -0.1330449    0.0032725    0.1235912    0.2610706   -0.9573752
  -0.0184777   -0.1326076    0.0043480    0.5524320    0.2133124   -0.8058019
  -0.0188707   -0.1325248    0.0040965    0.5367193    0.2104440   -0.8170959
  -0.0179144   -0.1331814    0.0046958    0.6186455    0.0364135   -0.7848259
  -0.0180876   -0.1326906    0.0046036    0.6226144    0.2258906   -0.7492161
  -0.0177326   -0.1332226    0.0048451    0.7029723    0.1120785   -0.7023306
  -0.0173983   -0.1337521    0.0051205    0.7426071    0.1251072   -0.6579383
  -0.0173978   -0.1351118    0.0049030    0.5986910   -0.0534486   -0.7991948
  -0.0171883   -0.1347005    0.0050798    0.6692812    0.0868431   -0.7379166
  -0.0170178   -0.1347398    0.0052477    0.7757933    0.0760315   -0.6263896
  -0.0162477   -0.1358693    0.0069797    0.8801330   -0.3874516   -0.2743123
  -0.0162310   -0.1358760    0.0070575    0.9348688   -0.3531485   -0.0361448
  -0.0161016   -0.1354437    0.0070855    0.9856095   -0.1662188    0.0307443
  -0.0160986   -0.1349968    0.0072848    0.9830837   -0.0074595    0.1830049
  -0.0161659   -0.1345350    0.0074373    0.9317675    0.1281603    0.3396827
  -0.0163242   -0.1340530    0.0075289    0.8552046    0.3113428    0.4143558
  -0.0166171   -0.1340146    0.0078443    0.6504092    0.3012441    0.6972947
  -0.0164802   -0.1339327    0.0076679    0.7273762    0.4002013    0.5574610
  -0.0170244   -0.1334919    0.0080257    0.7238143    0.2721746    0.6340456
  -0.0168628   -0.1336119    0.0078902    0.7190880    0.3031219    0.6253236
  -0.0171807   -0.1329996    0.0078642    0.8492058    0.4925666    0.1903358
  -0.0173799   -0.1327734    0.0079619    0.7023037    0.7015514    0.1208102
  -0.0171111   -0.1331104    0.0079224    0.7608914    0.5255452    0.3805871
  -0.0176631   -0.1325477    0.0080067    0.5720942    0.8162209   -0.0805707
  -0.0178551   -0.1324923    0.0078767    0.5245703    0.7601219   -0.3834588
  -0.0178976   -0.1324160    0.0079575    0.6145984    0.6387112   -0.4629436
  -0.0179425   -0.1322949    0.0080500    0.6694255    0.7010239   -0.2458352
  -0.0182236   -0.1320580    0.0080939    0.5664841    0.8235150   -0.0303119
  -0.0185999   -0.1318761    0.0078313    0.5725045    0.7698718   -0.2820212
  -0.0184104   -0.1319573    0.0079622    0.5456479    0.7906215   -0.2778235
  -0.0161453   -0.1354242    0.0068025    0.9420119   -0.2148509   -0.2577842
  -0.0161644   -0.1349523    0.0065379    0.9457466   -0.0167866   -0.3244712
  -0.0162768   -0.1349197    0.0062739    0.8872439   -0.0036575   -0.4612861
  -0.0164240   -0.1344311    0.0061389    0.7989256    0.2591436   -0.5427361
  -0.0165756   -0.1345599    0.0059133    0.7851375    0.2180764   -0.5796566
  -0.0161336   -0.1354295    0.0068634    0.9446259   -0.2513904   -0.2109141
  -0.0220832   -0.1319720    0.0048968    0.1490675    0.8849772   -0.4411284
  -0.0220700   -0.1319839    0.0048732    0.1391642    0.9513047   -0.2750503
  -0.0221647   -0.1320394    0.0045665    0.0790218    0.9694998   -0.2320037
  -0.0225597   -0.1336156    0.0027400   -0.2328397    0.2641114   -0.9359652
  -0.0226526   -0.1333125    0.0028959   -0.3718608    0.4480316   -0.8130112
  -0.0223810   -0.1325496    0.0034800   -0.3584429    0.7683042   -0.5303087
  -0.0221644   -0.1324133    0.0036010   -0.2093200    0.8053989   -0.5545429
  -0.0222598   -0.1320968    0.0042600   -0.0337089    0.9542068   -0.2972426
  -0.0221576   -0.1321705    0.0040815    0.0240793    0.9287623   -0.3698930
  -0.0220610   -0.1321034    0.0043873    0.1824973    0.9514513   -0.2478611
  -0.0224115   -0.1329803    0.0030083   -0.2289449    0.6466633   -0.7276062
  -0.0222850   -0.1326764    0.0033035   -0.1720524    0.6511943   -0.7391508
  -0.0220982   -0.1328069    0.0031859   -0.0604841    0.6588545   -0.7498349
  -0.0219954   -0.1341694    0.0025930    0.0929896    0.0404835   -0.9948437
  -0.0220896   -0.1341530    0.0026010   -0.1135883    0.0419065   -0.9926437
  -0.0209972   -0.1310091    0.0064477    0.2195757    0.8286333   -0.5149305
  -0.0205010   -0.1318510    0.0059568    0.3545989    0.7237425   -0.5919936
  -0.0201184   -0.1312545    0.0067856    0.5077499    0.6196309   -0.5985379
  -0.0204494   -0.1314230    0.0063939    0.4491406    0.6155755   -0.6475644
  -0.0218712   -0.1319907    0.0050008    0.2483487    0.8881686   -0.3866257
  -0.0209237   -0.1321993    0.0052326    0.2749231    0.8545489   -0.4406399
  -0.0211767   -0.1321160    0.0052059    0.3118528    0.7438167   -0.5911721
  -0.0216212   -0.1320634    0.0050337    0.3006707    0.8410069   -0.4497828
  -0.0189770   -0.1316980    0.0075689    0.6189245    0.6395561   -0.4559611
  -0.0187993   -0.1317832    0.0077186    0.6220739    0.6963744   -0.3578921
  -0.0193581   -0.1315575    0.0073082    0.5875718    0.6243879   -0.5146835
  -0.0219975   -0.1337162    0.0026686    0.1030676    0.2724650   -0.9566294
  -0.0221071   -0.1330354    0.0029561    0.0825708    0.4863732   -0.8698409
  -0.0215810   -0.1333477    0.0029535    0.3066064    0.4492679   -0.8391370
