NORM_ASCII
2627 5250
  -0.0124007   -0.0002224   -0.0039436   -0.4608060    0.3563200   -0.8128308
  -0.0126132   -0.0007217   -0.0040954   -0.3458505    0.4594376   -0.8181103
  -0.0133313   -0.0011288   -0.0035479   -0.7639392    0.5147577   -0.3891291
  -0.0134951   -0.0013650   -0.0035624    0.0538226    0.8449660   -0.5321048
  -0.0117236    0.0013454   -0.0039223   -0.6307097    0.1817251   -0.7544410
  -0.0119383   -0.0000907   -0.0040861   -0.2634411    0.2055740   -0.9425169
  -0.0117838    0.0004595   -0.0040604   -0.3675707    0.1000112   -0.9246024
  -0.0115098    0.0015947   -0.0040871   -0.5889310    0.1564224   -0.7929012
  -0.0111116    0.0029616   -0.0039987   -0.6404094    0.2853172   -0.7130707
  -0.0112538    0.0029881   -0.0038094   -0.7557296    0.4471451   -0.4784705
  -0.0094221    0.0062813   -0.0024987   -0.6521898    0.7091953   -0.2677509
  -0.0091529    0.0064893   -0.0025841   -0.5997983    0.7415354   -0.3006114
  -0.0087961    0.0069772   -0.0011239   -0.3919614    0.9194363   -0.0316734
  -0.0088570    0.0068655   -0.0020012   -0.4732603    0.8654317   -0.1644767
  -0.0103691    0.0047120   -0.0034711   -0.7406398    0.5357176   -0.4055360
  -0.0099887    0.0049144   -0.0037912   -0.6631242    0.5307722   -0.5277757
  -0.0088045    0.0059781   -0.0039769   -0.5305498    0.6334419   -0.5632657
  -0.0094717    0.0053418   -0.0039702   -0.5581990    0.5576152   -0.6143933
  -0.0085267    0.0064191   -0.0036831   -0.5053833    0.7175273   -0.4793143
  -0.0070185    0.0068363    0.0006169    0.3983064    0.8724220    0.2832525
  -0.0073122    0.0070903   -0.0000199    0.2801559    0.9507551    0.1325798
  -0.0069866    0.0062747    0.0018321    0.5230996    0.7433557    0.4168803
  -0.0067708    0.0064577    0.0012284    0.5625302    0.7492189    0.3496152
  -0.0074340    0.0071231   -0.0002510    0.2134495    0.9682951    0.1297838
  -0.0066698    0.0053847    0.0027978    0.7178447    0.6257861    0.3051077
  -0.0068350    0.0053386    0.0034298    0.4785046    0.8264854    0.2965724
  -0.0065093    0.0051207    0.0032030    0.6716703    0.7254158    0.1504360
  -0.0080363    0.0071949   -0.0008077   -0.2644102    0.9619564    0.0687545
  -0.0075445    0.0071616   -0.0004649    0.0362661    0.9920942    0.1201413
  -0.0076150   -0.0014012    0.0032852    0.7266435    0.0299639    0.6863610
  -0.0073816   -0.0020192    0.0030757    0.7557636    0.1317027    0.6414638
  -0.0070630   -0.0021051    0.0027761    0.9509186    0.0665836    0.3021926
  -0.0069932   -0.0018223    0.0027718    0.5257889   -0.2122924    0.8236978
  -0.0062401   -0.0017543    0.0022710    0.6966405   -0.2353584    0.6777156
  -0.0058872   -0.0018196    0.0017806    0.8598009   -0.0490063    0.5082723
  -0.0055333   -0.0028270    0.0012995    0.8522194    0.1177911    0.5097523
  -0.0073447   -0.0017068    0.0029994    0.5451944   -0.1757885    0.8196715
  -0.0073628   -0.0018170    0.0030173    0.8120265    0.0526526    0.5812406
  -0.0052900   -0.0032040    0.0009981    0.8858778    0.1449788    0.4406832
  -0.0050613   -0.0038538    0.0006541    0.9567580    0.0236162    0.2899248
  -0.0054601   -0.0052842    0.0008757    0.7948666   -0.2179623    0.5662857
  -0.0051586   -0.0042958    0.0008210    0.8900425   -0.1439191    0.4325641
  -0.0061904   -0.0057230    0.0016148    0.6768923   -0.2504278    0.6921725
  -0.0061969   -0.0060122    0.0015102    0.6570800   -0.2846079    0.6980288
  -0.0059243   -0.0060683    0.0011673    0.7504273   -0.3052075    0.5862655
  -0.0054950   -0.0058563    0.0006784    0.8340390   -0.2755443    0.4779690
  -0.0062967   -0.0062791    0.0015052    0.7238602   -0.3520940    0.5933433
  -0.0065501   -0.0069022    0.0013371    0.6920674   -0.5149832    0.5058014
  -0.0152460   -0.0074221    0.0010091    0.0568019   -0.8248163   -0.5625404
  -0.0150553   -0.0074169    0.0009259   -0.2366252   -0.8248477   -0.5134538
  -0.0152493   -0.0065947   -0.0006952   -0.2989730   -0.9162959   -0.2664902
  -0.0159315   -0.0059931   -0.0021797   -0.4511390   -0.8801407   -0.1477359
  -0.0152755   -0.0063668   -0.0017493   -0.3847597   -0.9158793   -0.1145649
  -0.0172818   -0.0052994   -0.0021802   -0.3585838   -0.8708074   -0.3363215
  -0.0183331   -0.0048459   -0.0015408   -0.5750277   -0.7261226   -0.3769470
  -0.0170102   -0.0053152   -0.0025951   -0.5121925   -0.8261201   -0.2349137
  -0.0149808   -0.0075646    0.0011252    0.9442054   -0.2680744   -0.1913434
  -0.0149808   -0.0075646    0.0011252    0.8001877   -0.4895824   -0.3464228
  -0.0178209   -0.0030154    0.0003497    0.4075226    0.4836819   -0.7745819
  -0.0178055   -0.0029918    0.0003666    0.0586351    0.2333710   -0.9706183
  -0.0180429   -0.0031254    0.0000049    0.7863839    0.5693121    0.2397584
  -0.0179924   -0.0031686    0.0001144    0.4482724    0.8367998   -0.3143533
  -0.0180086   -0.0031727    0.0000874    0.5422166    0.8331179   -0.1091591
  -0.0177154   -0.0032589   -0.0000762    0.3980529    0.8448231    0.3575302
  -0.0176400   -0.0032747   -0.0001157   -0.0043640    0.5575055    0.8301618
  -0.0173782   -0.0029175    0.0001877   -0.7127559   -0.2925897   -0.6374718
  -0.0189543   -0.0026204   -0.0004345   -0.7621754    0.2168852   -0.6099586
  -0.0187890   -0.0026592   -0.0006274   -0.7971180    0.1923940   -0.5723526
  -0.0191495   -0.0040595   -0.0006343   -0.9732986    0.0776033   -0.2160268
  -0.0187867   -0.0028658   -0.0011764   -0.9401842    0.1569209    0.3023731
  -0.0188668   -0.0031300   -0.0012388   -0.9801528    0.1962741    0.0278737
  -0.0187385   -0.0025906   -0.0010956   -0.9214015   -0.0134304    0.3883798
  -0.0186296   -0.0026804   -0.0008900   -0.9968633   -0.0083467   -0.0787012
  -0.0189942   -0.0040872   -0.0012501   -0.9500218   -0.0391164   -0.3097231
  -0.0189349   -0.0035781   -0.0013750   -0.9619855    0.1085501   -0.2506007
  -0.0189909   -0.0043488   -0.0011258   -0.9056244   -0.2709736   -0.3262173
  -0.0189827   -0.0044051   -0.0010858   -0.8617317   -0.4085599   -0.3008278
  -0.0187204   -0.0047989   -0.0010623   -0.6946500   -0.5950285   -0.4042307
  -0.0187335   -0.0044803   -0.0015132   -0.7389188   -0.5240952   -0.4234659
  -0.0186729   -0.0017752   -0.0008212   -0.8998745    0.2860961   -0.3292036
  -0.0187411   -0.0023569   -0.0006792   -0.8937328    0.0249358   -0.4479061
  -0.0187290   -0.0020093   -0.0008834   -0.9688720    0.1646954   -0.1848311
  -0.0174286   -0.0030639   -0.0001319   -0.4697413    0.3383143    0.8154057
  -0.0172694   -0.0031721    0.0000444   -0.9488746    0.2951483    0.1119131
  -0.0187294   -0.0021949   -0.0015277   -0.8536254    0.4452511   -0.2703243
  -0.0188028   -0.0022226   -0.0012174   -0.9762923    0.1846565    0.1129398
  -0.0187516   -0.0022937   -0.0009794   -0.9881057   -0.0133503    0.1531959
  -0.0188135   -0.0024580   -0.0015878   -0.9441992    0.2120329   -0.2520512
  -0.0187939   -0.0024581   -0.0016317   -0.8847298    0.2560432   -0.3894806
  -0.0188073   -0.0027527   -0.0017005   -0.9469420    0.0338741   -0.3196146
  -0.0186573   -0.0030724   -0.0020148   -0.9083735    0.1153180   -0.4019445
  -0.0188489   -0.0030977   -0.0014396   -0.9807439    0.0333037   -0.1924376
  -0.0184050   -0.0030773   -0.0025768   -0.8252116    0.3098515   -0.4722477
  -0.0181704   -0.0031112   -0.0029411   -0.6379456    0.5391233   -0.5498831
  -0.0179908   -0.0034190   -0.0033867   -0.7380444    0.3553406   -0.5736057
  -0.0179222   -0.0037201   -0.0036072   -0.8344987    0.0645385   -0.5472172
  -0.0176258   -0.0037700   -0.0040464   -0.7617316    0.2917222   -0.5785007
  -0.0171875   -0.0037502   -0.0045226   -0.5766716    0.5968818   -0.5578368
  -0.0168199   -0.0036733   -0.0048086   -0.4693303    0.7702924   -0.4317159
  -0.0162868   -0.0037547   -0.0056333   -0.3560566    0.8752555   -0.3273401
  -0.0135149   -0.0015958   -0.0039269   -0.6753979    0.6398066   -0.3667222
  -0.0132591   -0.0013768   -0.0040421   -0.6476403    0.5957589   -0.4750088
  -0.0129566   -0.0014485   -0.0043767   -0.3977251    0.6027967   -0.6917014
  -0.0128014   -0.0024849   -0.0054404   -0.1939242    0.7765080   -0.5995237
  -0.0133498   -0.0026253   -0.0054469   -0.2685027    0.7751984   -0.5718162
  -0.0142859   -0.0028757   -0.0051884   -0.4100118    0.8082394   -0.4226575
  -0.0120797   -0.0014900   -0.0046085   -0.1649182    0.5666252   -0.8073028
  -0.0149104   -0.0034283   -0.0057102   -0.3220498    0.8645194   -0.3858628
  -0.0155012   -0.0037156   -0.0060634   -0.1927086    0.8741846   -0.4457181
  -0.0159592   -0.0037763   -0.0059455   -0.2730362    0.8562818   -0.4384435
  -0.0149808   -0.0075646    0.0011252    0.4622233   -0.7568190   -0.4621413
  -0.0135870   -0.0072448   -0.0019690   -0.5098941   -0.8505835    0.1285135
  -0.0142720   -0.0068544   -0.0009417   -0.3965995   -0.8918869   -0.2173630
  -0.0142318   -0.0068413   -0.0023933   -0.5242555   -0.8475464    0.0825913
  -0.0139609   -0.0070417   -0.0023014   -0.5716586   -0.8070181    0.1480821
  -0.0064293   -0.0072875    0.0005642    0.5905114   -0.6934172    0.4128788
  -0.0057193   -0.0068925    0.0000959    0.7060441   -0.6200809    0.3420546
  -0.0061358   -0.0075557   -0.0003441    0.6280689   -0.6965791    0.3468529
  -0.0059106   -0.0068798    0.0004839    0.6656697   -0.6173794    0.4191975
  -0.0065357   -0.0081541   -0.0011488    0.3908383   -0.8337703    0.3899648
  -0.0062101   -0.0079821   -0.0011876    0.5535734   -0.7741981    0.3068774
  -0.0126532   -0.0080158   -0.0026739   -0.5068104   -0.8092578    0.2970605
  -0.0117424   -0.0085983   -0.0027229   -0.4068869   -0.7678224    0.4948655
  -0.0123199   -0.0083104   -0.0028523   -0.5274070   -0.7582668    0.3832405
  -0.0068816   -0.0087627   -0.0020278    0.3027609   -0.8488977    0.4332535
  -0.0073230   -0.0091875   -0.0026196    0.1608489   -0.9079356    0.3870149
  -0.0078014   -0.0091752   -0.0025710    0.0165856   -0.9248434    0.3799864
  -0.0067023   -0.0085595   -0.0018008    0.3801831   -0.8161037    0.4352420
  -0.0066464   -0.0083548   -0.0014617    0.4062832   -0.8286970    0.3849613
  -0.0108502   -0.0095172   -0.0033123   -0.2180717   -0.7647407    0.6063138
  -0.0104394   -0.0096696   -0.0034173   -0.0423978   -0.8176488    0.5741540
  -0.0093267   -0.0095591   -0.0032991    0.0114060   -0.9607274    0.2772595
  -0.0096036   -0.0096913   -0.0037312    0.1959577   -0.9650948    0.1737601
  -0.0091509   -0.0094335   -0.0030432    0.0012347   -0.8866536    0.4624326
  -0.0093891   -0.0093261   -0.0028967   -0.0143587   -0.8305319    0.5567859
  -0.0100705   -0.0097717   -0.0036204    0.2378881   -0.9250867    0.2960132
  -0.0084174   -0.0092489   -0.0027277   -0.0162532   -0.8914680    0.4527920
  -0.0085998   -0.0093922   -0.0029870    0.0530863   -0.9063931    0.4190864
  -0.0058979    0.0024334    0.0027924    0.9691013   -0.1163916    0.2174757
  -0.0057569    0.0016022    0.0016104    0.9728532   -0.0952246    0.2109239
  -0.0057586    0.0009755    0.0016122    0.9616762   -0.0192548    0.2735108
  -0.0075484   -0.0010634    0.0033811    0.5131402   -0.5263782    0.6779477
  -0.0075013   -0.0010757    0.0033398    0.4476862   -0.4689905    0.7613311
  -0.0076018   -0.0013321    0.0032776    0.5578082   -0.2757107    0.7828369
  -0.0064544   -0.0004639    0.0031145    0.8919370   -0.1465690    0.4277452
  -0.0064804   -0.0008445    0.0029845    0.8212753   -0.2537307    0.5110065
  -0.0062802   -0.0008835    0.0027097    0.7945732   -0.2335746    0.5604429
  -0.0062255   -0.0014645    0.0023517    0.8167378   -0.1943879    0.5432796
  -0.0059211   -0.0005872    0.0019666    0.9377911   -0.0225074    0.3464697
  -0.0064758   -0.0005617    0.0031211    0.7680109   -0.2957069    0.5680815
  -0.0071438   -0.0011969    0.0031258    0.3103683   -0.5426424    0.7805195
  -0.0065586   -0.0008319    0.0030962    0.6284844   -0.4131295    0.6590383
  -0.0067263   -0.0011968    0.0029634    0.3884739   -0.5500953    0.7392450
  -0.0065821   -0.0011024    0.0029340    0.5810027   -0.4444847    0.6818132
  -0.0061125    0.0047082    0.0025844    0.8910554    0.4346589    0.1307357
  -0.0057893    0.0044204    0.0011816    0.9818870    0.1678796    0.0878313
  -0.0057465    0.0024857    0.0018812    0.9910334    0.0120910    0.1330662
  -0.0057012    0.0028636    0.0011384    0.9914482    0.0661118    0.1125152
  -0.0058127    0.0024014    0.0024547    0.9798667   -0.0731503    0.1857692
  -0.0128379   -0.0012096   -0.0042736   -0.4404372    0.5160832   -0.7346245
  -0.0121350   -0.0006065   -0.0042021   -0.1892929    0.3370048   -0.9222776
  -0.0115427   -0.0014268   -0.0045869   -0.0610657    0.4840651   -0.8728986
  -0.0117054   -0.0016714   -0.0047653   -0.0615420    0.6649144   -0.7443799
  -0.0115733    0.0013059   -0.0040693   -0.5223774    0.0759015   -0.8493296
  -0.0116969    0.0001151   -0.0041045   -0.1745135    0.0759422   -0.9817219
  -0.0112870   -0.0009660   -0.0043411   -0.1434210    0.3022455   -0.9423789
  -0.0112572    0.0008763   -0.0042177   -0.2576321   -0.0196055   -0.9660442
  -0.0109661    0.0001259   -0.0042650   -0.3238102    0.0078485   -0.9460895
  -0.0110712    0.0017459   -0.0042806   -0.4676166    0.1125552   -0.8767360
  -0.0111418    0.0014643   -0.0042787   -0.3265574    0.0065346   -0.9451548
  -0.0107162    0.0039876   -0.0037601   -0.7270025    0.4565203   -0.5128905
  -0.0106487    0.0034179   -0.0042080   -0.6633897    0.3457546   -0.6636022
  -0.0104420    0.0027606   -0.0045262   -0.4092160    0.0691358   -0.9098146
  -0.0108727    0.0026011   -0.0043152   -0.5194270    0.0917562   -0.8495742
  -0.0103044    0.0033262   -0.0045379   -0.5310483    0.1813516   -0.8277072
  -0.0083373    0.0066668   -0.0034586   -0.3984254    0.7943857   -0.4584851
  -0.0083403    0.0068478   -0.0031020   -0.4581465    0.8328055   -0.3107038
  -0.0083420    0.0071033   -0.0018556   -0.2942997    0.9509503   -0.0952957
  -0.0077570    0.0072356   -0.0017806   -0.1709015    0.9826422   -0.0721587
  -0.0082929    0.0070160   -0.0024856   -0.3278801    0.9260183   -0.1870419
  -0.0081159    0.0069152   -0.0031775   -0.2487554    0.9286500   -0.2751909
  -0.0104540    0.0044658   -0.0036177   -0.6590430    0.4998396   -0.5619811
  -0.0096980    0.0048536   -0.0041514   -0.5474820    0.4716023   -0.6912704
  -0.0099308    0.0046320   -0.0040777   -0.6525166    0.4671801   -0.5966279
  -0.0093946    0.0053238   -0.0040602   -0.5715430    0.5365002   -0.6208914
  -0.0083833    0.0063834   -0.0038311   -0.4031413    0.6686353   -0.6248231
  -0.0087416    0.0054286   -0.0045210   -0.4524722    0.5406000   -0.7092394
  -0.0095762    0.0050946   -0.0040640   -0.5129309    0.4939459   -0.7020821
  -0.0081407    0.0064494   -0.0039151   -0.3218261    0.7394592   -0.5912935
  -0.0067596    0.0067874    0.0001951    0.5885918    0.7943654    0.1501444
  -0.0065171    0.0063949    0.0008034    0.7208113    0.6540463    0.2294658
  -0.0066698    0.0067540   -0.0001450    0.6004201    0.7922228    0.1089898
  -0.0067182    0.0068480   -0.0006635    0.5551783    0.8300193    0.0533389
  -0.0065388    0.0060470    0.0015470    0.7094261    0.5972497    0.3741755
  -0.0063889    0.0060485    0.0011878    0.7807080    0.5649629    0.2670429
  -0.0072685    0.0071582   -0.0008773    0.2927477    0.9472152    0.1306990
  -0.0068156    0.0069347   -0.0008758    0.5493199    0.8297484    0.0988189
  -0.0061003    0.0051538    0.0018814    0.8537373    0.4296074    0.2942280
  -0.0077715    0.0072467   -0.0009068    0.0267095    0.9909371    0.1316443
  -0.0078987    0.0072526   -0.0011355   -0.1957888    0.9803958   -0.0221535
  -0.0064501   -0.0014205    0.0026512    0.5883846   -0.3754355    0.7161367
  -0.0057149   -0.0018274    0.0014285    0.9109858    0.0430365    0.4101861
  -0.0053342   -0.0028321    0.0008687    0.9169009    0.1797086    0.3563672
  -0.0072619   -0.0014368    0.0030243    0.3856494   -0.3624269    0.8484818
  -0.0067858   -0.0013188    0.0029128    0.3831710   -0.4471767    0.8082159
  -0.0051519   -0.0031872    0.0006549    0.9291151    0.2155120    0.3004990
  -0.0050813   -0.0035226    0.0006087    0.9472274    0.1539832    0.2811572
  -0.0050138   -0.0031274    0.0000402    0.9874625    0.0827539    0.1344235
  -0.0050114   -0.0044211    0.0002352    0.9862232   -0.0863315    0.1411050
  -0.0049875   -0.0038842    0.0000344    0.9992087   -0.0169550   -0.0359789
  -0.0052261   -0.0053105    0.0004736    0.9115138   -0.2173747    0.3491287
  -0.0062423   -0.0062883    0.0014279    0.6873827   -0.3595168    0.6310727
  -0.0056140   -0.0063985    0.0005302    0.7950137   -0.3697274    0.4808896
  -0.0053510   -0.0059110    0.0003060    0.9001957   -0.3038614    0.3119551
  -0.0052548   -0.0055827    0.0003284    0.9239387   -0.2407673    0.2972683
  -0.0061109   -0.0065927    0.0010729    0.6962096   -0.5049600    0.5102035
  -0.0144845   -0.0067251   -0.0010862   -0.3868225   -0.9133790   -0.1269140
  -0.0147000   -0.0066083   -0.0015217   -0.3548425   -0.9315976   -0.0788205
  -0.0160037   -0.0058897   -0.0032595   -0.5945840   -0.8026425   -0.0472739
  -0.0156876   -0.0060779   -0.0031833   -0.5104088   -0.8575524    0.0639271
  -0.0176865   -0.0050656   -0.0021010   -0.3081866   -0.8803606   -0.3605361
  -0.0173595   -0.0051604   -0.0023813    0.9454726   -0.2986581   -0.1299421
  -0.0173595   -0.0051604   -0.0023813    0.7531101   -0.6172132   -0.2277568
  -0.0177132   -0.0050181   -0.0021700   -0.5749748   -0.7314868   -0.3665120
  -0.0186273   -0.0043804   -0.0018114   -0.7424952   -0.5094127   -0.4349708
  -0.0183504   -0.0044210   -0.0022378   -0.7244940   -0.5671074   -0.3917878
  -0.0170887   -0.0052044   -0.0027846   -0.3401878   -0.9026321   -0.2636806
  -0.0175729   -0.0033602    0.0001100    0.3517563    0.8481997   -0.3960111
  -0.0173855   -0.0031672    0.0002877   -0.6773686    0.3723196   -0.6344682
  -0.0175364   -0.0033778    0.0001150    0.1268288    0.9551883   -0.2674504
  -0.0176157   -0.0033084   -0.0000571    0.2621461    0.9188999    0.2947921
  -0.0175344   -0.0033732    0.0000880   -0.4923807    0.7971248    0.3495043
  -0.0188408   -0.0025008   -0.0013039   -0.9882801    0.0826809    0.1283212
  -0.0188397   -0.0027941   -0.0014136   -0.9988595    0.0457352    0.0137145
  -0.0187247   -0.0023561   -0.0007270   -0.9824028   -0.1348787   -0.1291995
  -0.0187492   -0.0039921   -0.0018998   -0.8841717   -0.2559428   -0.3908117
  -0.0188289   -0.0036742   -0.0017459   -0.9484661    0.0329881   -0.3151570
  -0.0186076   -0.0036442   -0.0024092   -0.9221143    0.0125629   -0.3867135
  -0.0187199   -0.0036587   -0.0020766   -0.9443128   -0.0176954   -0.3285730
  -0.0185648   -0.0036468   -0.0024949   -0.9210930    0.0685538   -0.3832598
  -0.0184512   -0.0033531   -0.0026587   -0.8701410    0.2488471   -0.4253585
  -0.0182663   -0.0033713   -0.0029934   -0.8117953    0.2468186   -0.5292154
  -0.0181852   -0.0036835   -0.0031883   -0.8405689   -0.0188966   -0.5413749
  -0.0180635   -0.0038699   -0.0033120   -0.8589604   -0.1248285   -0.4965933
  -0.0178187   -0.0039574   -0.0037418   -0.8678334   -0.0372538   -0.4954567
  -0.0175832   -0.0040694   -0.0041768   -0.8589128    0.1171890   -0.4985333
  -0.0172431   -0.0038377   -0.0045821   -0.6812676    0.4925495   -0.5415436
  -0.0169507   -0.0038956   -0.0049707   -0.6428478    0.6339446   -0.4299546
  -0.0166760   -0.0038656   -0.0053703   -0.5186682    0.7832318   -0.3428283
  -0.0167202   -0.0039105   -0.0054285   -0.5914400    0.7178386   -0.3672962
  -0.0164618   -0.0039427   -0.0058591   -0.5011186    0.7274359   -0.4687399
  -0.0130189   -0.0027229   -0.0057192    0.4503478    0.7587774   -0.4705781
  -0.0125415   -0.0026066   -0.0058280   -0.2537276    0.8558594   -0.4506961
  -0.0114909   -0.0019664   -0.0051550   -0.1388759    0.8065030   -0.5746880
  -0.0134213   -0.0027121   -0.0055348   -0.1540393    0.8002804   -0.5795026
  -0.0149709   -0.0036456   -0.0060572   -0.1980599    0.7976364   -0.5696916
  -0.0140738   -0.0030267   -0.0056476   -0.2662913    0.7734037   -0.5752700
  -0.0157783   -0.0040357   -0.0064109   -0.1898280    0.7009217   -0.6875130
  -0.0160516   -0.0040464   -0.0062925   -0.3728891    0.7264899   -0.5772055
  -0.0136682   -0.0075674   -0.0034912   -0.5735684   -0.7739013    0.2685071
  -0.0151441   -0.0064613   -0.0032819   -0.5416525   -0.8190769    0.1890121
  -0.0147783   -0.0067353   -0.0035474   -0.5675584   -0.7903551    0.2306865
  -0.0143785   -0.0073369   -0.0042382   -0.5968661   -0.7553223    0.2706273
  -0.0056039   -0.0071185   -0.0006052    0.7831773   -0.5843163    0.2126211
  -0.0055434   -0.0066611    0.0001133    0.8047107   -0.4691341    0.3638048
  -0.0054552   -0.0068779   -0.0005824    0.8861915   -0.4218733    0.1915397
  -0.0058664   -0.0075608   -0.0009402    0.7833387   -0.5956842    0.1775974
  -0.0059995   -0.0079723   -0.0017224    0.7065811   -0.6461636    0.2884714
  -0.0125920   -0.0083878   -0.0034152   -0.6059740   -0.6967446    0.3838522
  -0.0122381   -0.0087401   -0.0034172   -0.5559946   -0.6552561    0.5113800
  -0.0112350   -0.0098636   -0.0038391   -0.2964746   -0.7347369    0.6101348
  -0.0064319   -0.0086138   -0.0022293    0.5984981   -0.7633771    0.2430133
  -0.0065589   -0.0088098   -0.0025332    0.6234960   -0.7683481    0.1445473
  -0.0069132   -0.0089797   -0.0024376    0.3896431   -0.8583304    0.3338370
  -0.0074431   -0.0092770   -0.0028866    0.2081823   -0.9711020    0.1167095
  -0.0071109   -0.0091515   -0.0027010    0.3478159   -0.9181285    0.1899057
  -0.0079850   -0.0093305   -0.0029517    0.1024130   -0.9674347    0.2314772
  -0.0076313   -0.0093216   -0.0031068    0.1584868   -0.9834701   -0.0875698
  -0.0062771   -0.0084137   -0.0020154    0.5768419   -0.7296385    0.3672615
  -0.0105829   -0.0098726   -0.0037162    0.0120651   -0.8370784    0.5469499
  -0.0090592   -0.0095854   -0.0037161    0.1821813   -0.9451020   -0.2712789
  -0.0089355   -0.0095997   -0.0034895    0.1072628   -0.9901691    0.0897771
  -0.0096408   -0.0097089   -0.0037895    0.3256940   -0.9418235   -0.0830176
  -0.0095861   -0.0096839   -0.0038047    0.3116340   -0.9207392   -0.2347841
  -0.0088887   -0.0094972   -0.0031842   -0.0183326   -0.9218491    0.3871151
  -0.0104375   -0.0100634   -0.0041403    0.2841388   -0.8995293    0.3318314
  -0.0102105   -0.0099482   -0.0041990    0.5255696   -0.8499859    0.0360639
  -0.0099384   -0.0098017   -0.0039783    0.4617944   -0.8868439    0.0159310
  -0.0097738   -0.0097190   -0.0040214    0.4154322   -0.9031834   -0.1080546
  -0.0087782   -0.0095249   -0.0032442    0.1292800   -0.9683975    0.2132906
  -0.0083496   -0.0094658   -0.0034138    0.2610443   -0.9646157   -0.0370464
  -0.0082848   -0.0094360   -0.0033121    0.2226525   -0.9691620    0.1055978
  -0.0055169    0.0010928    0.0004587    0.9869095    0.0283492    0.1587640
  -0.0056467    0.0000624    0.0012227    0.9691312   -0.0040342    0.2465125
  -0.0056115   -0.0005444    0.0010317    0.9616100    0.0208162    0.2736289
  -0.0058879    0.0048426    0.0013830    0.9581183    0.2462047    0.1462617
  -0.0057223    0.0042018    0.0004951    0.9917105    0.1211794    0.0427302
  -0.0059487    0.0054184    0.0001859    0.9661511    0.2561061    0.0310102
  -0.0059860    0.0052204    0.0012797    0.9408874    0.3164963    0.1206689
  -0.0056303    0.0033467    0.0004232    0.9927812    0.0760277    0.0927649
  -0.0111284   -0.0015601   -0.0046946   -0.1504578    0.6057472   -0.7813020
  -0.0110155   -0.0013552   -0.0045870   -0.2293754    0.4569805   -0.8593927
  -0.0107803   -0.0017105   -0.0049127   -0.1184196    0.7548264   -0.6451464
  -0.0110252   -0.0001675   -0.0042226   -0.3327647    0.0982706   -0.9378756
  -0.0108156   -0.0008440   -0.0044629   -0.3908595    0.2873137   -0.8744597
  -0.0111586    0.0011520   -0.0042472   -0.1894020   -0.0620349   -0.9799380
  -0.0104233    0.0021208   -0.0045037   -0.3229142   -0.0089956   -0.9463855
  -0.0099787    0.0007933   -0.0046215   -0.1821304    0.0124708   -0.9831953
  -0.0100030    0.0006969   -0.0046208   -0.3864548    0.1100403   -0.9157204
  -0.0103781   -0.0006911   -0.0046591   -0.4225164    0.1794341   -0.8884162
  -0.0105314    0.0036754   -0.0041950   -0.6424639    0.4016222   -0.6526406
  -0.0105072    0.0024743   -0.0045128   -0.3500905   -0.0394697   -0.9358840
  -0.0099894    0.0028979   -0.0046886   -0.3047578   -0.0757832   -0.9494101
  -0.0091920    0.0022399   -0.0047824   -0.0739534   -0.0404510   -0.9964410
  -0.0099366    0.0031962   -0.0047297   -0.3034875   -0.0210464   -0.9526030
  -0.0101284    0.0038571   -0.0044651   -0.5736541    0.3962980   -0.7168465
  -0.0098684    0.0034784   -0.0047362   -0.3517225    0.1494052   -0.9241046
  -0.0077103    0.0069132   -0.0033601   -0.0951012    0.8887715   -0.4483758
  -0.0079484    0.0071379   -0.0023065   -0.1675308    0.9710404   -0.1703349
  -0.0073610    0.0072072   -0.0019684    0.2890313    0.9537459   -0.0826416
  -0.0074967    0.0071902   -0.0022016    0.0057502    0.9851758   -0.1714515
  -0.0073743    0.0072219   -0.0010940    0.1788634    0.9830148    0.0411081
  -0.0076518    0.0070879   -0.0027458   -0.0153428    0.9816419   -0.1901154
  -0.0075446    0.0070109   -0.0031102    0.0905389    0.9555922   -0.2804393
  -0.0092866    0.0050291   -0.0044043   -0.5382007    0.4514113   -0.7117358
  -0.0096877    0.0040082   -0.0046547   -0.4403950    0.3328876   -0.8338094
  -0.0086789    0.0048390   -0.0048487   -0.4269992    0.3386029   -0.8384627
  -0.0082849    0.0055655   -0.0046758   -0.2466665    0.5904244   -0.7684756
  -0.0084009    0.0053226   -0.0047717   -0.3389736    0.4273343   -0.8381421
  -0.0077160    0.0064372   -0.0040593   -0.0655336    0.7032810   -0.7078850
  -0.0077763    0.0067055   -0.0036955   -0.1666552    0.8194069   -0.5484510
  -0.0063707    0.0063901    0.0001611    0.8122982    0.5714704    0.1165903
  -0.0061790    0.0058608    0.0007414    0.8659059    0.4716776    0.1665151
  -0.0065327    0.0066506   -0.0002446    0.7626004    0.6433317    0.0675650
  -0.0064192    0.0065584   -0.0009053    0.7756018    0.6290739    0.0520376
  -0.0061936    0.0055828    0.0015074    0.8512636    0.4628196    0.2472818
  -0.0070160    0.0070917   -0.0013029    0.4635255    0.8859519    0.0152756
  -0.0065904    0.0067945   -0.0013164    0.7125533    0.7013813   -0.0182240
  -0.0056355   -0.0015073    0.0012090    0.9391013    0.0814202    0.3338555
  -0.0053496   -0.0017399    0.0001311    0.9659724    0.1052798    0.2362487
  -0.0051626   -0.0025624    0.0000293    0.9511254    0.2271517    0.2091949
  -0.0049460   -0.0030454   -0.0005352    0.9985445    0.0447346    0.0301277
  -0.0049845   -0.0031782   -0.0002796    0.9904896    0.0011722    0.1375823
  -0.0049966   -0.0035591   -0.0001286    0.9974916    0.0056957    0.0705550
  -0.0050136   -0.0043501   -0.0001276    0.9809740    0.0256950   -0.1924312
  -0.0050401   -0.0055086   -0.0005466    0.9960664   -0.0872434    0.0155040
  -0.0049988   -0.0037176   -0.0001865    0.9803858   -0.1315050   -0.1467993
  -0.0050608   -0.0039889   -0.0002596    0.9144231   -0.0928874   -0.3939573
  -0.0051278   -0.0058233   -0.0003368    0.9465679   -0.2522926    0.2008921
  -0.0170953   -0.0051954   -0.0028002   -0.5902327   -0.7700291   -0.2422407
  -0.0174272   -0.0046952   -0.0036165   -0.7262647   -0.6538963   -0.2120359
  -0.0159413   -0.0061700   -0.0048305   -0.7320112   -0.6654936    0.1458695
  -0.0172079   -0.0048511   -0.0040603   -0.7515943   -0.6541422   -0.0848769
  -0.0156454   -0.0064126   -0.0047653   -0.6365087   -0.7327805    0.2406022
  -0.0173595   -0.0051604   -0.0023813    0.2380473   -0.8908632   -0.3869061
  -0.0182587   -0.0043463   -0.0025388   -0.7097169   -0.6052976   -0.3604396
  -0.0179913   -0.0043724   -0.0029561   -0.6578267   -0.6570157   -0.3682314
  -0.0186069   -0.0039881   -0.0022496   -0.8759414   -0.3168500   -0.3637757
  -0.0185692   -0.0037387   -0.0024612   -0.8938009   -0.1797159   -0.4108798
  -0.0184515   -0.0036441   -0.0027666   -0.8882697   -0.0538569   -0.4561539
  -0.0182231   -0.0040144   -0.0030067   -0.8183828   -0.3551777   -0.4517726
  -0.0177819   -0.0040611   -0.0037971   -0.8767989   -0.1650676   -0.4516375
  -0.0173641   -0.0040990   -0.0045736   -0.8681727    0.1397782   -0.4761704
  -0.0175825   -0.0040755   -0.0041792   -0.8893181   -0.1251678   -0.4398254
  -0.0169561   -0.0041324   -0.0053440   -0.8308345    0.3986635   -0.3883058
  -0.0168517   -0.0041372   -0.0055596   -0.7640559    0.4759697   -0.4355128
  -0.0167413   -0.0041531   -0.0057354   -0.6967804    0.5431723   -0.4684665
  -0.0165918   -0.0041716   -0.0059862   -0.6482925    0.5389277   -0.5378417
  -0.0130189   -0.0027229   -0.0057192    0.9433390    0.2681894   -0.1954125
  -0.0125873   -0.0026548   -0.0058874   -0.0738859    0.8972487   -0.4352994
  -0.0130189   -0.0027229   -0.0057192    0.7776498    0.5556035   -0.2942202
  -0.0114069   -0.0023620   -0.0057313   -0.0972104    0.8575467   -0.5051374
  -0.0123502   -0.0027635   -0.0063213   -0.2952647    0.8744144   -0.3849912
  -0.0147308   -0.0044997   -0.0070524    0.1717518    0.7528320   -0.6354095
  -0.0131840   -0.0029218   -0.0059226   -0.1817638    0.8280778   -0.5303292
  -0.0139480   -0.0039644   -0.0068083   -0.4656925    0.7482822   -0.4724450
  -0.0149283   -0.0041752   -0.0066460   -0.1364287    0.7103102   -0.6905409
  -0.0159772   -0.0043258   -0.0066330   -0.3429867    0.6114779   -0.7130603
  -0.0152922   -0.0043054   -0.0067286   -0.1514421    0.6061493   -0.7807998
  -0.0151098   -0.0044257   -0.0068552   -0.0361964    0.6894178   -0.7234589
  -0.0156106   -0.0044541   -0.0068279   -0.1880530    0.6167400   -0.7643741
  -0.0163027   -0.0042328   -0.0063493   -0.5392729    0.5924539   -0.5984840
  -0.0137733   -0.0077171   -0.0040750   -0.5870923   -0.7451201    0.3164154
  -0.0134449   -0.0081220   -0.0043727   -0.6188205   -0.7278697    0.2954098
  -0.0150780   -0.0067666   -0.0042882   -0.6008105   -0.7454971    0.2885495
  -0.0139224   -0.0078522   -0.0046341   -0.5777561   -0.7584269    0.3016399
  -0.0054104   -0.0068401   -0.0008761    0.9184833   -0.3946580    0.0251702
  -0.0050833   -0.0057853   -0.0006301    0.9839787   -0.1747343   -0.0354110
  -0.0058855   -0.0077391   -0.0015733    0.8423771   -0.5108129    0.1716712
  -0.0056102   -0.0072497   -0.0015143    0.8988872   -0.4364162    0.0392776
  -0.0060900   -0.0082000   -0.0019409    0.7860096   -0.5853591    0.1988555
  -0.0059312   -0.0079642   -0.0019245    0.8661366   -0.4906027    0.0954801
  -0.0120404   -0.0097026   -0.0044388   -0.6574875   -0.6732397    0.3383171
  -0.0113299   -0.0099289   -0.0039783   -0.3458692   -0.7759438    0.5275278
  -0.0115183   -0.0099774   -0.0041996   -0.4863294   -0.7097284    0.5096756
  -0.0119095   -0.0096977   -0.0042083   -0.5820835   -0.6763491    0.4513654
  -0.0108365   -0.0100439   -0.0039540   -0.0394100   -0.8677414    0.4954511
  -0.0061819   -0.0084081   -0.0022649    0.7729071   -0.6331369    0.0418608
  -0.0061693   -0.0083591   -0.0025399    0.8492177   -0.5034055   -0.1594121
  -0.0063268   -0.0085972   -0.0025579    0.7902122   -0.6086954   -0.0710962
  -0.0063517   -0.0085372   -0.0028125    0.8048266   -0.5344320   -0.2581407
  -0.0065156   -0.0087716   -0.0028260    0.7615731   -0.6025554   -0.2386072
  -0.0067368   -0.0089874   -0.0028074    0.5854706   -0.8100157   -0.0331465
  -0.0073860   -0.0092445   -0.0031879    0.2931981   -0.9147223   -0.2780611
  -0.0070288   -0.0091419   -0.0030218    0.3799394   -0.9159083   -0.1294527
  -0.0070159   -0.0091358   -0.0030016    0.4065229   -0.9130890    0.0317427
  -0.0078665   -0.0093176   -0.0032877    0.2235927   -0.9562427   -0.1886960
  -0.0077454   -0.0092807   -0.0033281    0.2371063   -0.8940740   -0.3800162
  -0.0074867   -0.0091552   -0.0033971    0.2916465   -0.7977477   -0.5277697
  -0.0107580   -0.0100510   -0.0039919    0.1304474   -0.9033000    0.4086961
  -0.0088884   -0.0093392   -0.0039888    0.2865026   -0.7169733   -0.6355041
  -0.0092275   -0.0095153   -0.0039026    0.3361082   -0.7906228   -0.5118074
  -0.0087189   -0.0094503   -0.0038182    0.3012221   -0.7791105   -0.5497746
  -0.0084731   -0.0094494   -0.0036404    0.3112424   -0.8933634   -0.3240832
  -0.0096236   -0.0096185   -0.0040513    0.4435008   -0.8291707   -0.3402689
  -0.0105048   -0.0101191   -0.0042345    0.3321845   -0.9116536    0.2419530
  -0.0101982   -0.0098991   -0.0044737    0.6507810   -0.7177734   -0.2475588
  -0.0099474   -0.0097464   -0.0042417    0.5720295   -0.7733621   -0.2733008
  -0.0104308   -0.0101117   -0.0044488    0.5504601   -0.8244475   -0.1314534
  -0.0083105   -0.0093524   -0.0036773    0.3849651   -0.7804766   -0.4926034
  -0.0082480   -0.0094252   -0.0034443    0.3603732   -0.9025638   -0.2356051
  -0.0053546    0.0002263   -0.0002858    0.9883093    0.0707495    0.1350528
  -0.0054544    0.0016354   -0.0005800    0.9957438    0.0851505    0.0352659
  -0.0053212   -0.0004977   -0.0002822    0.9705062    0.0785562    0.2279179
  -0.0056814    0.0039722   -0.0010473    0.9837639    0.1788525   -0.0148454
  -0.0055976    0.0033076   -0.0010444    0.9946355    0.1019658   -0.0174147
  -0.0060926    0.0057079    0.0006457    0.9122327    0.3937943    0.1129489
  -0.0060935    0.0058662   -0.0001581    0.9267757    0.3746658    0.0266891
  -0.0107738   -0.0017009   -0.0049055   -0.2501831    0.5940967   -0.7644982
  -0.0106594   -0.0014746   -0.0048044   -0.3381487    0.4554516   -0.8235407
  -0.0104262   -0.0018296   -0.0051338   -0.0880542    0.6678450   -0.7390734
  -0.0093530    0.0016935   -0.0048212    0.0105057    0.0588541   -0.9982113
  -0.0095042    0.0011387   -0.0048386   -0.1139442    0.0005251   -0.9934870
  -0.0099433    0.0009881   -0.0046464   -0.3804604   -0.0554356   -0.9231342
  -0.0095547    0.0008402   -0.0047936    0.3989818    0.0877459   -0.9127509
  -0.0095547    0.0008402   -0.0047936    0.7718543   -0.0433027   -0.6343232
  -0.0097391   -0.0003178   -0.0048544   -0.3422995    0.1095747   -0.9331797
  -0.0095601   -0.0018617   -0.0053889   -0.1414663    0.3414130   -0.9292064
  -0.0094641   -0.0004208   -0.0049661   -0.1785054    0.1599239   -0.9708554
  -0.0095132    0.0030159   -0.0048000   -0.1374313   -0.0866967   -0.9867098
  -0.0079752    0.0032700   -0.0048846   -0.0678480   -0.0472633   -0.9965756
  -0.0082268    0.0021370   -0.0049055   -0.0914098    0.0228532   -0.9955511
  -0.0082792    0.0020881   -0.0049005    0.1017800    0.0468008   -0.9937054
  -0.0092587    0.0019875   -0.0047870    0.0818462    0.0532963   -0.9952189
  -0.0094821    0.0031797   -0.0048191   -0.1292821   -0.0597882   -0.9898038
  -0.0093934    0.0035979   -0.0048506   -0.2303170    0.0955317   -0.9684151
  -0.0075344    0.0066398   -0.0038281    0.0646587    0.7966823   -0.6009297
  -0.0073417    0.0067929   -0.0035552    0.2927649    0.8888556   -0.3524548
  -0.0073492    0.0067899   -0.0035672    0.2328008    0.8540557   -0.4651802
  -0.0071352    0.0070689   -0.0024086    0.4336087    0.8879338   -0.1534829
  -0.0071854    0.0069287   -0.0030137    0.3798247    0.8797501   -0.2859596
  -0.0090471    0.0046680   -0.0047196   -0.4135655    0.2676078   -0.8702584
  -0.0084379    0.0050472   -0.0048792   -0.2676232    0.2558332   -0.9289387
  -0.0086846    0.0045428   -0.0049233   -0.2919227    0.1692933   -0.9413400
  -0.0076144    0.0058555   -0.0045198    0.0995041    0.5854461   -0.8045818
  -0.0079084    0.0054261   -0.0048480   -0.0440255    0.5052474   -0.8618508
  -0.0080233    0.0051845   -0.0049428   -0.1015804    0.2699775   -0.9574934
  -0.0072365    0.0063466   -0.0040707    0.2255717    0.6447149   -0.7303836
  -0.0063478    0.0064565   -0.0009753    0.8634770    0.5040076    0.0195886
  -0.0061962    0.0061667   -0.0014386    0.9621021    0.2714458   -0.0260141
  -0.0062131    0.0062243   -0.0016975    0.8987794    0.4383806    0.0042400
  -0.0065124    0.0066715   -0.0016848    0.7494574    0.6605999   -0.0438328
  -0.0051762   -0.0016922   -0.0005039    0.9714920    0.0653904    0.2278758
  -0.0050612   -0.0023384   -0.0007959    0.9786023    0.1406847    0.1501513
  -0.0050030   -0.0026813   -0.0006620    0.9833683    0.1680291    0.0689423
  -0.0049762   -0.0029820   -0.0007859    0.9649248   -0.0959963   -0.2443455
  -0.0049937   -0.0033208   -0.0006164    0.8780317   -0.3199773   -0.3559141
  -0.0049595   -0.0033853   -0.0003678    0.9923036   -0.1175314   -0.0389862
  -0.0050993   -0.0042669   -0.0003459    0.8722493    0.1250661   -0.4727998
  -0.0050751   -0.0048676   -0.0005803    0.9557112    0.1521092   -0.2519504
  -0.0051635   -0.0053073   -0.0012796    0.9624008    0.0367621   -0.2691343
  -0.0050911   -0.0050937   -0.0009448    0.9657949    0.1520945   -0.2100180
  -0.0050584   -0.0036439   -0.0004199    0.8321319   -0.3208380   -0.4523487
  -0.0051958   -0.0038897   -0.0004500    0.7046741   -0.1850534   -0.6849742
  -0.0177989   -0.0042524   -0.0035731   -0.8017419   -0.4985219   -0.3296753
  -0.0175691   -0.0043803   -0.0040111   -0.8457224   -0.4210241   -0.3278602
  -0.0175224   -0.0044422   -0.0040551   -0.8521738   -0.4591933   -0.2508811
  -0.0170810   -0.0049084   -0.0047136   -0.8211491   -0.5663457   -0.0704749
  -0.0164449   -0.0056872   -0.0050006   -0.7423103   -0.6541394    0.1451793
  -0.0160962   -0.0062895   -0.0059560   -0.8274592   -0.5437601    0.1401289
  -0.0159060   -0.0066955   -0.0059047   -0.8057051   -0.5239505    0.2762519
  -0.0173516   -0.0045415   -0.0044561   -0.8652698   -0.4210983   -0.2720006
  -0.0150843   -0.0069871   -0.0047463   -0.6380712   -0.6916670    0.3383221
  -0.0152445   -0.0073379   -0.0057764   -0.6532559   -0.6769763    0.3390572
  -0.0183156   -0.0041511   -0.0027284   -0.8103588   -0.4093571   -0.4192199
  -0.0173623   -0.0044208   -0.0045297   -0.9008071   -0.1857034   -0.3925058
  -0.0174405   -0.0044171   -0.0043699   -0.8965677   -0.2362940   -0.3746085
  -0.0171190   -0.0043128   -0.0050507   -0.8950590    0.0896326   -0.4368470
  -0.0172867   -0.0044164   -0.0047261   -0.9136041   -0.1081961   -0.3919453
  -0.0170328   -0.0043975   -0.0054081   -0.9245619    0.1607195   -0.3454772
  -0.0171204   -0.0044212   -0.0050901   -0.9413467    0.0076871   -0.3373533
  -0.0168530   -0.0044081   -0.0057805   -0.8521982    0.2595986   -0.4542761
  -0.0166944   -0.0044248   -0.0060543   -0.7813912    0.3614406   -0.5087125
  -0.0165690   -0.0044526   -0.0062121   -0.6912241    0.4460189   -0.5685740
  -0.0127245   -0.0027888   -0.0060706   -0.3473759    0.8318752   -0.4327975
  -0.0124839   -0.0031743   -0.0072774   -0.2483751    0.9010472   -0.3555613
  -0.0112376   -0.0026530   -0.0062030    0.1546514    0.8176217   -0.5545969
  -0.0131429   -0.0031582   -0.0064010   -0.4813129    0.7972254   -0.3643756
  -0.0150796   -0.0043852   -0.0068200   -0.1366328    0.6972777   -0.7036585
  -0.0147308   -0.0044997   -0.0070524    0.9450571    0.2682476   -0.1868428
  -0.0142570   -0.0043784   -0.0071697   -0.4424030    0.7678775   -0.4632967
  -0.0142982   -0.0044301   -0.0072200   -0.2625188    0.8545397   -0.4481582
  -0.0147308   -0.0044997   -0.0070524    0.7821100    0.5391910   -0.3123732
  -0.0139115   -0.0041958   -0.0073060   -0.6073309    0.7378187   -0.2945722
  -0.0135926   -0.0037754   -0.0070049   -0.6295682    0.7181049   -0.2965961
  -0.0164181   -0.0044737   -0.0064454   -0.6158417    0.5160676   -0.5953261
  -0.0160980   -0.0045619   -0.0067411   -0.4049349    0.4631394   -0.7883715
  -0.0149060   -0.0046871   -0.0072794   -0.0727283    0.7822501   -0.6187046
  -0.0153727   -0.0047865   -0.0071593   -0.2583821    0.6716091   -0.6943918
  -0.0155611   -0.0047459   -0.0070600   -0.3223911    0.5031535   -0.8018108
  -0.0136899   -0.0079800   -0.0045323   -0.5923121   -0.7557538    0.2792893
  -0.0134079   -0.0088516   -0.0055238   -0.6608934   -0.6951593    0.2827958
  -0.0143570   -0.0076783   -0.0049500   -0.5916995   -0.7185661    0.3654509
  -0.0140993   -0.0082177   -0.0055539   -0.6014554   -0.7284645    0.3280105
  -0.0138181   -0.0084171   -0.0054664   -0.6232253   -0.6993522    0.3499955
  -0.0051951   -0.0058805   -0.0014785    0.9861586   -0.0886752   -0.1401000
  -0.0053165   -0.0064764   -0.0013586    0.9625266   -0.2711752   -0.0025626
  -0.0051898   -0.0055908   -0.0013732    0.9723663    0.0606041   -0.2254572
  -0.0053003   -0.0064284   -0.0016354    0.9530474   -0.2966742   -0.0607040
  -0.0059135   -0.0079167   -0.0022023    0.9133554   -0.3988942   -0.0816410
  -0.0060267   -0.0081695   -0.0022455    0.8911992   -0.4487569   -0.0661916
  -0.0130435   -0.0092186   -0.0055360   -0.6824480   -0.7045266    0.1946973
  -0.0125089   -0.0096183   -0.0053095   -0.6553705   -0.7104241    0.2564898
  -0.0126932   -0.0094961   -0.0055084   -0.6788425   -0.7023208    0.2142859
  -0.0118737   -0.0100004   -0.0049121   -0.4952585   -0.8629111    0.1005160
  -0.0116337   -0.0100506   -0.0044629   -0.4739913   -0.8290620    0.2966285
  -0.0117582   -0.0100378   -0.0046900   -0.4895956   -0.8618031    0.1326330
  -0.0114896   -0.0100107   -0.0042249   -0.3636532   -0.8427619    0.3968737
  -0.0110481   -0.0101790   -0.0042683   -0.0741937   -0.9390965    0.3355489
  -0.0110101   -0.0101624   -0.0042084   -0.0643542   -0.9402460    0.3343590
  -0.0106133   -0.0101893   -0.0043958    0.2155367   -0.9685510    0.1243099
  -0.0060501   -0.0081081   -0.0024999    0.8919930   -0.3908284   -0.2271600
  -0.0060719   -0.0077035   -0.0029150    0.8526362   -0.3196714   -0.4133059
  -0.0062229   -0.0082890   -0.0027778    0.8550453   -0.3886878   -0.3432482
  -0.0064311   -0.0084560   -0.0030342    0.7961542   -0.3955154   -0.4579368
  -0.0065796   -0.0086966   -0.0030572    0.7484147   -0.5090438   -0.4251469
  -0.0067554   -0.0089293   -0.0030652    0.6715768   -0.6324246   -0.3860359
  -0.0070121   -0.0091330   -0.0030260    0.5086113   -0.8230099   -0.2529213
  -0.0071475   -0.0091133   -0.0032457    0.4264636   -0.7717263   -0.4717704
  -0.0079518   -0.0092366   -0.0035071    0.3416282   -0.7996899   -0.4937472
  -0.0074709   -0.0083670   -0.0042617    0.4289251   -0.5896037   -0.6843907
  -0.0080582   -0.0087492   -0.0041411    0.3576313   -0.6902864   -0.6289710
  -0.0087746   -0.0090341   -0.0042139    0.3374010   -0.6979364   -0.6317004
  -0.0086040   -0.0091523   -0.0040074    0.3750748   -0.6662131   -0.6445766
  -0.0087821   -0.0088880   -0.0044439    0.4600239   -0.6786828   -0.5725100
  -0.0096354   -0.0091114   -0.0050084    0.3625527   -0.7862189   -0.5004151
  -0.0084561   -0.0092483   -0.0038608    0.3429158   -0.6604415   -0.6680013
  -0.0096688   -0.0091369   -0.0050024    0.5126802   -0.6928600   -0.5070543
  -0.0102595   -0.0098249   -0.0047064    0.6309139   -0.6511915   -0.4217787
  -0.0104621   -0.0100480   -0.0046988    0.5128048   -0.7664304   -0.3868019
  -0.0054524    0.0016917   -0.0011352    0.9914861    0.1293174   -0.0152431
  -0.0054152    0.0014406   -0.0015327    0.9812490    0.1927219   -0.0029367
  -0.0051178    0.0000642   -0.0016029    0.9942597    0.1011308    0.0349314
  -0.0055114    0.0023491   -0.0011517    0.9960248    0.0883853   -0.0110733
  -0.0051057   -0.0006832   -0.0010234    0.9892095    0.0668783    0.1303528
  -0.0060325    0.0056590   -0.0008379    0.9718656    0.2353348   -0.0097348
  -0.0058041    0.0045788   -0.0016296    0.9856552    0.1670404   -0.0241095
  -0.0056735    0.0037843   -0.0016960    0.9877623    0.1371208   -0.0743203
  -0.0054987    0.0021053   -0.0015359    0.9939895    0.0767020   -0.0781138
  -0.0056382    0.0029497   -0.0023099    0.9941247    0.0935181   -0.0545010
  -0.0061482    0.0060437   -0.0009307    0.9858296    0.1558183   -0.0621340
  -0.0061189    0.0059227   -0.0009885    0.9542417    0.2980053   -0.0248107
  -0.0102585   -0.0029627   -0.0061315    0.3218832    0.5965337   -0.7352134
  -0.0101941   -0.0021833   -0.0054656    0.0221237    0.6055703   -0.7954842
  -0.0100750   -0.0020083   -0.0053331   -0.1115417    0.5045556   -0.8561437
  -0.0106460   -0.0025287   -0.0058463    0.2686822    0.6970576   -0.6647711
  -0.0088924    0.0011971   -0.0049575   -0.1257234    0.0836387   -0.9885333
  -0.0095547    0.0008402   -0.0047936    0.7880280   -0.0380390   -0.6144631
  -0.0091556    0.0009952   -0.0049147   -0.2428073    0.0077046   -0.9700439
  -0.0091612    0.0006878   -0.0049296   -0.1721351    0.0551961   -0.9835258
  -0.0090917    0.0009684   -0.0049332   -0.0036093    0.0298002   -0.9995494
  -0.0091425   -0.0008554   -0.0051023   -0.0658207    0.2561826   -0.9643848
  -0.0093572   -0.0025327   -0.0056291    0.0393293    0.3423758   -0.9387396
  -0.0090321   -0.0014896   -0.0053191   -0.0172950    0.2960339   -0.9550208
  -0.0091795   -0.0023145   -0.0055602    0.0710550    0.1971597   -0.9777930
  -0.0086080   -0.0022715   -0.0055123    0.1340795    0.1128969   -0.9845186
  -0.0084285   -0.0017488   -0.0053980    0.0918081    0.2271265   -0.9695281
  -0.0092115    0.0000854   -0.0049406   -0.0459810    0.0510932   -0.9976348
  -0.0083639    0.0000274   -0.0050225    0.0142871    0.1382389   -0.9902959
  -0.0086356    0.0038949   -0.0049316   -0.0745130   -0.0726755   -0.9945683
  -0.0082634    0.0043655   -0.0049989   -0.0697258    0.0165665   -0.9974286
  -0.0075817    0.0027899   -0.0049517   -0.0050129    0.0029378   -0.9999831
  -0.0072713    0.0042206   -0.0049789    0.1000841    0.0008190   -0.9949786
  -0.0074935    0.0021239   -0.0049512    0.0327800   -0.0539918   -0.9980032
  -0.0076964    0.0019008   -0.0049434    0.0433193   -0.0488187   -0.9978678
  -0.0078959    0.0016769   -0.0049376    0.6993195   -0.0159146   -0.7146320
  -0.0083401    0.0018751   -0.0049122   -0.0614608    0.0947098   -0.9936059
  -0.0078959    0.0016769   -0.0049376    0.7064277    0.0423030   -0.7065199
  -0.0087606    0.0042659   -0.0049329   -0.2363055    0.0759766   -0.9687039
  -0.0070430    0.0065196   -0.0038050    0.3992501    0.6847498   -0.6096861
  -0.0068725    0.0065732   -0.0035262    0.5167653    0.7827367   -0.3468096
  -0.0068943    0.0065717   -0.0035647    0.4878911    0.7711859   -0.4089432
  -0.0068147    0.0067481   -0.0029594    0.5657652    0.7936262   -0.2237570
  -0.0065136    0.0065388   -0.0025967    0.7854378    0.6047888   -0.1315979
  -0.0065006    0.0066373   -0.0019902    0.7462598    0.6572776   -0.1052737
  -0.0077364    0.0056311   -0.0046880    0.1630425    0.5368307   -0.8277861
  -0.0070401    0.0058692   -0.0043363    0.3540533    0.5413372   -0.7626272
  -0.0072388    0.0054064   -0.0047070    0.3055028    0.4634731   -0.8317817
  -0.0075996    0.0052912   -0.0048760    0.2094015    0.3673718   -0.9061948
  -0.0077539    0.0047611   -0.0050041    0.0601521    0.1126972   -0.9918070
  -0.0061857    0.0060917   -0.0011838    0.9942873    0.0707964   -0.0798795
  -0.0060925    0.0058381   -0.0016073    0.9855925    0.1634269   -0.0435775
  -0.0060700    0.0057771   -0.0013526    0.9619850    0.2729900   -0.0078290
  -0.0062539    0.0062924   -0.0019412    0.8697752    0.4903616   -0.0551054
  -0.0061271    0.0059555   -0.0021239    0.9761106    0.2123003   -0.0462247
  -0.0050817   -0.0019655   -0.0009359    0.9873879    0.0667669    0.1435526
  -0.0050315   -0.0022748   -0.0010734    0.9983179    0.0503115   -0.0288109
  -0.0050510   -0.0019217   -0.0012208    0.9984646    0.0478090    0.0279787
  -0.0050011   -0.0026293   -0.0009311    0.9947688    0.0356719   -0.0957208
  -0.0050538   -0.0029032   -0.0010095    0.8264824   -0.2785773   -0.4892050
  -0.0050832   -0.0032385   -0.0008335    0.7213297   -0.4256792   -0.5463339
  -0.0051744   -0.0035521   -0.0006216    0.5804970   -0.5078196   -0.6365080
  -0.0052464   -0.0041642   -0.0005295    0.7413827    0.1813742   -0.6461076
  -0.0052147   -0.0044664   -0.0006560    0.8565456    0.3150978   -0.4087089
  -0.0051784   -0.0050102   -0.0011623    0.9004493    0.3025879   -0.3124607
