NORM_ASCII
1133 2262
   0.0015996   -0.1131381    0.0138863   -0.2363903    0.8105273   -0.5358779
   0.0007240   -0.1135616    0.0136083   -0.2800159    0.7631667   -0.5823811
   0.0058228   -0.1202127    0.0186700    0.7233724    0.0074387    0.6904180
   0.0053251   -0.1232520    0.0191757    0.5127206    0.0174176    0.8583788
   0.0052800   -0.1212263    0.0191274    0.5260822    0.0345475    0.8497317
   0.0056037   -0.1293232    0.0191476    0.6732836    0.0054546    0.7393642
   0.0048432   -0.1227378    0.0193942    0.3341687    0.0534671    0.9409955
   0.0049634   -0.1262860    0.0195042    0.4856431    0.0187862    0.8739553
   0.0051423   -0.1272987    0.0194129    0.4390822    0.0100260    0.8983909
   0.0052222   -0.1283132    0.0194237    0.4643812    0.0480251    0.8843324
   0.0074187   -0.1182042    0.0172874    0.9297396   -0.1021991    0.3537509
   0.0074222   -0.1181816    0.0172894    0.8712194   -0.0783560    0.4846000
   0.0072993   -0.1176827    0.0174695    0.8550238    0.0017936    0.5185856
   0.0072580   -0.1176831    0.0175151    0.7691813    0.0014969    0.6390289
   0.0071595   -0.1176872    0.0176445    0.8079879   -0.0390049    0.5879066
   0.0067813   -0.1166914    0.0181839    0.7573040    0.0559680    0.6506599
   0.0069184   -0.1150967    0.0174688    0.8893825    0.2626262    0.3742009
   0.0065576   -0.1146516    0.0180247    0.8282367    0.2787402    0.4861357
   0.0071892   -0.1150148    0.0165902    0.8368225    0.5178517    0.1776448
   0.0068288   -0.1145290    0.0171458    0.8322577    0.5324979    0.1542499
   0.0073018   -0.1181879    0.0174761    0.9741014   -0.0342389    0.2235044
   0.0073018   -0.1181879    0.0174761    0.9625435    0.0073447    0.2710279
   0.0060488   -0.1197117    0.0185440    0.5596750   -0.0361628    0.8279228
   0.0058614   -0.1192064    0.0186840    0.6611902   -0.0315249    0.7495556
   0.0056654   -0.1192063    0.0188239    0.6694889   -0.0384553    0.7418260
   0.0053786   -0.1176978    0.0191538    0.5396371   -0.0761216    0.8384493
   0.0057707   -0.1192046    0.0187353    0.5700394   -0.0396325    0.8206609
   0.0054236   -0.1171961    0.0191707    0.5588594   -0.0846191    0.8249338
   0.0066045   -0.1171995    0.0183409    0.6493043   -0.0858155    0.7556716
   0.0058786   -0.1202137    0.0186245    0.5771489   -0.0216625    0.8163516
   0.0064793   -0.1141609    0.0150952    0.4191674    0.9065670   -0.0493462
   0.0052796   -0.1139394    0.0148712    0.0866529    0.9396391    0.3310131
   0.0061688   -0.1140676    0.0151628    0.2744625    0.9569094    0.0948407
   0.0017885   -0.1129897    0.0140020   -0.2113884    0.9265139   -0.3112667
   0.0037233   -0.1138593    0.0154730    0.3700684    0.8588357    0.3541902
   0.0028272   -0.1130085    0.0149084    0.1909472    0.8588746    0.4752615
   0.0043165   -0.1140867    0.0155823    0.3155922    0.9352763    0.1601867
   0.0046275   -0.1141761    0.0155144    0.1753423    0.9561155    0.2347300
   0.0052442   -0.1141548    0.0153744    0.0029848    0.9421508    0.3351760
   0.0025542   -0.1128201    0.0144754    0.0594630    0.9961817    0.0639227
   0.0068788   -0.1144529    0.0145614    0.5123972    0.8350056   -0.2005362
   0.0070282   -0.1146522    0.0159637    0.6198928    0.7820229   -0.0645997
   0.0071073   -0.1147733    0.0162756    0.7891664    0.5984226    0.1382277
   0.0069110   -0.1144337    0.0148430    0.5898178    0.8075294    0.0033439
   0.0068816   -0.1145338    0.0158715    0.5938297    0.8020286    0.0641600
   0.0067724   -0.1329361    0.0175559    0.9618894    0.0201997    0.2726916
   0.0057585   -0.1303310    0.0189922    0.7173225   -0.0017302    0.6967391
   0.0066109   -0.1328339    0.0179776    0.8673147    0.0428453    0.4959128
   0.0060716   -0.1323472    0.0186839    0.7811069    0.0463463    0.6226749
   0.0059090   -0.1313380    0.0188341    0.7360975    0.0221808    0.6765120
   0.0042791   -0.1351163    0.0157686   -0.0379405    0.1438782   -0.9888678
   0.0036225   -0.1345875    0.0158667   -0.0062390    0.1010551   -0.9948613
   0.0021379   -0.1350140    0.0157148   -0.0017843    0.2190710   -0.9757073
   0.0069894   -0.1347780    0.0164561    0.6452267    0.3094694   -0.6985064
   0.0064939   -0.1352306    0.0159946    0.3893515    0.3167423   -0.8649160
   0.0055565   -0.1350372    0.0157765    0.2216095    0.2032529   -0.9537177
   0.0051599   -0.1356507    0.0155964    0.0362444    0.2103090   -0.9769629
   0.0060290   -0.1352036    0.0158838    0.2422090    0.2368806   -0.9408626
   0.0070606   -0.1343077    0.0169643    0.9695897    0.2357615   -0.0656687
   0.0069673   -0.1353899    0.0182243    0.8722357    0.2237978    0.4348785
   0.0063432   -0.1343750    0.0186109    0.7647994    0.1316960    0.6306647
  -0.0003080   -0.1269020    0.0170230   -0.9804217   -0.1853737    0.0664063
  -0.0002303   -0.1264425    0.0177191   -0.9397461   -0.1043200    0.3255681
  -0.0004707   -0.1258682    0.0167761   -0.9808111   -0.1373753    0.1383388
   0.0001500   -0.1333086    0.0171093   -0.9804053    0.1610583   -0.1134271
   0.0002135   -0.1320147    0.0176588   -0.9992172   -0.0166706    0.0358748
   0.0001866   -0.1330120    0.0174633   -0.9878917    0.1149684    0.1041743
   0.0002544   -0.1325281    0.0177543   -0.9577759   -0.0082309    0.2873979
   0.0007502   -0.1340873    0.0161826   -0.3733619    0.2621538   -0.8898743
  -0.0002029   -0.1355012    0.0171735   -0.9750280    0.1984548    0.0996796
   0.0000683   -0.1349551    0.0162907   -0.7938887    0.2653643   -0.5471037
  -0.0000586   -0.1350080    0.0172582   -0.9664049    0.1615468    0.1999106
   0.0002001   -0.1304979    0.0176356   -0.9982675   -0.0468971    0.0355353
   0.0003061   -0.1315330    0.0179729   -0.9598454   -0.0059330    0.2804667
   0.0002566   -0.1305180    0.0179321   -0.9316981   -0.0457438    0.3603418
   0.0003815   -0.1295328    0.0182195   -0.9096785   -0.0228602    0.4146836
   0.0003128   -0.1285189    0.0182087   -0.8582933   -0.0886742    0.5054399
   0.0010469   -0.1349730    0.0158525   -0.1718916    0.2949194   -0.9399339
  -0.0021378   -0.1181573    0.0158000   -0.9710929   -0.2303526   -0.0625806
  -0.0015538   -0.1206966    0.0156106   -0.9798836   -0.1958196   -0.0385063
  -0.0023759   -0.1160823    0.0151082   -0.9779076    0.0475430   -0.2035594
  -0.0025049   -0.1166262    0.0158183   -0.9999709   -0.0069074    0.0032456
  -0.0024260   -0.1159757    0.0158606   -0.9812927    0.1882628    0.0402719
  -0.0024273   -0.1171531    0.0161331   -0.9687920   -0.1813906    0.1689365
  -0.0021907   -0.1155450    0.0144337   -0.9097747    0.0457505   -0.4125734
  -0.0019757   -0.1150358    0.0142025   -0.8393391    0.2002000   -0.5054007
  -0.0004614   -0.1140622    0.0136621   -0.2802949    0.7506590   -0.5982858
   0.0006056   -0.1134831    0.0137957   -0.3613166    0.8814305   -0.3041885
   0.0002858   -0.1136029    0.0138598   -0.3481393    0.8742123   -0.3384552
  -0.0016588   -0.1145313    0.0139693   -0.6485986    0.3693392   -0.6655136
  -0.0008806   -0.1141884    0.0136644   -0.2764833    0.5942009   -0.7553028
  -0.0006925   -0.1140187    0.0137796   -0.0947643    0.7414664   -0.6642645
  -0.0011876   -0.1142719    0.0137362   -0.4332310    0.5252099   -0.7324380
  -0.0009293   -0.1223448    0.0172953   -0.8953605   -0.1518471    0.4186550
  -0.0002640   -0.1243296    0.0180704   -0.8724335   -0.0738061    0.4831278
  -0.0002470   -0.1254393    0.0178306   -0.9159139   -0.1070352    0.3868399
  -0.0003454   -0.1234341    0.0181451   -0.7709385   -0.0570867    0.6343461
  -0.0005750   -0.1223953    0.0178579   -0.8371331   -0.0866896    0.5400862
  -0.0015960   -0.1202457    0.0165148   -0.9606891   -0.1725311    0.2175072
  -0.0011984   -0.1208119    0.0172018   -0.8835511   -0.1809082    0.4319835
   0.0014820   -0.1130811    0.0140741   -0.3188902    0.8932886   -0.3167720
   0.0056565   -0.1197095    0.0188231    0.5776587    0.0046426    0.8162652
   0.0058305   -0.1197093    0.0186699    0.9446330   -0.0049922    0.3280908
   0.0058305   -0.1197093    0.0186699    0.8792512   -0.0179945    0.4760183
   0.0050511   -0.1217286    0.0192518    0.3744828    0.0323074    0.9266709
   0.0050073   -0.1207147    0.0192148    0.4315235    0.0264856    0.9017128
   0.0052054   -0.1298283    0.0194284    0.4958920   -0.0081390    0.8683460
   0.0050051   -0.1288159    0.0195555    0.4080519    0.0271073    0.9125562
   0.0034184   -0.1221878    0.0197268    0.1332931    0.0691699    0.9886599
   0.0036766   -0.1227039    0.0197157    0.1719696    0.0619677    0.9831513
   0.0047108   -0.1257762    0.0196042    0.3376528    0.0280708    0.9408521
   0.0032136   -0.1211664    0.0196747    0.0635675    0.0495922    0.9967446
   0.0038702   -0.1196730    0.0195445    0.1916078    0.0047744    0.9814600
   0.0037374   -0.1237209    0.0197638    0.1603031    0.0619716    0.9851205
   0.0043413   -0.1236316    0.0196150    0.2716828    0.0687511    0.9599280
   0.0040580   -0.1262639    0.0198130    0.1773047    0.0165554    0.9840168
   0.0041679   -0.1272775    0.0198046    0.2573769   -0.0036704    0.9663041
   0.0038195   -0.1287804    0.0198649    0.2026398    0.0136233    0.9791586
   0.0058663   -0.1161901    0.0189184    0.6168722   -0.0369776    0.7861942
   0.0057041   -0.1156876    0.0190742    0.6547661    0.0229790    0.7554821
   0.0063343   -0.1149903    0.0184125    0.7098671    0.1311480    0.6920180
   0.0064301   -0.1146565    0.0182070    0.7293885    0.2412788    0.6401382
   0.0066660   -0.1146449    0.0178306    0.8697182    0.3189416    0.3766516
   0.0064711   -0.1141693    0.0177047    0.7504054    0.6177506    0.2351083
   0.0062375   -0.1141272    0.0180821    0.6709600    0.5630769    0.4824491
   0.0068992   -0.1146003    0.0169290    0.7812877    0.6208388    0.0644101
   0.0067900   -0.1144061    0.0163361    0.6591710    0.7507027   -0.0440345
   0.0065528   -0.1142317    0.0167103    0.4084265    0.9121001    0.0355139
   0.0063846   -0.1141016    0.0174082    0.4745269    0.8667751   -0.1533790
   0.0058305   -0.1197093    0.0186699    0.9298383   -0.0173950    0.3675570
   0.0048479   -0.1186939    0.0193390    0.3953144   -0.0819202    0.9148856
   0.0048036   -0.1197036    0.0193398    0.3713695   -0.0137177    0.9283838
   0.0051680   -0.1156911    0.0195259    0.5726801   -0.0128799    0.8196778
   0.0057447   -0.1141232    0.0154231   -0.0703246    0.9687711    0.2377749
   0.0067125   -0.1143512    0.0160260    0.6580683    0.7511360   -0.0523524
   0.0020543   -0.1128712    0.0144271   -0.2091611    0.9723465    0.1038941
   0.0015569   -0.1130273    0.0143815   -0.3552018    0.9134090    0.1987853
   0.0037711   -0.1139220    0.0160263    0.3081042    0.9491252    0.0650630
   0.0026436   -0.1135573    0.0161074    0.2043046    0.9784830    0.0288224
   0.0026665   -0.1132971    0.0153343    0.1024933    0.8967300    0.4305467
   0.0018725   -0.1134977    0.0156280   -0.2537514    0.9021865    0.3488120
   0.0023251   -0.1129741    0.0148578   -0.1857295    0.8894756    0.4175378
   0.0047819   -0.1142648    0.0161340    0.2529422    0.9671141    0.0266549
   0.0050912   -0.1143074    0.0160654    0.0283539    0.9911830    0.1294309
   0.0068879   -0.1145504    0.0161369    0.5379140    0.8194183   -0.1979954
   0.0051953   -0.1313428    0.0194372    0.4943978   -0.0158484    0.8690913
   0.0060912   -0.1328538    0.0187011    0.7467986    0.0611046    0.6622372
   0.0057594   -0.1323522    0.0190129    0.6659161    0.0215044    0.7457167
   0.0043849   -0.1361202    0.0155901   -0.1340374    0.2063642   -0.9692512
   0.0032846   -0.1360733    0.0156469    0.0457219    0.1695264   -0.9844645
   0.0039000   -0.1366717    0.0155489   -0.0668350    0.1575238   -0.9852509
   0.0029513   -0.1355579    0.0157237    0.0911118    0.1733563   -0.9806356
   0.0017590   -0.1358343    0.0155188   -0.0667172    0.3065815   -0.9495033
   0.0024669   -0.1370239    0.0153088    0.2115720    0.1825425   -0.9601643
   0.0017979   -0.1359943    0.0154658    0.0239016    0.3269028   -0.9447557
   0.0070988   -0.1352790    0.0163107    0.7559511    0.2560994   -0.6024541
   0.0072420   -0.1352974    0.0165115    0.9157639    0.2574349   -0.3083890
   0.0070908   -0.1362964    0.0159568    0.6052037    0.2986565   -0.7379246
   0.0067040   -0.1362161    0.0157158    0.4462924    0.3749768   -0.8125364
   0.0058797   -0.1356914    0.0157256    0.1664553    0.3469727   -0.9229857
   0.0050569   -0.1361446    0.0154774   -0.0787092    0.2242107   -0.9713570
   0.0072053   -0.1353614    0.0175874    0.9435713    0.1668147    0.2860875
   0.0073607   -0.1358493    0.0171658    0.9766908    0.0804266    0.1990141
   0.0065666   -0.1354052    0.0187602    0.6402004    0.2168110    0.7369779
   0.0069308   -0.1359089    0.0184683    0.8558665    0.0917699    0.5089900
   0.0063237   -0.1352937    0.0188698    0.5425070    0.2373766    0.8058154
   0.0059968   -0.1345399    0.0189208    0.5971642    0.1414103    0.7895556
   0.0059448   -0.1333638    0.0188770    0.6017695    0.0370835    0.7978084
   0.0001318   -0.1259965    0.0183986   -0.7825889   -0.0677800    0.6188380
   0.0003927   -0.1330535    0.0179959   -0.8846750    0.0155493    0.4659490
   0.0006706   -0.1335999    0.0184433   -0.7994347   -0.0032727    0.6007441
   0.0005881   -0.1320788    0.0184149   -0.8193672   -0.0330075    0.5723180
   0.0002148   -0.1358144    0.0158674   -0.4864569    0.3324836   -0.8079692
  -0.0001265   -0.1354599    0.0164365   -0.9284122    0.2460592   -0.2783983
  -0.0002497   -0.1358544    0.0166255   -0.9747253    0.1794499   -0.1330728
  -0.0002968   -0.1359827    0.0168586   -0.9900774    0.0830331    0.1133676
  -0.0000905   -0.1360436    0.0176761   -0.9391819    0.0210488    0.3427745
   0.0001423   -0.1355761    0.0181329   -0.8752946    0.1754153    0.4506539
   0.0000788   -0.1350465    0.0177693   -0.9015967    0.2115483    0.3773205
  -0.0000783   -0.1364518    0.0159531   -0.8695677    0.1311445   -0.4760810
   0.0004018   -0.1342837    0.0180599   -0.8494327    0.1127189    0.5155177
   0.0007194   -0.1310887    0.0186349   -0.7873184   -0.0447980    0.6149170
   0.0005462   -0.1305644    0.0184504   -0.8045326   -0.0448047    0.5922160
   0.0007492   -0.1285783    0.0188575   -0.7517936   -0.0451576    0.6578505
   0.0005382   -0.1275497    0.0187021   -0.7073587   -0.0673154    0.7036422
   0.0004737   -0.1265386    0.0187420   -0.7285714   -0.0597648    0.6823576
   0.0009488   -0.1358173    0.0155385   -0.1625805    0.3576997   -0.9195752
  -0.0019967   -0.1186926    0.0162020   -0.9685519   -0.2120137    0.1302209
  -0.0020185   -0.1177326    0.0170411   -0.9339336   -0.2210552    0.2808963
  -0.0018633   -0.1192067    0.0162421   -0.9526270   -0.2250059    0.2046319
  -0.0021991   -0.1151037    0.0154700   -0.9354040    0.3335709    0.1172598
  -0.0023745   -0.1156103    0.0156277   -0.9510899    0.2873701    0.1133419
  -0.0021946   -0.1150549    0.0146877   -0.9558230    0.2582654   -0.1403617
  -0.0023328   -0.1166821    0.0166200   -0.9397215    0.0183915    0.3414459
  -0.0024344   -0.1161422    0.0161186   -0.9441272    0.2052400    0.2578768
  -0.0020859   -0.1156814    0.0165918   -0.8927629    0.3289750    0.3078147
  -0.0019644   -0.1172497    0.0173543   -0.8630941   -0.1131324    0.4922089
  -0.0019573   -0.1144420    0.0145674   -0.8280975    0.5375312   -0.1591061
  -0.0018436   -0.1143454    0.0143758   -0.7684227    0.5424613   -0.3395029
  -0.0018072   -0.1145343    0.0141386   -0.7168979    0.4406379   -0.5402736
   0.0000661   -0.1135518    0.0142457   -0.2166313    0.9716298   -0.0949025
  -0.0007405   -0.1137037    0.0142697   -0.2023666    0.9414231   -0.2697599
   0.0005645   -0.1134480    0.0142928   -0.2960976    0.9507549    0.0916040
  -0.0013065   -0.1141526    0.0139226   -0.4988798    0.6978131   -0.5139804
  -0.0013531   -0.1139018    0.0144142   -0.5197683    0.7904686   -0.3240376
  -0.0008121   -0.1138723    0.0139653   -0.2275713    0.7737918   -0.5911494
  -0.0006784   -0.1218809    0.0177885   -0.8007698   -0.1168877    0.5874563
  -0.0001342   -0.1244629    0.0183003   -0.7977926   -0.0557081    0.6003529
   0.0000126   -0.1239742    0.0184628   -0.6866133   -0.0228146    0.7266648
  -0.0002347   -0.1219328    0.0183013   -0.7142780   -0.0496449    0.6980991
   0.0006812   -0.1225239    0.0190112   -0.5522061   -0.0076471    0.8336726
   0.0006399   -0.1215114    0.0190137   -0.5248379   -0.0262180    0.8507983
  -0.0015302   -0.1197717    0.0169775   -0.9236108   -0.1779135    0.3395436
  -0.0016315   -0.1192575    0.0169093   -0.9331289   -0.1985374    0.2997554
  -0.0010128   -0.1203472    0.0177354   -0.7542541   -0.1395675    0.6415775
  -0.0012682   -0.1194338    0.0176596   -0.7609652   -0.1691622    0.6263514
  -0.0013870   -0.1198003    0.0173282   -0.8896961   -0.2025283    0.4091738
   0.0046099   -0.1202021    0.0193905    0.3044135   -0.0034053    0.9525339
   0.0044515   -0.1298121    0.0197444    0.2473805   -0.0121305    0.9688425
   0.0045479   -0.1303193    0.0197091    0.3301800   -0.0180335    0.9437457
   0.0029430   -0.1231810    0.0197883    0.0106104    0.0440700    0.9989721
   0.0028755   -0.1216575    0.0197109   -0.0750186    0.0540441    0.9957165
   0.0041353   -0.1252542    0.0197646    0.2114877    0.0399165    0.9765652
   0.0031341   -0.1201489    0.0196256    0.0565361   -0.0036318    0.9983940
   0.0027354   -0.1196260    0.0196239   -0.0889559   -0.0295133    0.9955982
   0.0016533   -0.1190611    0.0194693   -0.1884447   -0.0076274    0.9820542
   0.0036056   -0.1186546    0.0196273    0.1532294   -0.0653094    0.9860301
   0.0033903   -0.1242128    0.0198146    0.0519353    0.0304778    0.9981853
   0.0032807   -0.1282544    0.0199080   -0.0172651   -0.0117560    0.9997818
   0.0027129   -0.1267097    0.0198679   -0.0840581    0.0075105    0.9964326
   0.0034023   -0.1292668    0.0198722    0.0104279   -0.0207861    0.9997296
   0.0056793   -0.1151143    0.0190530    0.6562197    0.1383317    0.7417816
   0.0050867   -0.1146720    0.0194649    0.5677640    0.2371629    0.7882879
   0.0058944   -0.1143775    0.0186561    0.6493638    0.3643269    0.6675272
   0.0062742   -0.1139951    0.0175809    0.4662674    0.8845577    0.0123486
   0.0052764   -0.1141510    0.0190547    0.5578648    0.4783259    0.6782266
   0.0058065   -0.1138932    0.0183353    0.4137140    0.8977717    0.1511515
   0.0055921   -0.1142971    0.0161148   -0.0137187    0.9972123   -0.0733447
   0.0060815   -0.1139782    0.0174610    0.1564265    0.9641624   -0.2142932
   0.0046872   -0.1156819    0.0197501    0.3611200   -0.0537491    0.9309690
   0.0044158   -0.1155959    0.0198423    0.2305807   -0.0870978    0.9691473
   0.0049498   -0.1151819    0.0196466    0.4450639    0.0803832    0.8918838
   0.0016360   -0.1131599    0.0146934   -0.3589290    0.8112375    0.4615883
   0.0006428   -0.1135381    0.0146036   -0.2768811    0.8463893    0.4549307
   0.0020201   -0.1131333    0.0149317   -0.3513292    0.8411637    0.4111101
   0.0036543   -0.1139038    0.0162151    0.3063952    0.9514442    0.0295958
   0.0039250   -0.1139970    0.0166457    0.3334999    0.9419626   -0.0385277
   0.0035361   -0.1138274    0.0164025    0.4500625    0.8801802   -0.1507535
   0.0036502   -0.1139025    0.0162216    0.5488761    0.8343989   -0.0501345
   0.0023347   -0.1135476    0.0161768   -0.1110169    0.9862431    0.1224736
   0.0022939   -0.1135184    0.0166741   -0.2052727    0.9739027   -0.0968335
   0.0023721   -0.1134407    0.0156763   -0.0707690    0.9647515    0.2534684
   0.0025592   -0.1134035    0.0170994   -0.0859467    0.8949840   -0.4377406
   0.0034928   -0.1137010    0.0168973    0.3540665    0.8646670   -0.3563536
   0.0009160   -0.1137322    0.0150368   -0.3219695    0.8595608    0.3968513
   0.0016026   -0.1134454    0.0151985   -0.4008507    0.8244322    0.3995375
   0.0008794   -0.1138837    0.0155384   -0.2995294    0.9366634    0.1815042
   0.0011472   -0.1138428    0.0159655   -0.2945035    0.9500921    0.1029206
   0.0050513   -0.1143093    0.0165634    0.0703937    0.9878214   -0.1387573
   0.0041189   -0.1140547    0.0167665    0.3028452    0.9455404   -0.1193234
   0.0053707   -0.1323525    0.0192948    0.5374630   -0.0298651    0.8427584
   0.0042664   -0.1308162    0.0197664    0.1791079   -0.0315150    0.9833245
   0.0050280   -0.1343613    0.0193636    0.2823345   -0.0565602    0.9576472
   0.0049261   -0.1318413    0.0195365    0.3347912   -0.0340998    0.9416751
   0.0046989   -0.1362107    0.0155173   -0.1341291    0.1716369   -0.9759868
   0.0041815   -0.1366120    0.0155198   -0.1292253    0.1530322   -0.9797357
   0.0034060   -0.1369444    0.0155061    0.0813117    0.1091814   -0.9906906
   0.0041824   -0.1371136    0.0154670   -0.0847709    0.0757801   -0.9935146
   0.0027201   -0.1375456    0.0153624    0.2487230   -0.0407250   -0.9677181
   0.0013889   -0.1374560    0.0149282    0.1419027    0.0688539   -0.9874830
   0.0013589   -0.1369565    0.0150201    0.0764421    0.2950301   -0.9524252
   0.0015128   -0.1367436    0.0151133    0.1156175    0.3579254   -0.9265646
   0.0008896   -0.1365239    0.0152474   -0.1439007    0.4065170   -0.9022397
   0.0008801   -0.1359533    0.0154972   -0.2296874    0.3884677   -0.8923769
   0.0074233   -0.1372775    0.0159113    0.8154750    0.2180594   -0.5361442
   0.0074703   -0.1363152    0.0164542    0.9513258    0.1841172   -0.2471438
   0.0074030   -0.1358231    0.0167155    0.9618982    0.1862136   -0.2001908
   0.0074273   -0.1359781    0.0166857    0.9834290    0.1650298   -0.0750507
   0.0072232   -0.1369654    0.0157840    0.6988552    0.3171434   -0.6411095
   0.0067488   -0.1372196    0.0152747    0.4322722    0.2057842   -0.8779485
   0.0063201   -0.1362601    0.0154782    0.3133491    0.4163467   -0.8535032
   0.0071289   -0.1372511    0.0155238    0.6915635    0.2424920   -0.6803951
   0.0062025   -0.1366878    0.0152646    0.0754283    0.2811376   -0.9566986
   0.0056333   -0.1365392    0.0153160   -0.0427846    0.2802246   -0.9589805
   0.0054246   -0.1371583    0.0152626   -0.1106877    0.0045838   -0.9938447
   0.0070679   -0.1368981    0.0180400    0.9328927   -0.0658835    0.3540770
   0.0069990   -0.1378999    0.0179387    0.9444397    0.0073470    0.3286026
   0.0068277   -0.1364213    0.0186708    0.8530381   -0.0149380    0.5216347
   0.0076105   -0.1378269    0.0162948    0.9989002    0.0417084    0.0214194
   0.0064980   -0.1364268    0.0189895    0.5431782    0.0639199    0.8371808
   0.0061485   -0.1354019    0.0190236    0.4634558    0.1707421    0.8695147
   0.0058385   -0.1348871    0.0190874    0.3760212    0.0726252    0.9237606
   0.0007966   -0.1260666    0.0190516   -0.6136387   -0.0103517    0.7895191
   0.0005650   -0.1250343    0.0188533   -0.6428776   -0.0213432    0.7656715
   0.0007560   -0.1341141    0.0185394   -0.7559271    0.0469468    0.6529703
   0.0007332   -0.1331021    0.0185154   -0.7294414   -0.0221645    0.6836841
   0.0004600   -0.1363385    0.0155021   -0.4500796    0.2998396   -0.8411448
   0.0002023   -0.1364331    0.0156040   -0.6146266    0.2263898   -0.7556334
  -0.0002199   -0.1359568    0.0163831   -0.9413371    0.1357650   -0.3089537
  -0.0003076   -0.1364721    0.0165956   -0.9944100   -0.0221760   -0.1032329
  -0.0001758   -0.1365270    0.0174144   -0.9442960   -0.0606794    0.3234548
  -0.0002676   -0.1365054    0.0171296   -0.9810888   -0.0413206    0.1890963
   0.0001902   -0.1370955    0.0181522   -0.9240499   -0.0935799    0.3706409
   0.0003537   -0.1361261    0.0186885   -0.8690700    0.0303071    0.4937600
   0.0005340   -0.1356357    0.0187964   -0.6725622    0.1913908    0.7148634
   0.0005786   -0.1353106    0.0187029   -0.6740804    0.2464221    0.6963417
   0.0003924   -0.1350940    0.0183235   -0.8168644    0.2205690    0.5329934
   0.0000749   -0.1374343    0.0155353   -0.8111702    0.0484105   -0.5828031
  -0.0001739   -0.1369558    0.0161602   -0.9522530   -0.0206800   -0.3046087
  -0.0002338   -0.1369677    0.0163847   -0.9796502   -0.0889174   -0.1799421
   0.0008133   -0.1346333    0.0187103   -0.7151263    0.1686737    0.6783388
   0.0010197   -0.1306182    0.0189812   -0.6888921   -0.0271489    0.7243553
   0.0011754   -0.1341598    0.0189557   -0.5885635    0.0070047    0.8084207
   0.0011491   -0.1296245    0.0191391   -0.5800216   -0.0317434    0.8139824
   0.0012498   -0.1276169    0.0192789   -0.5373629   -0.0393401    0.8424330
   0.0012209   -0.1271118    0.0192934   -0.5186275   -0.0477156    0.8536678
   0.0010013   -0.1265904    0.0191844   -0.5754100   -0.0417134    0.8168007
  -0.0016329   -0.1187796    0.0173457   -0.8466128   -0.1948377    0.4952626
  -0.0018527   -0.1151972    0.0167319   -0.9212326    0.3023713    0.2447489
  -0.0016579   -0.1142461    0.0157975   -0.7947295    0.5895232    0.1444553
  -0.0021060   -0.1147713    0.0152628   -0.9043732    0.4125534    0.1091276
  -0.0017557   -0.1146836    0.0165254   -0.8881893    0.4188653    0.1888695
  -0.0018850   -0.1143025    0.0148727   -0.7744599    0.6303755    0.0532784
  -0.0019787   -0.1167438    0.0173450   -0.7866318    0.0848687    0.6115617
  -0.0020012   -0.1162269    0.0171727   -0.8656508    0.2203526    0.4495480
  -0.0017968   -0.1152132    0.0169506   -0.9150504    0.2596513    0.3086486
  -0.0016212   -0.1175977    0.0176835   -0.7060024   -0.0917617    0.7022396
  -0.0013932   -0.1139075    0.0149125   -0.4960412    0.8675491    0.0360789
  -0.0014684   -0.1139420    0.0146047   -0.6202066    0.7823408   -0.0573286
   0.0003363   -0.1136216    0.0146755   -0.2273210    0.8293736    0.5103573
  -0.0001360   -0.1136287    0.0145789   -0.1000282    0.9685673    0.2277535
  -0.0004731   -0.1136610    0.0146969   -0.0339349    0.9780224    0.2057197
  -0.0006337   -0.1208870    0.0180180   -0.6706905   -0.0796410    0.7374493
   0.0011020   -0.1235678    0.0192593   -0.4790389    0.0046563    0.8777813
   0.0015378   -0.1225884    0.0194327   -0.3877249   -0.0094918    0.9217262
   0.0012308   -0.1205454    0.0192878   -0.3897068   -0.0201381    0.9207188
   0.0015573   -0.1215806    0.0194350   -0.3809624    0.0119250    0.9245136
  -0.0008178   -0.1178555    0.0181227   -0.5476802   -0.0911787    0.8317048
   0.0011262   -0.1185225    0.0193280   -0.3895772   -0.0926875    0.9163180
   0.0005173   -0.1184767    0.0190176   -0.5265586   -0.0915516    0.8451949
  -0.0000707   -0.1180683    0.0186509   -0.5887369   -0.0883212    0.8034851
  -0.0008727   -0.1198677    0.0179092   -0.5936696   -0.0996863    0.7985105
  -0.0011625   -0.1188341    0.0178816   -0.5713942   -0.1133008    0.8128170
   0.0026432   -0.1241790    0.0198182   -0.1276980    0.0336847    0.9912409
   0.0023817   -0.1226450    0.0197127   -0.2268831    0.0215439    0.9736837
   0.0021269   -0.1216182    0.0196284   -0.2180423    0.0511101    0.9746001
   0.0014214   -0.1200548    0.0193783   -0.2900162    0.0043364    0.9570119
   0.0028543   -0.1186252    0.0196877   -0.0119027   -0.0874287    0.9960997
   0.0023528   -0.1185987    0.0196376   -0.1556324   -0.1183101    0.9807045
   0.0033242   -0.1181430    0.0197131    0.0974580   -0.1319297    0.9864565
   0.0026520   -0.1246847    0.0198366   -0.1905091    0.0230598    0.9814145
   0.0023007   -0.1281999    0.0197695   -0.3175616   -0.0275974    0.9478360
   0.0023568   -0.1292119    0.0197426   -0.2757111   -0.0189245    0.9610543
   0.0022293   -0.1261751    0.0197556   -0.2959095    0.0126893    0.9551317
   0.0031006   -0.1297580    0.0198653   -0.0701291   -0.0124402    0.9974604
   0.0043653   -0.1146601    0.0198017    0.3389523    0.2127014    0.9164439
   0.0041932   -0.1141404    0.0196895    0.3702188    0.3794044    0.8479330
   0.0053779   -0.1137526    0.0185910    0.4873508    0.8165067    0.3095255
   0.0042976   -0.1138468    0.0194899    0.4181418    0.5177609    0.7463786
   0.0048358   -0.1137142    0.0190384    0.4741633    0.6358919    0.6089422
   0.0052628   -0.1138024    0.0187814    0.5360062    0.6415931    0.5486854
   0.0057725   -0.1139608    0.0175305   -0.0329680    0.9715077   -0.2347037
   0.0052999   -0.1136703    0.0182802    0.3232485    0.9446175   -0.0566416
   0.0052256   -0.1137398    0.0179733    0.2041662    0.9043324   -0.3748319
   0.0043865   -0.1151695    0.0198627    0.2805660    0.0399400    0.9590034
   0.0032379   -0.1161398    0.0200642    0.0875834   -0.1501166    0.9847813
   0.0031594   -0.1156342    0.0201087    0.1284019   -0.0245542    0.9914182
   0.0007233   -0.1137174    0.0149170   -0.2225437    0.7995529    0.5578436
   0.0037306   -0.1139258    0.0165245    0.8236852    0.5661660   -0.0316012
   0.0038493   -0.1139453    0.0167652    0.5599485    0.8088729   -0.1793940
   0.0037306   -0.1139258    0.0165245    0.9180459    0.3934459   -0.0489089
   0.0036117   -0.1138181    0.0167110    0.5994034    0.7708290   -0.2157273
   0.0003429   -0.1140881    0.0159918   -0.1337052    0.9908096    0.0204743
   0.0005685   -0.1139695    0.0169150   -0.1270497    0.9671809   -0.2200441
   0.0008326   -0.1137868    0.0173386   -0.2576822    0.8824375   -0.3935784
   0.0027499   -0.1133272    0.0172169    0.1245614    0.7663087   -0.6302820
   0.0023198   -0.1131185    0.0174708   -0.1743063    0.7506613   -0.6372794
   0.0013956   -0.1133837    0.0176839   -0.2924276    0.7535762   -0.5887351
   0.0030830   -0.1128400    0.0179416    0.3939761    0.7598546   -0.5171110
   0.0037611   -0.1136854    0.0173251    0.4516947    0.7922400   -0.4102777
   0.0003808   -0.1139950    0.0154916   -0.0672239    0.9547628    0.2896705
   0.0050076   -0.1141713    0.0170579    0.0180147    0.9658250   -0.2585681
   0.0041370   -0.1139827    0.0171650    0.3192012    0.8843811   -0.3405593
   0.0031557   -0.1307694    0.0198404   -0.0407865   -0.0471234    0.9980560
   0.0037681   -0.1318041    0.0197757    0.0642878   -0.0828939    0.9944826
   0.0047525   -0.1328437    0.0195387    0.2224016   -0.0641261    0.9728440
   0.0046582   -0.1348515    0.0193885    0.1186493   -0.0455397    0.9918914
   0.0037669   -0.1343130    0.0195063    0.0285622   -0.0949408    0.9950731
   0.0036969   -0.1336178    0.0195757    0.0295407   -0.1097407    0.9935212
   0.0034561   -0.1375844    0.0154654    0.0776820   -0.0648947   -0.9948639
   0.0042374   -0.1378376    0.0155083   -0.0421017   -0.1684548   -0.9848098
   0.0018283   -0.1379941    0.0151126    0.3079567   -0.1621778   -0.9374759
   0.0015115   -0.1389988    0.0152599    0.2269022   -0.2933485   -0.9286883
   0.0011769   -0.1379512    0.0149171    0.1154264   -0.1200667   -0.9860328
   0.0008328   -0.1374335    0.0149666   -0.2595468    0.1546491   -0.9532676
   0.0009779   -0.1369409    0.0150449   -0.1979652    0.2843403   -0.9380620
   0.0074780   -0.1377939    0.0158552    0.8794846    0.0471952   -0.4735816
   0.0075385   -0.1373094    0.0161584    0.9447235    0.1215388   -0.3045093
   0.0065208   -0.1372056    0.0152121    0.1676954    0.0958191   -0.9811712
   0.0071788   -0.1377563    0.0154746    0.6185724   -0.0001214   -0.7857278
   0.0068913   -0.1377330    0.0153241    0.2716846   -0.0894804   -0.9582175
   0.0063290   -0.1377028    0.0152363    0.0063422   -0.1488387   -0.9888412
   0.0050578   -0.1382703    0.0154988   -0.1101688   -0.3078246   -0.9450433
   0.0067410   -0.1384358    0.0186373    0.8503715   -0.0228761    0.5256852
   0.0066545   -0.1369282    0.0188297    0.7731286   -0.0541113    0.6319368
   0.0074710   -0.1388584    0.0167413    0.9689135   -0.2405192    0.0579412
   0.0075764   -0.1383446    0.0165400    0.9862011   -0.0740238    0.1480803
   0.0071077   -0.1394123    0.0178286    0.9386686   -0.1364289    0.3166835
   0.0072492   -0.1393927    0.0173933    0.9511164   -0.2255488    0.2109629
   0.0069596   -0.1389278    0.0182549    0.9183692    0.0181345    0.3953089
   0.0073864   -0.1390822    0.0169525    0.9659794   -0.1437297    0.2150014
   0.0075734   -0.1383214    0.0161668    0.9543839   -0.1336461   -0.2670021
   0.0062446   -0.1384428    0.0191135    0.5648654   -0.0796861    0.8213265
   0.0059095   -0.1379318    0.0192814    0.2334036   -0.0682787    0.9699798
   0.0058700   -0.1369201    0.0192802    0.2311945    0.0457183    0.9718328
   0.0055721   -0.1358952    0.0192668    0.2299909    0.0758928    0.9702291
   0.0052949   -0.1353786    0.0192779    0.1914487    0.0595875    0.9796921
   0.0009513   -0.1250702    0.0191685   -0.5557106   -0.0026518    0.8313716
   0.0015819   -0.1258903    0.0194929   -0.4205016    0.0007338    0.9072915
   0.0003731   -0.1374267    0.0151972   -0.5938437    0.1615131   -0.7882025
  -0.0002185   -0.1371347    0.0166574   -0.9751277   -0.2159673    0.0498407
  -0.0002120   -0.1370106    0.0170710   -0.9640149   -0.1907944    0.1851289
   0.0001462   -0.1375783    0.0178222   -0.9236606   -0.1935543    0.3307384
   0.0003569   -0.1371295    0.0185834   -0.8721980   -0.1520858    0.4649091
   0.0005125   -0.1366509    0.0188970   -0.7090112   -0.0062746    0.7051693
   0.0009270   -0.1356681    0.0190240   -0.3434459    0.1757005    0.9225910
   0.0006940   -0.1361611    0.0190021   -0.4921844    0.0784218    0.8669513
   0.0009733   -0.1351586    0.0189160   -0.4213936    0.1500810    0.8943730
   0.0001412   -0.1384505    0.0155865   -0.9029809   -0.2474292   -0.3512895
   0.0003361   -0.1379284    0.0151793   -0.6905135   -0.0359805   -0.7224240
   0.0002391   -0.1384420    0.0153855   -0.7985105   -0.2437348   -0.5504310
   0.0000832   -0.1384780    0.0160738   -0.9681639   -0.2488104    0.0274232
   0.0014319   -0.1316629    0.0192429   -0.4877996   -0.0790389    0.8693701
   0.0017307   -0.1352077    0.0191556   -0.2341677    0.0102237    0.9721425
   0.0025718   -0.1322459    0.0196481   -0.2602958   -0.1037770    0.9599356
   0.0020252   -0.1312052    0.0195599   -0.3627508   -0.0324745    0.9313202
  -0.0017274   -0.1147023    0.0168046    0.1739011    0.6711003    0.7206822
  -0.0015541   -0.1140977    0.0150756   -0.6611663    0.7416989    0.1128795
  -0.0016195   -0.1143513    0.0166066   -0.7839728    0.5971609    0.1696630
  -0.0013568   -0.1139391    0.0157198   -0.5388343    0.8397736    0.0666168
  -0.0017274   -0.1147023    0.0168046    0.9843345    0.1672054    0.0559286
  -0.0013152   -0.1168134    0.0180003   -0.6344851   -0.0433830    0.7717166
  -0.0016047   -0.1157621    0.0175383   -0.8299755    0.0999218    0.5487771
  -0.0017422   -0.1157552    0.0173289   -0.8222171    0.1819095    0.5393218
  -0.0017635   -0.1152195    0.0170487   -0.8777008    0.2276861    0.4216638
   0.0004885   -0.1136676    0.0147705   -0.1750618    0.8001635    0.5736651
   0.0004161   -0.1137776    0.0149882   -0.0508688    0.9084544    0.4148771
  -0.0002755   -0.1140530    0.0161307    0.1596868    0.9817730    0.1030628
  -0.0005860   -0.1139772    0.0161986    0.1332153    0.9869985    0.0899312
   0.0017413   -0.1241214    0.0195519   -0.3301028    0.0220850    0.9436866
   0.0019071   -0.1221099    0.0195857   -0.3158119    0.0072660    0.9487940
  -0.0010451   -0.1175491    0.0180407   -0.4908192   -0.1225404    0.8626009
   0.0000060   -0.1169289    0.0188853   -0.5981102   -0.1421777    0.7887013
   0.0018487   -0.1170701    0.0197884   -0.2588519   -0.1783407    0.9493104
   0.0002137   -0.1154511    0.0193169   -0.6283914   -0.0398558    0.7768756
   0.0007670   -0.1155003    0.0197174   -0.3852229   -0.1389847    0.9122974
   0.0006014   -0.1157012    0.0195674   -0.5830839   -0.1567757    0.7971415
   0.0002297   -0.1174516    0.0189873   -0.6099887   -0.1317104    0.7813873
   0.0027097   -0.1181162    0.0197527   -0.0284969   -0.1337376    0.9906070
   0.0026608   -0.1176141    0.0198191   -0.0055890   -0.1585920    0.9873284
   0.0023996   -0.1171026    0.0199130   -0.0874279   -0.1820771    0.9793897
   0.0026314   -0.1302380    0.0197943   -0.2004844   -0.0416467    0.9788113
   0.0028266   -0.1307503    0.0197911   -0.1710765   -0.0531240    0.9838245
   0.0037774   -0.1146426    0.0199551    0.1877557    0.1804940    0.9654894
   0.0037859   -0.1134257    0.0194298    0.2658600    0.6202742    0.7379556
   0.0038756   -0.1139858    0.0197524    0.2747912    0.3850000    0.8810589
   0.0047961   -0.1135505    0.0182276    0.3068723    0.8956347   -0.3219750
   0.0043626   -0.1132098    0.0184781    0.4841664    0.8573443   -0.1747672
   0.0049025   -0.1136147    0.0188174    0.4953603    0.7757927    0.3908501
   0.0040125   -0.1131572    0.0190446    0.3978640    0.7327405    0.5520830
   0.0052640   -0.1140552    0.0174984    0.0207602    0.9132584   -0.4068515
   0.0024076   -0.1161042    0.0201154   -0.0545549   -0.1246617    0.9906984
   0.0022354   -0.1165955    0.0199941   -0.1732852   -0.1906729    0.9662381
   0.0023687   -0.1155992    0.0201462   -0.0652154   -0.0309375    0.9973915
   0.0026067   -0.1151063    0.0201593   -0.0377952    0.0728656    0.9966254
   0.0037306   -0.1139258    0.0165245    0.9704834    0.2361994   -0.0487015
   0.0038064   -0.1138992    0.0168324    0.5020656    0.8183840   -0.2796027
   0.0038807   -0.1138317    0.0171395    0.5123303    0.8037330   -0.3025407
  -0.0009774   -0.1138780    0.0172618   -0.0746736    0.9956884   -0.0550323
   0.0004060   -0.1137335    0.0175962   -0.1474790    0.8937494   -0.4236295
  -0.0000922   -0.1138449    0.0175493   -0.1626691    0.9474239   -0.2755482
   0.0008574   -0.1133384    0.0181341   -0.3521817    0.8484369   -0.3951239
   0.0011619   -0.1131655    0.0180599   -0.4063893    0.8000822   -0.4412666
   0.0025789   -0.1127260    0.0178890    0.0207856    0.7919842   -0.6101877
   0.0029613   -0.1126314    0.0181256    0.2602121    0.8602392   -0.4384953
   0.0024597   -0.1126048    0.0180753   -0.1342590    0.8736687   -0.4676296
   0.0013509   -0.1130172    0.0181757   -0.4371012    0.8671601   -0.2386960
   0.0020344   -0.1125982    0.0183342   -0.2769439    0.9049418   -0.3230826
   0.0015395   -0.1128650    0.0182912   -0.4783600    0.8022056   -0.3572646
   0.0037354   -0.1128152    0.0186081    0.4299378    0.9015373    0.0488265
   0.0031023   -0.1322740    0.0197160   -0.0920672   -0.0934953    0.9913538
   0.0034538   -0.1327926    0.0196778   -0.0441957   -0.1121869    0.9927038
   0.0044932   -0.1362065    0.0193116   -0.0123645   -0.0225941    0.9996683
   0.0049544   -0.1358715    0.0193329    0.0764164   -0.0075542    0.9970474
   0.0040953   -0.1348284    0.0194379    0.0071398   -0.0921596    0.9957187
   0.0041218   -0.1358331    0.0193385    0.0191728   -0.0852007    0.9961793
   0.0031758   -0.1359299    0.0192752   -0.0484278   -0.0883401    0.9949124
   0.0027570   -0.1357660    0.0192750   -0.0646975   -0.0906919    0.9937752
   0.0031384   -0.1386483    0.0156185    0.1596023   -0.3129464   -0.9362647
   0.0036976   -0.1381057    0.0155386    0.0732788   -0.2314425   -0.9700848
   0.0037776   -0.1391421    0.0159074    0.0429029   -0.4116617   -0.9103263
   0.0010610   -0.1387957    0.0151150   -0.0115273   -0.3409434   -0.9400132
   0.0009558   -0.1392517    0.0153157   -0.0501097   -0.4550955   -0.8890315
   0.0016534   -0.1394310    0.0154892    0.2113967   -0.4150588   -0.8848941
   0.0027342   -0.1395237    0.0158995    0.2570279   -0.4898988   -0.8330281
   0.0008508   -0.1384473    0.0150019   -0.1940144   -0.2463760   -0.9495564
   0.0008834   -0.1379387    0.0149162   -0.1728268   -0.0360661   -0.9842917
   0.0005362   -0.1379294    0.0150420   -0.4390820   -0.0215490   -0.8981885
   0.0073280   -0.1382815    0.0156985    0.6943105   -0.2472259   -0.6758789
   0.0069649   -0.1382481    0.0154222    0.3612992   -0.2700668   -0.8924835
   0.0064817   -0.1381221    0.0153354    0.0227865   -0.2655749   -0.9638209
   0.0050456   -0.1394281    0.0160257   -0.1254724   -0.5662827   -0.8146045
   0.0047377   -0.1394746    0.0160967   -0.0550766   -0.6162515   -0.7856212
   0.0054618   -0.1390655    0.0157576   -0.0957747   -0.4226388   -0.9012234
   0.0068436   -0.1394396    0.0184494    0.8038155   -0.1752233    0.5684870
   0.0075311   -0.1385876    0.0162528    0.9598083   -0.2581431   -0.1101375
   0.0072083   -0.1396735    0.0168476    0.8754524   -0.4779158   -0.0719692
   0.0071325   -0.1396884    0.0165394    0.7928123   -0.5252648   -0.3091043
   0.0074009   -0.1388127    0.0160459    0.8623919   -0.3505552   -0.3652277
   0.0070551   -0.1398280    0.0175388    0.8638638   -0.4799010    0.1530829
   0.0069112   -0.1399186    0.0179735    0.8197412   -0.4737084    0.3219080
   0.0070961   -0.1398477    0.0170413    0.8414699   -0.5355667    0.0713914
   0.0065096   -0.1394424    0.0187649    0.4660335   -0.3198047    0.8249471
   0.0060623   -0.1389374    0.0190971    0.2676686   -0.2184576    0.9384188
   0.0055139   -0.1389185    0.0191876    0.0592503   -0.2608086    0.9635706
   0.0051135   -0.1384015    0.0193091    0.0273410   -0.1372823    0.9901546
   0.0053080   -0.1374038    0.0193609    0.0366376   -0.0067344    0.9993059
   0.0055747   -0.1364028    0.0192947    0.0791125    0.0275006    0.9964863
   0.0004457   -0.1386049    0.0178686   -0.9284554   -0.2658611    0.2594002
   0.0006866   -0.1381631    0.0187109   -0.8024974   -0.2137236    0.5570638
   0.0007203   -0.1371740    0.0190248   -0.5898095   -0.1026474    0.8009921
   0.0013955   -0.1356946    0.0191293   -0.1935252    0.1113557    0.9747553
   0.0009071   -0.1366821    0.0191222   -0.2640246    0.0165911    0.9643732
   0.0012775   -0.1361960    0.0191454   -0.1454603    0.0560847    0.9877732
   0.0007345   -0.1397223    0.0157059   -0.5965088   -0.5407543   -0.5930952
   0.0006194   -0.1397799    0.0158965   -0.6830241   -0.5743414   -0.4512318
   0.0003987   -0.1394985    0.0160183   -0.9073650   -0.3944452   -0.1452645
   0.0005040   -0.1384396    0.0151331   -0.5285136   -0.2144939   -0.8213804
   0.0005441   -0.1389576    0.0153188   -0.4343289   -0.4188013   -0.7974734
   0.0004076   -0.1390590    0.0170598   -0.9680751   -0.1944308    0.1581998
   0.0022546   -0.1317253    0.0196382   -0.3299458   -0.0905200    0.9396499
   0.0023515   -0.1352436    0.0192743   -0.1345637   -0.0919674    0.9866279
   0.0016450   -0.1362148    0.0191891   -0.0945233    0.0193490    0.9953346
   0.0022780   -0.1357418    0.0192388   -0.1009051   -0.0343750    0.9943020
  -0.0017274   -0.1147023    0.0168046    0.2430723    0.8137093    0.5280085
  -0.0015106   -0.1141977    0.0166723   -0.8560427    0.4999020    0.1314871
  -0.0014333   -0.1140924    0.0167196   -0.6430196    0.7639149    0.0544046
  -0.0005977   -0.1163744    0.0185345   -0.5597537   -0.1511220    0.8147625
  -0.0006568   -0.1158719    0.0185978   -0.6059903   -0.0987232    0.7893222
  -0.0008450   -0.1153482    0.0184380   -0.6603877    0.0210567    0.7506296
  -0.0013573   -0.1147875    0.0179384   -0.8297378    0.1020578    0.5487434
  -0.0015876   -0.1152538    0.0174782   -0.9033883    0.1090978    0.4147135
  -0.0016837   -0.1147219    0.0170935   -0.9376462    0.2274353    0.2628551
   0.0003434   -0.1149620    0.0195077   -0.6889547    0.0449513    0.7234092
   0.0001054   -0.1142505    0.0189836   -0.6495569    0.4042584    0.6439340
  -0.0000847   -0.1143426    0.0188665   -0.6124837    0.3260921    0.7200886
  -0.0008441   -0.1147630    0.0183991   -0.5945317    0.2402417    0.7673435
   0.0005267   -0.1149793    0.0196426   -0.4896538    0.0248091    0.8715639
   0.0017932   -0.1155670    0.0200443   -0.2274087   -0.0759585    0.9708324
   0.0013865   -0.1150395    0.0199775   -0.2716855    0.0194290    0.9621900
   0.0035672   -0.1139936    0.0198225    0.1487854    0.3835874    0.9114404
   0.0029566   -0.1142869    0.0199695    0.1060915    0.2852098    0.9525754
   0.0026392   -0.1145977    0.0200740    0.0072768    0.1963599    0.9805049
   0.0028045   -0.1126189    0.0188125    0.1013605    0.8222320    0.5600541
   0.0036614   -0.1130699    0.0190877    0.2495776    0.7902429    0.5596671
   0.0031672   -0.1133596    0.0195679    0.1076614    0.6045213    0.7892801
   0.0030841   -0.1130773    0.0192520    0.1032317    0.7463574    0.6574906
   0.0040737   -0.1130721    0.0188205    0.4550351    0.8549994    0.2488355
   0.0044397   -0.1132512    0.0187878    0.5150139    0.8207703    0.2471778
   0.0013960   -0.1145324    0.0199298   -0.1810785    0.2071328    0.9614086
  -0.0002590   -0.1138206    0.0178192   -0.2073256    0.9780223   -0.0221015
  -0.0010170   -0.1138973    0.0177601   -0.3435464    0.9049321    0.2511449
   0.0007410   -0.1133377    0.0183233   -0.4862623    0.8696299   -0.0853982
   0.0032297   -0.1126158    0.0185533    0.2885530    0.9416330    0.1733908
   0.0027257   -0.1124999    0.0185009    0.0407212    0.9991703   -0.0006421
   0.0011976   -0.1131485    0.0188660   -0.5060385    0.7833966    0.3608529
   0.0008163   -0.1132936    0.0186308   -0.5272950    0.7915688    0.3088346
   0.0021101   -0.1125794    0.0186424   -0.1894065    0.9525098    0.2384330
   0.0017276   -0.1126952    0.0184065   -0.4676213    0.8820382   -0.0577835
   0.0032318   -0.1367973    0.0192393   -0.0638138   -0.0522163    0.9965948
   0.0037580   -0.1378360    0.0193151   -0.0791458   -0.0999456    0.9918401
   0.0035505   -0.1391297    0.0158792    0.1334868   -0.4644635   -0.8754741
   0.0039274   -0.1394538    0.0161162    0.0492299   -0.6004587   -0.7981390
   0.0015478   -0.1398617    0.0156891    0.1215383   -0.5229280   -0.8436674
   0.0010447   -0.1397904    0.0156378   -0.1798094   -0.5961020   -0.7825158
   0.0020451   -0.1396980    0.0157347    0.2983766   -0.5328583   -0.7918545
   0.0028189   -0.1398759    0.0162169    0.2968129   -0.7401912   -0.6033400
   0.0037053   -0.1398896    0.0165058    0.1407807   -0.7645256   -0.6290322
   0.0034269   -0.1394894    0.0160676    0.1498203   -0.6121903   -0.7763871
   0.0067745   -0.1391421    0.0157890    0.3179579   -0.4787952   -0.8183263
   0.0071605   -0.1391911    0.0160291    0.5731843   -0.5083227   -0.6427035
   0.0066419   -0.1387458    0.0155470    0.0564390   -0.4335967   -0.8993379
   0.0063323   -0.1400912    0.0165697    0.0613719   -0.7916196   -0.6079242
   0.0058575   -0.1395283    0.0160081   -0.0522032   -0.6072361   -0.7928046
   0.0050182   -0.1399699    0.0165372   -0.1186336   -0.8297870   -0.5453252
   0.0042061   -0.1398888    0.0165554    0.0327319   -0.8377847   -0.5450187
   0.0055220   -0.1400724    0.0165892   -0.0670697   -0.7842216   -0.6168453
   0.0065976   -0.1401322    0.0183034    0.5850377   -0.5621822    0.5845358
   0.0068308   -0.1399875    0.0166166    0.5098224   -0.7337340   -0.4491276
   0.0069094   -0.1400911    0.0169280    0.5324681   -0.8051082   -0.2613016
   0.0066424   -0.1403170    0.0178101    0.6388517   -0.7530186    0.1575801
   0.0066820   -0.1403131    0.0173121    0.5728094   -0.8156183   -0.0815854
   0.0065259   -0.1403317    0.0179998    0.4125521   -0.8504362    0.3264339
   0.0059256   -0.1395607    0.0189268    0.1747311   -0.3785892    0.9089220
   0.0060494   -0.1398549    0.0187447    0.1952019   -0.5164394    0.8337785
   0.0062764   -0.1399286    0.0186249    0.3468050   -0.5121216    0.7857848
   0.0054282   -0.1397052    0.0188807   -0.0110703   -0.4751091    0.8798572
   0.0046740   -0.1388534    0.0191883   -0.0680318   -0.3081209    0.9489116
   0.0051720   -0.1387363    0.0192350   -0.0174309   -0.2376678    0.9711901
   0.0048554   -0.1384175    0.0192969   -0.0442896   -0.1510908    0.9875272
   0.0006343   -0.1391256    0.0179929   -0.9181723   -0.1880037    0.3487324
   0.0009019   -0.1386847    0.0188266   -0.7179195   -0.2526360    0.6486653
   0.0009762   -0.1376926    0.0190746   -0.4195618   -0.1331006    0.8979154
   0.0012987   -0.1372076    0.0191685   -0.1026773   -0.0513790    0.9933869
   0.0012138   -0.1404774    0.0162725   -0.2516644   -0.7662703   -0.5911809
