NORM_ASCII
2771 5446
3 554 551 550 
3 555 556 551 
3 555 551 554 
3 556 552 551 
3 556 557 552 
3 557 553 552 
3 557 558 553 
3 558 554 553 
3 558 555 554 
3 559 560 555 
3 559 555 558 
3 560 556 555 
3 560 561 556 
3 561 557 556 
3 561 562 557 
3 562 558 557 
3 562 559 558 
3 563 564 559 
3 563 559 562 
3 564 560 559 
3 564 565 560 
3 565 561 560 
3 565 566 561 
3 566 562 561 
3 566 563 562 
3 567 568 563 
3 568 564 563 
3 567 563 566 
3 568 569 564 
3 569 565 564 
3 569 570 565 
3 570 566 565 
3 570 567 566 
3 571 572 567 
3 571 567 570 
3 572 568 567 
3 572 573 568 
3 573 569 568 
3 573 574 569 
3 574 570 569 
3 574 571 570 
3 571 574 573 
3 571 573 572 
3 575 576 577 
3 578 575 579 
3 580 581 575 
3 579 575 577 
3 575 581 576 
3 578 580 575 
3 581 582 576 
3 577 576 582 
3 579 577 583 
3 577 582 583 
3 584 578 585 
3 586 580 578 
3 585 578 579 
3 584 586 578 
3 585 579 587 
3 587 579 583 
3 588 589 580 
3 580 589 581 
3 586 588 580 
3 589 587 581 
3 581 587 582 
3 587 583 582 
3 590 584 591 
3 592 586 584 
3 591 584 585 
3 590 592 584 
3 591 585 589 
3 589 585 587 
3 593 588 586 
3 592 593 586 
3 594 591 588 
3 588 591 589 
3 593 594 588 
3 595 590 594 
3 596 592 590 
3 594 590 591 
3 595 596 590 
3 597 593 592 
3 596 597 592 
3 598 594 593 
3 597 598 593 
3 598 595 594 
3 599 595 598 
3 600 596 595 
3 599 600 595 
3 601 597 596 
3 600 601 596 
3 602 598 597 
3 601 602 597 
3 602 599 598 
3 603 599 602 
3 604 600 599 
3 603 604 599 
3 605 601 600 
3 604 605 600 
3 606 602 601 
3 605 606 601 
3 606 603 602 
3 607 603 606 
3 608 604 603 
3 607 608 603 
3 609 605 604 
3 608 609 604 
3 610 606 605 
3 609 610 605 
3 610 607 606 
3 611 607 610 
3 612 608 607 
3 611 612 607 
3 613 609 608 
3 612 613 608 
3 614 610 609 
3 613 614 609 
3 614 611 610 
3 615 611 614 
3 616 612 611 
3 615 616 611 
3 617 613 612 
3 616 617 612 
3 618 614 613 
3 617 618 613 
3 618 615 614 
3 619 615 618 
3 620 616 615 
3 619 620 615 
3 621 617 616 
3 620 621 616 
3 622 618 617 
3 621 622 617 
3 622 619 618 
3 623 619 622 
3 624 620 619 
3 623 624 619 
3 625 621 620 
3 624 625 620 
3 626 622 621 
3 625 626 621 
3 626 623 622 
3 627 623 626 
3 628 624 623 
3 627 628 623 
3 629 625 624 
3 628 629 624 
3 630 626 625 
3 629 630 625 
3 630 627 626 
3 631 627 630 
3 632 628 627 
3 631 632 627 
3 633 629 628 
3 632 633 628 
3 634 630 629 
3 633 634 629 
3 634 631 630 
3 635 631 634 
3 636 632 631 
3 635 636 631 
3 637 633 632 
3 636 637 632 
3 638 634 633 
3 637 638 633 
3 638 635 634 
3 635 638 637 
3 636 635 637 
3 639 640 641 
3 642 639 643 
3 644 645 639 
3 639 641 643 
3 645 640 639 
3 644 639 642 
3 645 646 640 
3 640 647 648 
3 640 648 641 
3 646 647 640 
3 641 648 649 
3 650 643 641 
3 650 641 649 
3 651 642 652 
3 653 644 642 
3 653 642 651 
3 642 643 652 
3 650 652 643 
3 654 655 644 
3 654 644 653 
3 655 645 644 
3 655 656 645 
3 656 646 645 
3 656 657 646 
3 646 658 647 
3 657 658 646 
3 647 659 649 
3 647 649 648 
3 658 659 647 
3 659 650 649 
3 659 651 650 
3 651 652 650 
3 660 653 651 
3 660 651 659 
3 661 654 653 
3 661 653 660 
3 662 663 654 
3 662 654 661 
3 663 655 654 
3 663 664 655 
3 664 656 655 
3 664 665 656 
3 665 657 656 
3 665 666 657 
3 657 667 658 
3 666 667 657 
3 658 660 659 
3 667 660 658 
3 667 661 660 
3 668 662 661 
3 668 661 667 
3 669 670 662 
3 669 662 668 
3 670 663 662 
3 670 671 663 
3 671 664 663 
3 671 672 664 
3 672 665 664 
3 672 673 665 
3 673 666 665 
3 673 674 666 
3 666 668 667 
3 674 668 666 
3 674 669 668 
3 675 676 669 
3 675 669 674 
3 676 670 669 
3 676 677 670 
3 677 671 670 
3 677 678 671 
3 678 672 671 
3 678 679 672 
3 679 673 672 
3 679 680 673 
3 680 674 673 
3 680 675 674 
3 681 682 675 
3 681 675 680 
3 682 676 675 
3 682 683 676 
3 683 677 676 
3 683 684 677 
3 684 678 677 
3 684 685 678 
3 685 679 678 
3 685 686 679 
3 686 680 679 
3 686 681 680 
3 687 688 681 
3 688 682 681 
3 687 681 686 
3 688 689 682 
3 689 683 682 
3 689 690 683 
3 690 684 683 
3 690 691 684 
3 691 685 684 
3 691 692 685 
3 692 686 685 
3 692 687 686 
3 693 694 687 
3 693 687 692 
3 694 688 687 
3 694 695 688 
3 695 689 688 
3 695 696 689 
3 696 690 689 
3 696 697 690 
3 697 691 690 
3 697 698 691 
3 698 692 691 
3 698 693 692 
3 699 700 693 
3 699 693 698 
3 700 694 693 
3 700 701 694 
3 701 695 694 
3 701 702 695 
3 702 696 695 
3 702 703 696 
3 703 697 696 
3 703 704 697 
3 704 698 697 
3 704 699 698 
3 705 706 699 
3 705 699 704 
3 706 700 699 
3 706 707 700 
3 707 701 700 
3 707 708 701 
3 708 702 701 
3 708 709 702 
3 709 703 702 
3 709 710 703 
3 710 704 703 
3 710 705 704 
3 711 712 705 
3 711 705 710 
3 712 706 705 
3 712 713 706 
3 713 707 706 
3 713 714 707 
3 714 708 707 
3 714 715 708 
3 715 709 708 
3 715 716 709 
3 716 710 709 
3 716 711 710 
3 717 718 711 
3 717 711 716 
3 718 712 711 
3 718 719 712 
3 719 713 712 
3 719 720 713 
3 720 714 713 
3 720 721 714 
3 721 715 714 
3 721 722 715 
3 722 716 715 
3 722 717 716 
3 723 724 717 
3 724 718 717 
3 723 717 722 
3 724 725 718 
3 725 719 718 
3 725 726 719 
3 726 720 719 
3 726 727 720 
3 727 721 720 
3 727 728 721 
3 728 722 721 
3 728 723 722 
3 729 730 723 
3 729 723 728 
3 730 724 723 
3 730 731 724 
3 731 725 724 
3 731 732 725 
3 732 726 725 
3 732 733 726 
3 733 727 726 
3 733 734 727 
3 734 728 727 
3 734 729 728 
3 730 729 734 
3 730 734 733 
3 730 733 732 
3 730 732 731 
3 735 736 737 
3 738 735 739 
3 740 741 735 
3 735 737 739 
3 741 736 735 
3 740 735 738 
3 741 742 736 
3 736 743 744 
3 736 744 737 
3 742 743 736 
3 737 744 745 
3 737 745 746 
3 737 746 747 
3 737 747 739 
3 748 738 747 
3 749 740 738 
3 749 738 748 
3 738 739 747 
3 750 751 740 
3 750 740 749 
3 751 741 740 
3 751 752 741 
3 752 742 741 
3 752 753 742 
3 742 754 743 
3 753 754 742 
3 743 755 745 
3 743 745 744 
3 754 755 743 
3 755 746 745 
3 755 748 746 
3 748 747 746 
3 756 749 748 
3 756 748 755 
3 757 750 749 
3 757 749 756 
3 758 759 750 
3 758 750 757 
3 759 751 750 
3 759 760 751 
3 760 752 751 
3 760 761 752 
3 761 753 752 
3 761 762 753 
3 753 763 754 
3 762 763 753 
3 754 756 755 
3 763 756 754 
3 763 757 756 
3 764 758 757 
3 764 757 763 
3 765 766 758 
3 765 758 764 
3 766 759 758 
3 766 767 759 
3 767 760 759 
3 767 768 760 
3 768 761 760 
3 768 769 761 
3 769 762 761 
3 769 770 762 
3 762 764 763 
3 770 764 762 
3 770 765 764 
3 771 772 765 
3 771 765 770 
3 772 766 765 
3 772 773 766 
3 773 767 766 
3 773 774 767 
3 774 768 767 
3 774 775 768 
3 775 769 768 
3 775 776 769 
3 776 770 769 
3 776 771 770 
3 777 778 771 
3 777 771 776 
3 778 772 771 
3 778 779 772 
3 779 773 772 
3 779 780 773 
3 780 774 773 
3 780 781 774 
3 781 775 774 
3 781 782 775 
3 782 776 775 
3 782 777 776 
3 783 784 777 
3 784 778 777 
3 783 777 782 
3 784 785 778 
3 785 779 778 
3 785 786 779 
3 786 780 779 
3 786 787 780 
3 787 781 780 
3 787 788 781 
3 788 782 781 
3 788 783 782 
3 789 790 783 
3 789 783 788 
3 790 784 783 
3 790 791 784 
3 791 785 784 
3 791 792 785 
3 792 786 785 
3 792 793 786 
3 793 787 786 
3 793 794 787 
3 794 788 787 
3 794 789 788 
3 795 796 789 
3 795 789 794 
3 796 790 789 
3 796 797 790 
3 797 791 790 
3 797 798 791 
3 798 792 791 
3 798 799 792 
3 799 793 792 
3 799 800 793 
3 800 794 793 
3 800 795 794 
3 801 802 795 
3 801 795 800 
3 802 796 795 
3 802 803 796 
3 803 797 796 
3 803 804 797 
3 804 798 797 
3 804 805 798 
3 805 799 798 
3 805 806 799 
3 806 800 799 
3 806 801 800 
3 807 808 801 
3 807 801 806 
3 808 802 801 
3 808 809 802 
3 809 803 802 
3 809 810 803 
3 810 804 803 
3 810 811 804 
3 811 805 804 
3 811 812 805 
3 812 806 805 
3 812 807 806 
3 813 814 807 
3 813 807 812 
3 814 808 807 
3 814 815 808 
3 815 809 808 
3 815 816 809 
3 816 810 809 
3 816 817 810 
3 817 811 810 
3 817 818 811 
3 818 812 811 
3 818 813 812 
3 819 820 813 
3 820 814 813 
3 819 813 818 
3 820 821 814 
3 821 815 814 
3 821 822 815 
3 822 816 815 
3 822 823 816 
3 823 817 816 
3 823 824 817 
3 824 818 817 
3 824 819 818 
3 825 826 819 
3 825 819 824 
3 826 820 819 
3 826 827 820 
3 827 821 820 
3 827 828 821 
3 828 822 821 
3 828 829 822 
3 829 823 822 
3 829 830 823 
3 830 824 823 
3 830 825 824 
3 825 830 827 
3 825 827 826 
3 827 830 829 
3 827 829 828 
3 831 832 833 
3 834 831 835 
3 836 837 831 
3 831 833 835 
3 837 832 831 
3 836 831 834 
3 837 838 832 
3 832 839 840 
3 832 840 833 
3 838 839 832 
3 833 840 841 
3 833 841 842 
3 833 842 843 
3 833 843 835 
3 844 834 843 
3 845 836 834 
3 845 834 844 
3 834 835 843 
3 846 847 836 
3 846 836 845 
3 847 837 836 
3 847 848 837 
3 848 838 837 
3 848 849 838 
3 838 850 839 
3 849 850 838 
3 839 851 841 
3 839 841 840 
3 850 851 839 
3 851 842 841 
3 851 844 842 
3 844 843 842 
3 852 845 844 
3 852 844 851 
3 853 846 845 
3 853 845 852 
3 854 855 846 
3 854 846 853 
3 855 847 846 
3 855 856 847 
3 856 848 847 
3 856 857 848 
3 857 849 848 
3 857 858 849 
3 849 859 850 
3 858 859 849 
3 850 852 851 
3 859 852 850 
3 859 853 852 
3 860 854 853 
3 860 853 859 
3 861 862 854 
3 861 854 860 
3 862 855 854 
3 862 863 855 
3 863 856 855 
3 863 864 856 
3 864 857 856 
3 864 865 857 
3 865 858 857 
3 865 866 858 
3 858 860 859 
3 866 860 858 
3 866 861 860 
3 867 868 861 
3 867 861 866 
3 868 862 861 
3 868 869 862 
3 869 863 862 
3 869 870 863 
3 870 864 863 
3 870 871 864 
3 871 865 864 
3 871 872 865 
3 872 866 865 
3 872 867 866 
3 873 874 867 
3 873 867 872 
3 874 868 867 
3 874 875 868 
3 875 869 868 
3 875 876 869 
3 876 870 869 
3 876 877 870 
3 877 871 870 
3 877 878 871 
3 878 872 871 
3 878 873 872 
3 879 880 873 
3 880 874 873 
3 879 873 878 
3 880 881 874 
3 881 875 874 
3 881 882 875 
3 882 876 875 
3 882 883 876 
3 883 877 876 
3 883 884 877 
3 884 878 877 
3 884 879 878 
3 885 886 879 
3 885 879 884 
3 886 880 879 
3 886 887 880 
3 887 881 880 
3 887 888 881 
3 888 882 881 
3 888 889 882 
3 889 883 882 
3 889 890 883 
3 890 884 883 
3 890 885 884 
3 891 892 885 
3 891 885 890 
3 892 886 885 
3 892 893 886 
3 893 887 886 
3 893 894 887 
3 894 888 887 
3 894 895 888 
3 895 889 888 
3 895 896 889 
3 896 890 889 
3 896 891 890 
3 897 898 891 
3 897 891 896 
3 898 892 891 
3 898 899 892 
3 899 893 892 
3 899 900 893 
3 900 894 893 
3 900 901 894 
3 901 895 894 
3 901 902 895 
3 902 896 895 
3 902 897 896 
3 903 904 897 
3 903 897 902 
3 904 898 897 
3 904 905 898 
3 905 899 898 
3 905 906 899 
3 906 900 899 
3 906 907 900 
3 907 901 900 
3 907 908 901 
3 908 902 901 
3 908 903 902 
3 909 910 903 
3 909 903 908 
3 910 904 903 
3 910 911 904 
3 911 905 904 
3 911 912 905 
3 912 906 905 
3 912 913 906 
3 913 907 906 
3 913 914 907 
3 914 908 907 
3 914 909 908 
3 915 916 909 
3 916 910 909 
3 915 909 914 
3 916 917 910 
3 917 911 910 
3 917 918 911 
3 918 912 911 
3 918 919 912 
3 919 913 912 
3 919 920 913 
3 920 914 913 
3 920 915 914 
3 921 922 915 
3 921 915 920 
3 922 916 915 
3 922 923 916 
3 923 917 916 
3 923 924 917 
3 924 918 917 
3 924 925 918 
3 925 919 918 
3 925 926 919 
3 926 920 919 
3 926 921 920 
3 922 921 924 
3 921 926 925 
3 921 925 924 
3 922 924 923 
3 929 928 927 
3 929 927 930 
3 928 931 927 
3 932 931 927 
3 927 932 933 
3 927 933 930 
3 934 928 929 
3 934 935 928 
3 928 936 931 
3 935 936 928 
3 937 929 930 
3 938 934 929 
3 938 929 937 
3 939 933 930 
3 937 930 939 
3 931 932 936 
3 932 940 936 
3 940 933 932 
3 940 941 933 
3 941 939 933 
3 942 935 934 
3 943 942 934 
3 943 934 938 
3 942 944 935 
3 935 945 936 
3 944 945 935 
3 945 940 936 
3 941 937 939 
3 946 938 937 
3 946 937 941 
3 947 943 938 
3 946 938 947 
3 948 941 940 
3 945 948 940 
3 948 946 941 
3 949 944 942 
3 950 949 942 
3 950 942 943 
3 951 950 943 
3 951 943 947 
3 949 952 944 
3 944 953 945 
3 952 953 944 
3 953 948 945 
3 954 947 946 
3 954 946 948 
3 955 951 947 
3 955 947 954 
3 953 954 948 
3 956 952 949 
3 957 956 949 
3 957 949 950 
3 958 957 950 
3 958 950 951 
3 959 958 951 
3 959 951 955 
3 956 960 952 
3 952 961 953 
3 960 961 952 
3 961 954 953 
3 961 955 954 
3 962 959 955 
3 962 955 961 
3 963 960 956 
3 964 963 956 
3 964 956 957 
3 965 964 957 
3 965 957 958 
3 966 965 958 
3 966 958 959 
3 967 966 959 
3 967 959 962 
3 960 962 961 
3 968 962 960 
3 963 968 960 
3 968 967 962 
3 969 968 963 
3 970 969 963 
3 970 963 964 
3 971 970 964 
3 971 964 965 
3 972 971 965 
3 972 965 966 
3 973 972 966 
3 973 966 967 
3 974 967 968 
3 974 973 967 
3 969 974 968 
3 975 974 969 
3 976 975 969 
3 976 969 970 
3 977 976 970 
3 977 970 971 
3 978 977 971 
3 978 971 972 
3 979 978 972 
3 979 972 973 
3 980 973 974 
3 980 979 973 
3 975 980 974 
3 981 980 975 
3 982 981 975 
3 982 975 976 
3 983 982 976 
3 983 976 977 
3 984 983 977 
3 984 977 978 
3 985 984 978 
3 985 978 979 
3 986 979 980 
3 986 985 979 
3 981 986 980 
3 987 986 981 
3 988 987 981 
3 988 981 982 
3 989 988 982 
3 989 982 983 
3 990 989 983 
3 990 983 984 
3 991 990 984 
3 991 984 985 
3 992 985 986 
3 992 991 985 
3 987 992 986 
3 993 992 987 
3 994 993 987 
3 994 987 988 
3 995 994 988 
3 995 988 989 
3 996 995 989 
3 996 989 990 
3 997 996 990 
3 997 990 991 
3 998 991 992 
3 991 997 998 
3 993 998 992 
3 999 998 993 
3 1000 999 993 
3 1000 993 994 
3 1001 1000 994 
3 1001 994 995 
3 1002 1001 995 
3 1002 995 996 
3 1003 1002 996 
3 1003 996 997 
3 998 997 1004 
3 1004 1003 997 
3 999 1004 998 
3 1005 1004 999 
3 1006 1005 999 
3 1006 999 1000 
3 1007 1006 1000 
3 1007 1000 1001 
3 1008 1007 1001 
3 1008 1001 1002 
3 1009 1008 1002 
3 1009 1002 1003 
3 1010 1003 1004 
3 1003 1009 1010 
3 1005 1010 1004 
3 1011 1010 1005 
3 1012 1011 1005 
3 1012 1005 1006 
3 1013 1012 1006 
3 1013 1006 1007 
3 1014 1013 1007 
3 1014 1007 1008 
3 1008 1014 1015 
3 1015 1008 1009 
3 1016 1009 1010 
3 1016 1015 1009 
3 1011 1016 1010 
3 1017 1016 1011 
3 1018 1017 1011 
3 1018 1011 1012 
3 1019 1018 1012 
3 1019 1012 1013 
3 1020 1019 1013 
3 1020 1013 1014 
3 1021 1020 1014 
3 1021 1014 1015 
3 1022 1015 1016 
3 1022 1021 1015 
3 1017 1022 1016 
3 1019 1022 1017 
3 1019 1017 1018 
3 1019 1021 1022 
3 1021 1020 1019 
3 1023 1024 1025 
3 1026 1027 1023 
3 1023 1025 1028 
3 1027 1024 1023 
3 1026 1023 1028 
3 1027 1029 1024 
3 1024 1029 1030 
3 1025 1024 1031 
3 1024 1030 1031 
3 1032 1028 1025 
3 1033 1032 1025 
3 1033 1025 1031 
3 1034 1026 1028 
3 1035 1036 1026 
3 1036 1027 1026 
3 1035 1026 1034 
3 1036 1037 1027 
3 1037 1029 1027 
3 1032 1038 1028 
3 1038 1039 1028 
3 1034 1028 1039 
3 1037 1040 1029 
3 1041 1030 1029 
3 1041 1029 1040 
3 1042 1031 1030 
3 1043 1030 1041 
3 1042 1030 1043 
3 1033 1031 1042 
3 1038 1032 1044 
3 1032 1033 1045 
3 1032 1045 1044 
3 1033 1046 1047 
3 1033 1048 1049 
3 1033 1049 1050 
3 1033 1047 1045 
3 1033 1050 1046 
3 1033 1042 1048 
3 1034 1039 1050 
3 1034 1050 1051 
3 1051 1035 1034 
3 1051 1052 1035 
3 1035 1052 1053 
3 1036 1035 1054 
3 1035 1053 1054 
3 1036 1055 1040 
3 1055 1036 1056 
3 1036 1054 1056 
3 1036 1040 1037 
3 1046 1038 1057 
3 1038 1046 1050 
3 1038 1044 1057 
3 1038 1050 1039 
3 1041 1040 1055 
3 1058 1059 1041 
3 1043 1041 1059 
3 1058 1041 1055 
3 1060 1048 1042 
3 1060 1042 1043 
3 1043 1059 1058 
3 1043 1058 1060 
3 1057 1044 1061 
3 1044 1045 1062 
3 1044 1062 1061 
3 1045 1047 1063 
3 1045 1063 1062 
3 1046 1057 1047 
3 1047 1057 1064 
3 1047 1064 1063 
3 1065 1049 1048 
3 1066 1048 1060 
3 1065 1048 1066 
3 1067 1050 1049 
3 1067 1049 1065 
3 1051 1050 1067 
3 1068 1051 1067 
3 1069 1052 1051 
3 1070 1069 1051 
3 1070 1051 1068 
3 1071 1072 1052 
3 1053 1052 1072 
3 1071 1052 1069 
3 1073 1074 1053 
3 1073 1053 1075 
3 1074 1054 1053 
3 1053 1072 1075 
3 1074 1076 1054 
3 1076 1056 1054 
3 1058 1055 1056 
3 1076 1077 1056 
3 1077 1075 1056 
3 1058 1056 1075 
3 1057 1061 1064 
3 1078 1058 1072 
3 1060 1058 1078 
3 1072 1058 1075 
3 1079 1066 1060 
3 1080 1060 1078 
3 1079 1060 1080 
3 1064 1061 1081 
3 1061 1062 1082 
3 1061 1082 1081 
3 1062 1063 1083 
3 1062 1083 1082 
3 1063 1064 1084 
3 1063 1084 1083 
3 1064 1081 1084 
3 1085 1067 1065 
3 1086 1065 1066 
3 1085 1065 1086 
3 1086 1066 1079 
3 1068 1067 1085 
3 1068 1085 1087 
3 1088 1068 1087 
3 1089 1070 1068 
3 1090 1089 1068 
3 1090 1068 1088 
3 1091 1071 1069 
3 1091 1069 1070 
3 1092 1093 1070 
3 1091 1070 1093 
3 1092 1070 1089 
3 1094 1078 1071 
3 1078 1072 1071 
3 1094 1071 1091 
3 1095 1096 1073 
3 1077 1073 1075 
3 1095 1073 1077 
3 1096 1074 1073 
3 1096 1097 1074 
3 1097 1076 1074 
3 1097 1098 1076 
3 1098 1077 1076 
3 1098 1095 1077 
3 1080 1078 1094 
3 1099 1086 1079 
3 1099 1079 1100 
3 1079 1080 1100 
3 1101 1100 1080 
3 1102 1080 1103 
3 1103 1080 1094 
3 1101 1080 1102 
3 1084 1081 1104 
3 1081 1082 1105 
3 1081 1105 1104 
3 1082 1083 1106 
3 1082 1106 1105 
3 1083 1084 1107 
3 1083 1107 1106 
3 1084 1104 1107 
3 1087 1085 1099 
3 1099 1085 1086 
3 1108 1087 1109 
3 1087 1110 1109 
3 1088 1087 1108 
3 1087 1099 1110 
3 1111 1088 1108 
3 1112 1090 1088 
3 1112 1088 1111 
3 1113 1089 1090 
3 1113 1092 1089 
3 1114 1115 1090 
3 1115 1113 1090 
3 1114 1090 1112 
3 1094 1091 1093 
3 1116 1117 1092 
3 1117 1093 1092 
3 1116 1092 1113 
3 1117 1118 1093 
3 1103 1094 1093 
3 1103 1093 1119 
3 1118 1119 1093 
3 1120 1121 1095 
3 1120 1095 1098 
3 1121 1096 1095 
3 1121 1122 1096 
3 1122 1097 1096 
3 1122 1123 1097 
3 1123 1098 1097 
3 1123 1120 1098 
3 1110 1099 1124 
3 1099 1125 1126 
3 1125 1099 1100 
3 1099 1126 1124 
3 1125 1100 1101 
3 1127 1101 1102 
3 1128 1101 1127 
3 1125 1101 1128 
3 1129 1102 1130 
3 1127 1102 1129 
3 1102 1103 1130 
3 1131 1130 1103 
3 1131 1103 1119 
3 1107 1104 1132 
3 1104 1105 1133 
3 1104 1133 1132 
3 1105 1106 1134 
3 1105 1134 1133 
3 1106 1107 1135 
3 1106 1135 1134 
3 1107 1132 1135 
3 1136 1108 1137 
3 1108 1109 1137 
3 1111 1108 1136 
3 1125 1109 1138 
3 1109 1110 1139 
3 1137 1109 1125 
3 1109 1139 1138 
3 1110 1124 1139 
3 1140 1111 1136 
3 1141 1112 1111 
3 1141 1111 1140 
3 1142 1114 1112 
3 1142 1112 1141 
3 1143 1116 1113 
3 1131 1119 1113 
3 1143 1113 1119 
3 1131 1113 1115 
3 1142 1115 1114 
3 1144 1145 1115 
3 1145 1131 1115 
3 1144 1115 1142 
3 1146 1147 1116 
3 1146 1116 1143 
3 1147 1117 1116 
3 1147 1148 1117 
3 1148 1118 1117 
3 1148 1149 1118 
3 1118 1143 1119 
3 1149 1143 1118 
3 1150 1151 1120 
3 1151 1121 1120 
3 1150 1120 1123 
3 1151 1152 1121 
3 1152 1122 1121 
3 1152 1153 1122 
3 1153 1123 1122 
3 1153 1150 1123 
3 1139 1124 1154 
3 1124 1126 1155 
3 1124 1155 1154 
3 1125 1138 1126 
3 1137 1125 1128 
3 1126 1138 1156 
3 1126 1156 1155 
3 1157 1127 1129 
3 1128 1127 1158 
3 1158 1127 1157 
3 1137 1128 1159 
3 1128 1158 1160 
3 1128 1160 1159 
3 1161 1129 1162 
3 1157 1129 1161 
3 1129 1130 1162 
3 1162 1130 1131 
3 1145 1163 1131 
3 1164 1162 1131 
3 1163 1164 1131 
3 1135 1132 1165 
3 1132 1133 1166 
3 1132 1166 1165 
3 1133 1134 1167 
3 1133 1167 1166 
3 1134 1135 1168 
3 1134 1168 1167 
3 1135 1165 1168 
3 1169 1136 1170 
3 1140 1136 1169 
3 1136 1137 1170 
3 1171 1137 1172 
3 1170 1137 1171 
3 1137 1159 1172 
3 1138 1139 1173 
3 1138 1173 1156 
3 1139 1154 1173 
3 1174 1140 1169 
3 1175 1141 1140 
3 1175 1140 1174 
3 1176 1142 1141 
3 1177 1141 1175 
3 1176 1141 1177 
3 1178 1144 1142 
3 1164 1142 1176 
3 1178 1142 1164 
3 1149 1146 1143 
3 1179 1145 1144 
3 1180 1179 1144 
3 1180 1144 1178 
3 1179 1181 1145 
3 1181 1163 1145 
3 1182 1183 1146 
3 1182 1146 1149 
3 1183 1147 1146 
3 1183 1184 1147 
3 1184 1148 1147 
3 1184 1185 1148 
3 1185 1149 1148 
3 1185 1182 1149 
3 1186 1187 1150 
3 1186 1150 1153 
3 1187 1151 1150 
3 1187 1188 1151 
3 1188 1152 1151 
3 1188 1189 1152 
3 1189 1153 1152 
3 1189 1186 1153 
3 1173 1154 1190 
3 1154 1155 1191 
3 1154 1191 1190 
3 1155 1156 1192 
3 1155 1192 1191 
3 1156 1173 1193 
3 1156 1193 1192 
3 1194 1157 1161 
3 1195 1158 1157 
3 1196 1157 1194 
3 1195 1157 1196 
3 1158 1171 1197 
3 1195 1171 1158 
3 1158 1197 1160 
3 1172 1159 1198 
3 1159 1160 1199 
3 1159 1199 1198 
3 1160 1197 1200 
3 1160 1200 1199 
3 1201 1161 1202 
3 1194 1161 1201 
3 1161 1162 1202 
3 1202 1162 1164 
3 1181 1203 1163 
3 1163 1178 1164 
3 1203 1178 1163 
3 1202 1164 1176 
3 1167 1168 1165 
3 1167 1165 1166 
3 1169 1171 1195 
3 1204 1169 1205 
3 1205 1169 1195 
3 1174 1169 1204 
3 1169 1170 1171 
3 1171 1172 1197 
3 1197 1172 1206 
3 1172 1198 1206 
3 1173 1190 1193 
3 1174 1204 1207 
3 1174 1207 1208 
3 1208 1175 1174 
3 1208 1209 1175 
3 1210 1177 1175 
3 1209 1210 1175 
3 1211 1176 1177 
3 1211 1202 1176 
3 1212 1213 1177 
3 1213 1211 1177 
3 1212 1177 1210 
3 1203 1180 1178 
3 1214 1181 1179 
3 1215 1214 1179 
3 1215 1179 1180 
3 1216 1215 1180 
3 1216 1180 1203 
3 1214 1217 1181 
3 1217 1203 1181 
3 1218 1219 1182 
3 1218 1182 1185 
3 1219 1183 1182 
3 1219 1220 1183 
3 1220 1184 1183 
3 1220 1221 1184 
3 1221 1185 1184 
3 1221 1218 1185 
3 1222 1223 1186 
3 1222 1186 1189 
3 1223 1187 1186 
3 1223 1224 1187 
3 1224 1188 1187 
3 1224 1225 1188 
3 1225 1189 1188 
3 1225 1222 1189 
3 1193 1190 1226 
3 1190 1191 1227 
3 1190 1227 1226 
3 1191 1192 1228 
3 1191 1228 1227 
3 1192 1193 1229 
3 1192 1229 1228 
3 1193 1226 1229 
3 1230 1231 1194 
3 1196 1194 1232 
3 1232 1194 1231 
3 1230 1194 1201 
3 1205 1195 1196 
3 1205 1196 1233 
3 1196 1232 1234 
3 1196 1234 1233 
3 1197 1206 1200 
3 1206 1198 1235 
3 1198 1199 1236 
3 1198 1236 1235 
3 1199 1200 1237 
3 1199 1237 1236 
3 1200 1206 1238 
3 1200 1238 1237 
3 1201 1239 1240 
3 1201 1202 1239 
3 1201 1240 1230 
3 1239 1202 1211 
3 1217 1216 1203 
3 1204 1205 1241 
3 1204 1241 1207 
3 1241 1205 1242 
3 1205 1233 1242 
3 1206 1235 1238 
3 1243 1208 1207 
3 1244 1207 1231 
3 1245 1207 1244 
3 1243 1207 1245 
3 1241 1231 1207 
3 1246 1209 1208 
3 1246 1208 1243 
3 1209 1240 1247 
3 1248 1240 1209 
3 1249 1209 1246 
3 1209 1247 1210 
3 1248 1209 1249 
3 1250 1212 1210 
3 1250 1210 1247 
3 1213 1251 1211 
3 1247 1239 1211 
3 1251 1247 1211 
3 1252 1213 1212 
3 1253 1252 1212 
3 1253 1212 1250 
3 1252 1254 1213 
3 1254 1251 1213 
3 1255 1217 1214 
3 1256 1255 1214 
3 1256 1214 1215 
3 1257 1256 1215 
3 1257 1215 1216 
3 1258 1216 1217 
3 1258 1257 1216 
3 1255 1258 1217 
3 1259 1260 1218 
3 1260 1219 1218 
3 1259 1218 1221 
3 1260 1261 1219 
3 1261 1220 1219 
3 1261 1262 1220 
3 1262 1221 1220 
3 1262 1259 1221 
3 1223 1222 1225 
3 1223 1225 1224 
3 1229 1226 1263 
3 1226 1227 1264 
3 1226 1264 1263 
3 1227 1228 1265 
3 1227 1265 1264 
3 1228 1229 1266 
3 1228 1266 1265 
3 1229 1263 1266 
3 1267 1231 1230 
3 1268 1230 1240 
3 1267 1230 1268 
3 1241 1232 1231 
3 1269 1231 1267 
3 1244 1231 1269 
3 1232 1241 1270 
3 1232 1270 1234 
3 1242 1233 1271 
3 1233 1234 1272 
3 1233 1272 1271 
3 1234 1270 1273 
3 1234 1273 1272 
3 1238 1235 1274 
3 1235 1236 1275 
3 1235 1275 1274 
3 1236 1237 1276 
3 1236 1276 1275 
3 1237 1238 1277 
3 1237 1277 1276 
3 1238 1274 1277 
3 1240 1239 1247 
3 1278 1240 1248 
3 1268 1240 1278 
3 1241 1242 1270 
3 1270 1242 1279 
3 1242 1271 1279 
3 1280 1243 1245 
3 1281 1246 1243 
3 1281 1243 1280 
3 1244 1269 1282 
3 1283 1244 1284 
3 1245 1244 1283 
3 1244 1282 1284 
3 1245 1283 1285 
3 1280 1245 1285 
3 1286 1249 1246 
3 1281 1286 1246 
3 1251 1250 1247 
3 1287 1288 1248 
3 1289 1278 1248 
3 1287 1248 1249 
3 1288 1289 1248 
3 1290 1287 1249 
3 1290 1249 1286 
3 1291 1250 1251 
3 1291 1253 1250 
3 1254 1291 1251 
3 1292 1254 1252 
3 1293 1292 1252 
3 1293 1252 1253 
3 1294 1293 1253 
3 1294 1253 1291 
3 1292 1295 1254 
3 1295 1291 1254 
3 1296 1258 1255 
3 1297 1296 1255 
3 1297 1255 1256 
3 1298 1297 1256 
3 1298 1256 1257 
3 1299 1257 1258 
3 1299 1298 1257 
3 1296 1299 1258 
3 1300 1301 1259 
3 1300 1259 1262 
3 1301 1260 1259 
3 1301 1302 1260 
3 1302 1261 1260 
3 1302 1303 1261 
3 1303 1262 1261 
3 1303 1300 1262 
3 1266 1263 1304 
3 1263 1264 1305 
3 1263 1305 1304 
3 1264 1265 1306 
3 1264 1306 1305 
3 1265 1266 1307 
3 1265 1307 1306 
3 1266 1304 1307 
3 1308 1267 1268 
3 1269 1267 1309 
3 1309 1267 1308 
3 1310 1268 1278 
3 1308 1268 1310 
3 1269 1309 1311 
3 1269 1311 1282 
3 1270 1279 1273 
3 1279 1271 1312 
3 1271 1272 1313 
3 1271 1313 1312 
3 1272 1273 1314 
3 1272 1314 1313 
3 1273 1279 1315 
3 1273 1315 1314 
3 1277 1274 1316 
3 1274 1275 1317 
3 1274 1317 1316 
3 1275 1276 1318 
3 1275 1318 1317 
3 1276 1277 1319 
3 1276 1319 1318 
3 1277 1316 1319 
3 1320 1278 1289 
3 1310 1278 1320 
3 1279 1312 1315 
3 1280 1285 1321 
3 1280 1321 1322 
3 1322 1281 1280 
3 1322 1323 1281 
3 1324 1281 1323 
3 1286 1281 1324 
3 1284 1282 1325 
3 1282 1311 1326 
3 1282 1326 1325 
3 1283 1284 1327 
3 1309 1283 1327 
3 1328 1283 1309 
3 1328 1285 1283 
3 1327 1284 1329 
3 1284 1325 1329 
3 1321 1285 1328 
3 1330 1290 1286 
3 1331 1289 1286 
3 1330 1286 1289 
3 1331 1286 1324 
3 1332 1288 1287 
3 1333 1332 1287 
3 1333 1287 1290 
3 1332 1334 1288 
3 1288 1330 1289 
3 1334 1330 1288 
3 1320 1289 1331 
3 1335 1333 1290 
3 1335 1290 1330 
3 1295 1294 1291 
3 1336 1295 1292 
3 1337 1336 1292 
3 1337 1292 1293 
3 1338 1337 1293 
3 1338 1293 1294 
3 1339 1294 1295 
3 1339 1338 1294 
3 1336 1339 1295 
3 1340 1299 1296 
3 1341 1340 1296 
3 1341 1296 1297 
3 1342 1341 1297 
3 1342 1297 1298 
3 1343 1298 1299 
3 1343 1342 1298 
3 1340 1343 1299 
3 1301 1300 1303 
3 1301 1303 1302 
3 1307 1304 1305 
3 1307 1305 1306 
3 1344 1345 1308 
3 1346 1309 1308 
3 1346 1308 1345 
3 1344 1308 1310 
3 1309 1327 1311 
3 1328 1309 1346 
3 1310 1320 1347 
3 1310 1347 1344 
3 1311 1327 1348 
3 1311 1348 1326 
3 1315 1312 1349 
3 1312 1313 1350 
3 1312 1350 1349 
3 1313 1314 1351 
3 1313 1351 1350 
3 1314 1315 1352 
3 1314 1352 1351 
3 1315 1349 1352 
3 1319 1316 1353 
3 1316 1317 1354 
3 1316 1354 1353 
3 1317 1318 1355 
3 1317 1355 1354 
3 1318 1319 1356 
3 1318 1356 1355 
3 1319 1353 1356 
3 1347 1320 1331 
3 1357 1322 1321 
3 1358 1321 1359 
3 1321 1328 1359 
3 1357 1321 1358 
3 1360 1323 1322 
3 1360 1322 1357 
3 1361 1323 1360 
3 1361 1324 1323 
3 1362 1363 1324 
3 1362 1324 1361 
3 1361 1331 1324 
3 1363 1331 1324 
3 1329 1325 1364 
3 1325 1326 1365 
3 1325 1365 1364 
3 1326 1348 1366 
3 1326 1366 1365 
3 1327 1329 1348 
3 1328 1367 1368 
3 1359 1328 1368 
3 1328 1346 1359 
3 1328 1346 1367 
3 1348 1329 1369 
3 1329 1364 1369 
3 1334 1335 1330 
3 1370 1371 1331 
3 1363 1370 1331 
3 1361 1371 1331 
3 1371 1347 1331 
3 1372 1334 1332 
3 1373 1372 1332 
3 1373 1332 1333 
3 1374 1373 1333 
3 1374 1333 1335 
3 1372 1375 1334 
3 1375 1335 1334 
3 1375 1374 1335 
3 1376 1339 1336 
3 1377 1376 1336 
3 1377 1336 1337 
3 1378 1377 1337 
3 1378 1337 1338 
3 1379 1338 1339 
3 1379 1378 1338 
3 1376 1379 1339 
3 1340 1342 1343 
3 1340 1341 1342 
3 1380 1345 1344 
3 1381 1344 1347 
3 1380 1344 1381 
3 1346 1345 1382 
3 1382 1345 1380 
3 1346 1382 1383 
3 1346 1383 1367 
3 1346 1382 1359 
3 1384 1347 1371 
3 1381 1347 1384 
3 1348 1369 1366 
3 1352 1349 1385 
3 1349 1350 1386 
3 1349 1386 1385 
3 1350 1351 1387 
3 1350 1387 1386 
3 1351 1352 1388 
3 1351 1388 1387 
3 1352 1385 1388 
3 1356 1353 1354 
3 1356 1354 1355 
3 1389 1357 1358 
3 1390 1360 1357 
3 1390 1357 1389 
3 1391 1358 1359 
3 1389 1358 1391 
3 1359 1368 1392 
3 1392 1359 1382 
3 1393 1359 1382 
3 1391 1359 1393 
3 1394 1361 1360 
3 1394 1360 1390 
3 1395 1362 1361 
3 1371 1361 1395 
3 1384 1371 1361 
3 1384 1361 1394 
3 1396 1363 1362 
3 1397 1362 1395 
3 1397 1396 1362 
3 1396 1398 1363 
3 1398 1370 1363 
3 1369 1364 1399 
3 1364 1365 1400 
3 1364 1400 1399 
3 1365 1366 1401 
3 1365 1401 1400 
3 1366 1369 1402 
3 1366 1402 1401 
3 1367 1403 1404 
3 1367 1383 1403 
3 1368 1367 1404 
3 1392 1368 1405 
3 1368 1404 1405 
3 1369 1399 1402 
3 1370 1395 1371 
3 1398 1406 1370 
3 1406 1395 1370 
3 1407 1375 1372 
3 1408 1407 1372 
3 1408 1372 1373 
3 1409 1408 1373 
3 1409 1373 1374 
3 1410 1374 1375 
3 1410 1409 1374 
3 1407 1410 1375 
3 1411 1379 1376 
3 1412 1411 1376 
3 1412 1376 1377 
3 1413 1412 1377 
3 1413 1377 1378 
3 1414 1378 1379 
3 1414 1413 1378 
3 1411 1414 1379 
3 1415 1380 1381 
3 1416 1380 1415 
3 1393 1382 1380 
3 1417 1381 1384 
3 1415 1381 1417 
3 1382 1392 1383 
3 1383 1418 1403 
3 1383 1392 1418 
3 1419 1384 1420 
3 1417 1384 1419 
3 1388 1385 1421 
3 1385 1386 1422 
3 1385 1422 1421 
3 1386 1387 1423 
3 1386 1423 1422 
3 1387 1388 1424 
3 1387 1424 1423 
3 1388 1421 1424 
3 1425 1389 1391 
3 1426 1390 1389 
3 1426 1389 1425 
3 1394 1390 1426 
3 1427 1391 1393 
3 1425 1391 1427 
3 1392 1405 1418 
3 1428 1429 1393 
3 1429 1430 1393 
3 1393 1430 1431 
3 1428 1393 1416 
3 1393 1431 1416 
3 1427 1393 1430 
3 1394 1432 1433 
3 1394 1434 1432 
3 1435 1434 1394 
3 1420 1394 1433 
3 1420 1435 1394 
3 1434 1394 1426 
3 1406 1397 1395 
3 1436 1398 1396 
3 1437 1436 1396 
3 1437 1396 1397 
3 1438 1397 1406 
3 1438 1437 1397 
3 1439 1406 1398 
3 1436 1439 1398 
3 1402 1399 1440 
3 1399 1400 1441 
3 1399 1441 1440 
3 1400 1401 1442 
3 1400 1442 1441 
3 1401 1402 1443 
3 1401 1443 1442 
3 1402 1440 1443 
3 1403 1418 1444 
3 1403 1444 1445 
3 1404 1403 1445 
3 1404 1445 1446 
3 1405 1404 1446 
3 1418 1405 1447 
3 1405 1446 1447 
3 1439 1438 1406 
3 1448 1410 1407 
3 1449 1448 1407 
3 1449 1407 1408 
3 1450 1449 1408 
3 1450 1408 1409 
3 1451 1409 1410 
3 1451 1450 1409 
3 1448 1451 1410 
3 1411 1413 1414 
3 1411 1412 1413 
3 1452 1415 1417 
3 1416 1415 1431 
3 1431 1415 1452 
3 1453 1416 1431 
3 1453 1428 1416 
3 1454 1417 1419 
3 1452 1417 1454 
3 1418 1447 1444 
3 1435 1419 1420 
3 1455 1419 1435 
3 1454 1419 1455 
3 1435 1420 1456 
3 1420 1433 1456 
3 1424 1421 1422 
3 1424 1422 1423 
3 1425 1427 1457 
3 1457 1426 1425 
3 1434 1426 1457 
3 1457 1427 1430 
3 1458 1429 1428 
3 1459 1458 1428 
3 1459 1428 1453 
3 1458 1460 1429 
3 1460 1461 1429 
3 1429 1461 1430 
3 1461 1431 1430 
3 1457 1430 1461 
3 1461 1453 1431 
3 1431 1452 1454 
3 1431 1454 1462 
3 1453 1431 1462 
3 1433 1432 1463 
3 1432 1464 1463 
3 1432 1465 1464 
3 1434 1465 1432 
3 1433 1463 1466 
3 1456 1433 1466 
3 1434 1435 1465 
3 1465 1434 1457 
3 1435 1456 1465 
3 1454 1455 1435 
3 1462 1454 1435 
3 1462 1435 1456 
3 1467 1439 1436 
3 1468 1467 1436 
3 1469 1436 1437 
3 1468 1436 1469 
3 1470 1469 1437 
3 1471 1470 1437 
3 1471 1437 1438 
3 1438 1439 1467 
3 1472 1438 1467 
3 1472 1473 1438 
3 1473 1471 1438 
3 1443 1440 1474 
3 1440 1441 1475 
3 1440 1475 1474 
3 1441 1442 1476 
3 1441 1476 1475 
3 1442 1443 1477 
3 1442 1477 1476 
3 1443 1474 1477 
3 1478 1444 1447 
3 1445 1444 1478 
3 1445 1478 1479 
3 1446 1445 1480 
3 1481 1480 1445 
3 1481 1445 1479 
3 1446 1480 1482 
3 1446 1482 1483 
3 1447 1446 1483 
3 1478 1447 1484 
3 1447 1485 1484 
3 1447 1483 1485 
3 1486 1451 1448 
3 1487 1486 1448 
3 1487 1448 1449 
3 1488 1487 1449 
3 1488 1449 1450 
3 1489 1450 1451 
3 1489 1488 1450 
3 1486 1489 1451 
3 1490 1459 1453 
3 1490 1453 1461 
3 1491 1461 1453 
3 1453 1462 1491 
3 1456 1466 1492 
3 1465 1456 1492 
3 1456 1465 1493 
3 1493 1462 1456 
3 1494 1495 1457 
3 1491 1494 1457 
3 1461 1491 1457 
3 1457 1495 1496 
3 1457 1496 1493 
3 1457 1493 1465 
3 1497 1460 1458 
3 1497 1458 1459 
3 1498 1459 1490 
3 1498 1499 1459 
3 1459 1499 1500 
3 1459 1500 1497 
3 1497 1501 1460 
3 1501 1490 1460 
3 1460 1490 1461 
3 1462 1495 1494 
3 1462 1494 1491 
3 1496 1495 1462 
3 1493 1496 1462 
3 1466 1463 1502 
3 1463 1464 1502 
3 1464 1503 1502 
3 1464 1492 1503 
3 1465 1492 1464 
3 1492 1466 1504 
3 1466 1505 1504 
3 1502 1505 1466 
3 1506 1472 1467 
3 1507 1467 1468 
3 1467 1507 1508 
3 1467 1508 1506 
3 1509 1510 1468 
3 1468 1469 1511 
3 1509 1468 1511 
3 1507 1468 1510 
3 1511 1469 1472 
3 1472 1469 1512 
3 1469 1470 1512 
3 1513 1512 1470 
3 1514 1513 1470 
3 1514 1470 1471 
3 1515 1471 1473 
3 1515 1514 1471 
3 1506 1511 1472 
3 1472 1512 1473 
3 1516 1473 1512 
3 1516 1515 1473 
3 1477 1474 1475 
3 1477 1475 1476 
3 1478 1484 1517 
3 1500 1479 1478 
3 1500 1478 1518 
3 1517 1518 1478 
3 1481 1479 1500 
3 1484 1480 1481 
3 1519 1480 1484 
3 1519 1482 1480 
3 1484 1481 1517 
3 1517 1481 1520 
3 1481 1500 1520 
3 1482 1519 1521 
3 1482 1521 1522 
3 1483 1482 1522 
3 1485 1483 1523 
3 1483 1522 1523 
3 1485 1519 1484 
3 1519 1485 1524 
3 1485 1523 1524 
3 1487 1489 1486 
3 1487 1488 1489 
3 1501 1498 1490 
3 1492 1504 1507 
3 1492 1507 1503 
3 1497 1500 1501 
3 1501 1518 1498 
3 1525 1499 1498 
3 1525 1498 1518 
3 1525 1526 1499 
3 1526 1500 1499 
3 1501 1500 1518 
3 1526 1520 1500 
3 1502 1510 1505 
3 1503 1510 1502 
3 1507 1510 1503 
3 1504 1505 1527 
3 1508 1507 1504 
3 1508 1504 1527 
3 1505 1528 1527 
3 1505 1510 1509 
3 1505 1509 1528 
3 1508 1509 1506 
3 1509 1511 1506 
3 1529 1508 1530 
3 1529 1531 1508 
3 1531 1509 1508 
3 1530 1508 1527 
3 1532 1533 1509 
3 1531 1532 1509 
3 1509 1533 1528 
3 1513 1516 1512 
3 1534 1535 1513 
3 1534 1513 1514 
3 1535 1516 1513 
3 1536 1534 1514 
3 1536 1514 1515 
3 1535 1537 1515 
3 1537 1536 1515 
3 1535 1515 1516 
3 1517 1520 1538 
3 1517 1538 1518 
3 1525 1518 1538 
3 1519 1524 1521 
3 1538 1520 1539 
3 1520 1540 1541 
3 1520 1541 1539 
3 1526 1540 1520 
3 1521 1542 1543 
3 1522 1521 1543 
3 1521 1524 1542 
3 1522 1543 1544 
3 1523 1522 1544 
3 1524 1523 1545 
3 1523 1544 1545 
3 1524 1545 1542 
3 1546 1547 1525 
3 1548 1526 1525 
3 1549 1550 1525 
3 1525 1538 1549 
3 1546 1525 1550 
3 1548 1525 1547 
3 1526 1551 1540 
3 1548 1551 1526 
3 1552 1527 1553 
3 1553 1527 1528 
3 1527 1552 1530 
3 1528 1554 1555 
3 1533 1554 1528 
3 1553 1528 1556 
3 1528 1555 1556 
3 1557 1529 1530 
3 1558 1529 1557 
3 1559 1531 1529 
3 1558 1559 1529 
3 1552 1554 1530 
3 1557 1530 1533 
3 1554 1533 1530 
3 1560 1532 1531 
3 1559 1560 1531 
3 1532 1557 1533 
3 1561 1557 1532 
3 1560 1561 1532 
3 1562 1535 1534 
3 1563 1562 1534 
3 1563 1534 1536 
3 1562 1564 1535 
3 1564 1537 1535 
3 1565 1563 1536 
3 1565 1536 1537 
3 1564 1565 1537 
3 1549 1538 1566 
3 1538 1539 1566 
3 1566 1539 1567 
3 1539 1541 1568 
3 1539 1568 1567 
3 1540 1549 1569 
3 1549 1540 1551 
3 1540 1569 1541 
3 1541 1569 1570 
3 1541 1570 1568 
3 1543 1542 1571 
3 1542 1572 1571 
3 1542 1545 1572 
3 1543 1571 1573 
3 1544 1543 1573 
3 1544 1573 1574 
3 1545 1544 1574 
3 1545 1574 1572 
3 1575 1576 1546 
3 1577 1546 1578 
3 1578 1546 1550 
3 1577 1575 1546 
3 1576 1547 1546 
3 1548 1547 1579 
3 1576 1579 1547 
3 1548 1579 1580 
3 1548 1578 1551 
3 1580 1578 1548 
3 1549 1551 1550 
3 1549 1566 1569 
3 1578 1550 1551 
3 1552 1553 1581 
3 1552 1581 1555 
3 1554 1552 1555 
3 1582 1553 1556 
3 1581 1553 1582 
3 1555 1581 1583 
3 1555 1583 1584 
3 1585 1555 1584 
3 1556 1555 1585 
3 1586 1582 1556 
3 1556 1585 1586 
3 1561 1558 1557 
3 1587 1558 1561 
3 1587 1588 1558 
3 1588 1559 1558 
3 1589 1560 1559 
3 1588 1589 1559 
3 1590 1561 1560 
3 1589 1590 1560 
3 1590 1587 1561 
3 1591 1562 1563 
3 1591 1592 1562 
3 1592 1564 1562 
3 1593 1563 1565 
3 1593 1591 1563 
3 1594 1565 1564 
3 1592 1594 1564 
3 1594 1593 1565 
3 1569 1566 1595 
3 1566 1567 1595 
3 1595 1567 1596 
3 1567 1568 1597 
3 1567 1597 1596 
3 1568 1570 1598 
3 1568 1598 1597 
3 1569 1595 1570 
3 1570 1595 1599 
3 1570 1599 1598 
3 1573 1571 1600 
3 1571 1601 1600 
3 1571 1572 1601 
3 1572 1574 1602 
3 1572 1602 1601 
3 1574 1573 1603 
3 1573 1600 1603 
3 1574 1603 1602 
3 1575 1604 1576 
3 1605 1604 1575 
3 1606 1605 1575 
3 1606 1575 1577 
3 1576 1607 1608 
3 1609 1607 1576 
3 1604 1610 1576 
3 1576 1608 1579 
3 1609 1576 1611 
3 1612 1577 1578 
3 1613 1606 1577 
3 1613 1577 1612 
3 1612 1578 1611 
3 1580 1611 1578 
3 1580 1579 1608 
3 1580 1608 1614 
3 1614 1611 1580 
3 1581 1582 1615 
3 1581 1615 1616 
3 1581 1616 1583 
3 1617 1582 1586 
3 1582 1617 1618 
3 1582 1618 1615 
3 1583 1616 1619 
3 1583 1619 1620 
3 1584 1583 1620 
3 1584 1621 1585 
3 1584 1622 1621 
3 1622 1584 1623 
3 1584 1620 1623 
3 1585 1615 1618 
3 1586 1585 1624 
3 1625 1585 1621 
3 1585 1618 1624 
3 1626 1617 1586 
3 1586 1624 1626 
3 1590 1589 1587 
3 1589 1588 1587 
3 1627 1628 1591 
3 1627 1591 1593 
3 1628 1592 1591 
3 1629 1594 1592 
3 1628 1629 1592 
3 1630 1593 1594 
3 1630 1627 1593 
3 1629 1630 1594 
3 1595 1596 1599 
3 1599 1596 1597 
3 1599 1597 1598 
3 1600 1631 1632 
3 1603 1600 1632 
3 1600 1601 1631 
3 1601 1602 1633 
3 1601 1633 1631 
3 1602 1603 1634 
3 1602 1634 1633 
3 1603 1632 1634 
3 1635 1604 1612 
3 1604 1635 1610 
3 1636 1612 1604 
3 1605 1636 1604 
3 1637 1638 1605 
3 1637 1605 1606 
3 1638 1636 1605 
3 1639 1637 1606 
3 1639 1606 1613 
3 1607 1640 1641 
3 1607 1609 1640 
3 1641 1608 1607 
3 1614 1608 1642 
3 1641 1642 1608 
3 1643 1640 1609 
3 1614 1609 1611 
3 1643 1609 1614 
3 1635 1611 1610 
3 1611 1635 1612 
3 1636 1613 1612 
3 1644 1613 1636 
3 1644 1639 1613 
3 1614 1642 1643 
3 1615 1625 1621 
3 1615 1622 1616 
3 1615 1621 1622 
3 1616 1622 1645 
3 1616 1645 1619 
3 1646 1617 1626 
3 1618 1617 1646 
3 1647 1648 1618 
3 1648 1624 1618 
3 1618 1646 1647 
3 1619 1645 1649 
3 1619 1649 1650 
3 1620 1619 1650 
3 1623 1620 1651 
3 1620 1650 1651 
3 1622 1623 1645 
3 1645 1623 1652 
3 1623 1651 1652 
3 1626 1624 1648 
3 1653 1646 1626 
3 1626 1648 1653 
3 1628 1627 1630 
3 1629 1628 1630 
3 1634 1632 1631 
3 1634 1631 1633 
3 1638 1644 1636 
3 1638 1637 1639 
3 1638 1639 1644 
3 1641 1640 1654 
3 1654 1640 1643 
3 1641 1654 1655 
3 1656 1642 1641 
3 1656 1641 1655 
3 1643 1642 1656 
3 1643 1656 1657 
3 1654 1643 1657 
3 1645 1652 1649 
3 1658 1646 1653 
3 1659 1647 1646 
3 1659 1646 1658 
3 1660 1648 1647 
3 1659 1660 1647 
3 1661 1653 1648 
3 1661 1648 1660 
3 1650 1649 1652 
3 1651 1650 1652 
3 1661 1658 1653 
3 1655 1654 1662 
3 1662 1654 1657 
3 1655 1662 1663 
3 1663 1664 1655 
3 1664 1656 1655 
3 1657 1656 1665 
3 1656 1664 1666 
3 1656 1666 1665 
3 1657 1665 1667 
3 1662 1657 1667 
3 1668 1658 1661 
3 1669 1670 1658 
3 1668 1669 1658 
3 1659 1658 1670 
3 1671 1672 1659 
3 1672 1660 1659 
3 1659 1670 1671 
3 1673 1661 1660 
3 1673 1660 1672 
3 1673 1668 1661 
3 1663 1662 1674 
3 1662 1675 1676 
3 1662 1676 1674 
3 1662 1667 1675 
3 1663 1674 1677 
3 1677 1678 1663 
3 1678 1664 1663 
3 1678 1666 1664 
3 1665 1666 1679 
3 1665 1679 1680 
3 1667 1665 1680 
3 1675 1666 1678 
3 1666 1675 1681 
3 1666 1681 1679 
3 1667 1680 1682 
3 1682 1675 1667 
3 1683 1669 1668 
3 1684 1683 1668 
3 1684 1668 1673 
3 1670 1669 1685 
3 1685 1669 1686 
3 1687 1686 1669 
3 1683 1687 1669 
3 1671 1670 1685 
3 1688 1672 1671 
3 1689 1688 1671 
3 1671 1685 1689 
3 1690 1686 1672 
3 1688 1690 1672 
3 1686 1673 1672 
3 1691 1684 1673 
3 1673 1686 1691 
3 1677 1674 1692 
3 1674 1676 1693 
3 1674 1693 1692 
3 1675 1678 1676 
3 1682 1681 1675 
3 1676 1678 1694 
3 1676 1694 1693 
3 1677 1692 1695 
3 1678 1677 1695 
3 1678 1695 1694 
3 1680 1679 1696 
3 1679 1697 1696 
3 1679 1681 1697 
3 1680 1696 1698 
3 1682 1680 1698 
3 1699 1681 1682 
3 1699 1697 1681 
3 1682 1698 1699 
3 1700 1683 1684 
3 1700 1701 1683 
3 1701 1687 1683 
3 1702 1700 1684 
3 1702 1684 1691 
3 1703 1689 1685 
3 1690 1685 1686 
3 1704 1703 1685 
3 1704 1685 1690 
3 1686 1687 1691 
3 1691 1687 1705 
3 1687 1701 1705 
3 1706 1688 1689 
3 1707 1690 1688 
3 1706 1707 1688 
3 1703 1706 1689 
3 1707 1704 1690 
3 1705 1702 1691 
3 1695 1692 1708 
3 1692 1693 1709 
3 1692 1709 1708 
3 1693 1694 1710 
3 1693 1710 1709 
3 1694 1695 1711 
3 1694 1711 1710 
3 1695 1708 1711 
3 1696 1712 1713 
3 1698 1696 1713 
3 1696 1697 1712 
3 1714 1697 1699 
3 1714 1712 1697 
3 1699 1698 1715 
3 1698 1713 1715 
3 1699 1715 1714 
3 1716 1717 1700 
3 1716 1700 1702 
3 1717 1701 1700 
3 1705 1701 1718 
3 1701 1717 1718 
3 1719 1702 1705 
3 1719 1716 1702 
3 1720 1703 1704 
3 1721 1706 1703 
3 1720 1721 1703 
3 1722 1704 1707 
3 1722 1720 1704 
3 1718 1719 1705 
3 1723 1707 1706 
3 1721 1723 1706 
3 1723 1722 1707 
3 1711 1708 1724 
3 1708 1709 1725 
3 1708 1725 1724 
3 1709 1710 1726 
3 1709 1726 1725 
3 1710 1727 1726 
3 1710 1711 1727 
3 1711 1724 1727 
3 1713 1712 1728 
3 1729 1712 1714 
3 1729 1728 1712 
3 1713 1728 1730 
3 1715 1713 1730 
3 1714 1715 1731 
3 1714 1731 1729 
3 1715 1730 1731 
3 1732 1717 1716 
3 1733 1732 1716 
3 1733 1716 1719 
3 1718 1717 1734 
3 1717 1732 1734 
3 1735 1719 1718 
3 1734 1735 1718 
3 1735 1733 1719 
3 1736 1720 1722 
3 1737 1721 1720 
3 1736 1737 1720 
3 1738 1723 1721 
3 1737 1738 1721 
3 1739 1736 1722 
3 1739 1722 1723 
3 1738 1739 1723 
3 1727 1724 1740 
3 1724 1725 1741 
3 1724 1741 1740 
3 1725 1726 1742 
3 1725 1742 1741 
3 1726 1727 1743 
3 1726 1743 1742 
3 1727 1740 1743 
3 1730 1728 1729 
3 1730 1729 1731 
3 1734 1732 1733 
3 1735 1734 1733 
3 1744 1736 1739 
3 1745 1737 1736 
3 1744 1745 1736 
3 1746 1738 1737 
3 1745 1746 1737 
3 1747 1739 1738 
3 1746 1747 1738 
3 1747 1744 1739 
3 1741 1743 1740 
3 1741 1742 1743 
3 1745 1744 1747 
3 1745 1747 1746 
3 1750 1749 1748 
3 1750 1748 1751 
3 1752 1749 1748 
3 1751 1748 1753 
3 1748 1752 1753 
3 1750 1754 1749 
3 1749 1754 1755 
3 1749 1755 1752 
3 1750 1756 1754 
3 1756 1750 1757 
3 1750 1751 1758 
3 1750 1758 1757 
3 1751 1753 1758 
3 1753 1752 1759 
3 1752 1755 1760 
3 1752 1760 1759 
3 1758 1753 1761 
3 1753 1759 1761 
3 1754 1762 1755 
3 1754 1756 1762 
3 1755 1762 1763 
3 1755 1763 1760 
3 1762 1757 1756 
3 1764 1757 1762 
3 1757 1758 1765 
3 1757 1765 1764 
3 1758 1761 1765 
3 1761 1759 1766 
3 1759 1760 1767 
3 1759 1767 1766 
3 1760 1763 1768 
3 1760 1768 1767 
3 1765 1761 1769 
3 1761 1766 1769 
3 1762 1764 1763 
3 1763 1764 1770 
3 1763 1770 1768 
3 1764 1765 1771 
3 1764 1771 1770 
3 1765 1769 1771 
3 1769 1766 1772 
3 1766 1767 1773 
3 1766 1773 1772 
3 1767 1768 1774 
3 1767 1774 1773 
3 1768 1770 1775 
3 1768 1775 1774 
3 1771 1769 1776 
3 1769 1772 1776 
3 1770 1771 1777 
3 1770 1777 1775 
3 1771 1776 1777 
3 1776 1772 1778 
3 1772 1773 1779 
3 1772 1779 1778 
3 1773 1774 1780 
3 1773 1780 1779 
3 1774 1775 1781 
3 1774 1781 1780 
3 1775 1777 1782 
3 1775 1782 1781 
3 1777 1776 1783 
3 1776 1778 1783 
3 1777 1783 1782 
3 1784 1778 1783 
3 1778 1779 1785 
3 1778 1785 1784 
3 1779 1780 1786 
3 1779 1786 1785 
3 1780 1781 1787 
3 1780 1787 1786 
3 1781 1782 1788 
3 1781 1788 1787 
3 1782 1783 1784 
3 1782 1784 1788 
3 1788 1784 1789 
3 1784 1785 1790 
3 1784 1790 1789 
3 1785 1786 1791 
3 1785 1791 1790 
3 1792 1787 1786 
3 1786 1792 1791 
3 1787 1788 1793 
3 1787 1793 1792 
3 1788 1789 1793 
3 1793 1789 1794 
3 1789 1790 1795 
3 1789 1795 1796 
3 1794 1796 1789 
3 1790 1791 1797 
3 1790 1797 1795 
3 1791 1792 1798 
3 1791 1798 1797 
3 1792 1793 1799 
3 1792 1799 1798 
3 1793 1794 1799 
3 1799 1794 1800 
3 1801 1796 1794 
3 1800 1801 1794 
3 1796 1795 1802 
3 1795 1797 1803 
3 1795 1803 1802 
3 1796 1802 1801 
3 1797 1798 1804 
3 1803 1804 1797 
3 1798 1799 1805 
3 1798 1805 1804 
3 1799 1800 1805 
3 1805 1800 1806 
3 1807 1801 1800 
3 1806 1807 1800 
3 1801 1802 1808 
3 1801 1808 1807 
3 1802 1803 1809 
3 1802 1809 1808 
3 1803 1804 1810 
3 1803 1810 1809 
3 1804 1805 1811 
3 1804 1811 1810 
3 1805 1806 1811 
3 1811 1806 1812 
3 1813 1807 1806 
3 1806 1813 1812 
3 1807 1808 1814 
3 1807 1814 1813 
3 1808 1809 1815 
3 1808 1815 1814 
3 1809 1810 1816 
3 1809 1816 1815 
3 1810 1811 1817 
3 1810 1817 1816 
3 1811 1812 1817 
3 1817 1812 1818 
3 1812 1813 1819 
3 1812 1819 1818 
3 1813 1814 1820 
3 1813 1820 1819 
3 1814 1815 1821 
3 1814 1821 1820 
3 1815 1816 1822 
3 1815 1822 1821 
3 1816 1817 1823 
3 1816 1823 1822 
3 1817 1818 1823 
3 1823 1818 1824 
3 1818 1819 1825 
3 1818 1825 1824 
3 1819 1820 1826 
3 1819 1826 1825 
3 1820 1821 1827 
3 1820 1827 1826 
3 1821 1822 1828 
3 1821 1828 1827 
3 1822 1823 1829 
3 1822 1829 1828 
3 1823 1824 1829 
3 1829 1824 1830 
3 1824 1825 1831 
3 1824 1831 1830 
3 1825 1826 1832 
3 1831 1832 1825 
3 1826 1827 1833 
3 1826 1833 1832 
3 1827 1828 1834 
3 1827 1834 1833 
3 1828 1829 1835 
3 1828 1835 1834 
3 1829 1830 1835 
3 1835 1830 1836 
3 1830 1831 1837 
3 1830 1837 1836 
3 1831 1832 1838 
3 1831 1838 1837 
3 1832 1833 1839 
3 1832 1839 1838 
3 1833 1834 1840 
3 1833 1840 1839 
3 1834 1835 1841 
3 1834 1841 1840 
3 1835 1836 1841 
3 1841 1836 1838 
3 1836 1837 1838 
3 1841 1838 1839 
3 1840 1841 1839 
3 1842 1843 1844 
3 1842 1845 1846 
3 1842 1846 1843 
3 1847 1848 1842 
3 1842 1844 1849 
3 1848 1845 1842 
3 1847 1842 1849 
3 1850 1851 1843 
3 1850 1843 1846 
3 1851 1844 1843 
3 1851 1852 1844 
3 1852 1849 1844 
3 1848 1853 1845 
3 1853 1846 1845 
3 1853 1850 1846 
3 1852 1847 1849 
3 1854 1855 1847 
3 1854 1847 1852 
3 1855 1848 1847 
3 1855 1856 1848 
3 1856 1853 1848 
3 1857 1858 1850 
3 1857 1850 1853 
3 1858 1851 1850 
3 1858 1859 1851 
3 1859 1852 1851 
3 1859 1854 1852 
3 1856 1857 1853 
3 1860 1861 1854 
3 1860 1854 1859 
3 1861 1855 1854 
3 1861 1862 1855 
3 1862 1856 1855 
3 1862 1863 1856 
3 1863 1857 1856 
3 1863 1864 1857 
3 1864 1858 1857 
3 1864 1865 1858 
3 1865 1859 1858 
3 1865 1860 1859 
3 1866 1867 1860 
3 1866 1860 1865 
3 1867 1861 1860 
3 1867 1868 1861 
3 1868 1862 1861 
3 1868 1869 1862 
3 1869 1863 1862 
3 1869 1870 1863 
3 1870 1864 1863 
3 1870 1871 1864 
3 1871 1865 1864 
3 1871 1866 1865 
3 1872 1873 1866 
3 1872 1866 1871 
3 1873 1867 1866 
3 1873 1874 1867 
3 1874 1868 1867 
3 1874 1875 1868 
3 1875 1869 1868 
3 1875 1876 1869 
3 1876 1870 1869 
3 1876 1877 1870 
3 1877 1871 1870 
3 1877 1872 1871 
3 1878 1879 1872 
3 1878 1872 1877 
3 1879 1873 1872 
3 1879 1880 1873 
3 1880 1874 1873 
3 1880 1881 1874 
3 1881 1875 1874 
3 1881 1882 1875 
3 1882 1876 1875 
3 1882 1883 1876 
3 1883 1877 1876 
3 1883 1878 1877 
3 1884 1885 1878 
3 1885 1879 1878 
3 1884 1878 1883 
3 1885 1886 1879 
3 1886 1880 1879 
3 1886 1887 1880 
3 1887 1881 1880 
3 1887 1888 1881 
3 1888 1882 1881 
3 1888 1889 1882 
3 1889 1883 1882 
3 1889 1884 1883 
3 1890 1891 1884 
3 1890 1884 1889 
3 1891 1885 1884 
3 1891 1892 1885 
3 1892 1886 1885 
3 1892 1893 1886 
3 1893 1887 1886 
3 1893 1894 1887 
3 1894 1888 1887 
3 1894 1895 1888 
3 1895 1889 1888 
3 1895 1890 1889 
3 1896 1897 1890 
3 1896 1890 1895 
3 1897 1891 1890 
3 1897 1898 1891 
3 1898 1892 1891 
3 1898 1899 1892 
3 1899 1893 1892 
3 1899 1900 1893 
3 1900 1894 1893 
3 1900 1901 1894 
3 1901 1895 1894 
3 1901 1896 1895 
3 1902 1903 1896 
3 1902 1896 1901 
3 1903 1897 1896 
3 1903 1904 1897 
3 1904 1898 1897 
3 1904 1905 1898 
3 1905 1899 1898 
3 1905 1906 1899 
3 1906 1900 1899 
3 1906 1907 1900 
3 1907 1901 1900 
3 1907 1902 1901 
3 1908 1909 1902 
3 1908 1902 1907 
3 1909 1903 1902 
3 1909 1910 1903 
3 1910 1904 1903 
3 1910 1911 1904 
3 1911 1905 1904 
3 1911 1912 1905 
3 1912 1906 1905 
3 1912 1913 1906 
3 1913 1907 1906 
3 1913 1908 1907 
3 1914 1915 1908 
3 1914 1908 1913 
3 1915 1909 1908 
3 1915 1916 1909 
3 1916 1910 1909 
3 1916 1917 1910 
3 1917 1911 1910 
3 1917 1918 1911 
3 1918 1912 1911 
3 1918 1919 1912 
3 1919 1913 1912 
3 1919 1914 1913 
3 1920 1921 1914 
3 1921 1915 1914 
3 1920 1914 1919 
3 1921 1922 1915 
3 1922 1916 1915 
3 1922 1923 1916 
3 1923 1917 1916 
3 1923 1924 1917 
3 1924 1918 1917 
3 1924 1925 1918 
3 1925 1919 1918 
3 1925 1920 1919 
3 1926 1927 1920 
3 1926 1920 1925 
3 1927 1921 1920 
3 1927 1928 1921 
3 1928 1922 1921 
3 1928 1929 1922 
3 1929 1923 1922 
3 1929 1930 1923 
3 1930 1924 1923 
3 1930 1931 1924 
3 1931 1925 1924 
3 1931 1926 1925 
3 1932 1933 1926 
3 1932 1926 1931 
3 1933 1927 1926 
3 1933 1934 1927 
3 1934 1928 1927 
3 1934 1935 1928 
3 1935 1929 1928 
3 1935 1936 1929 
3 1936 1930 1929 
3 1936 1937 1930 
3 1937 1931 1930 
3 1937 1932 1931 
3 1932 1934 1933 
3 1935 1934 1932 
3 1937 1935 1932 
3 1937 1936 1935 
3 1938 1939 1940 
3 1938 1941 1942 
3 1938 1940 1941 
3 1943 1939 1938 
3 1938 1942 1943 
3 1939 1944 1945 
3 1944 1939 1946 
3 1943 1946 1939 
3 1939 1945 1940 
3 1941 1940 1947 
3 1940 1945 1948 
3 1940 1948 1947 
3 1941 1947 1942 
3 1943 1942 1949 
3 1942 1947 1950 
3 1942 1950 1949 
3 1951 1946 1943 
3 1943 1949 1951 
3 1945 1944 1952 
3 1944 1946 1952 
3 1945 1952 1948 
3 1952 1946 1953 
3 1951 1953 1946 
3 1947 1948 1954 
3 1947 1954 1950 
3 1948 1952 1955 
3 1948 1955 1954 
3 1951 1949 1956 
3 1949 1950 1957 
3 1949 1957 1956 
3 1950 1954 1958 
3 1950 1958 1957 
3 1959 1953 1951 
3 1951 1956 1959 
3 1952 1953 1955 
3 1955 1953 1960 
3 1959 1960 1953 
3 1954 1955 1961 
3 1954 1961 1958 
3 1955 1960 1961 
3 1959 1956 1962 
3 1956 1957 1963 
3 1956 1963 1962 
3 1957 1958 1964 
3 1957 1964 1963 
3 1958 1961 1965 
3 1958 1965 1964 
3 1966 1960 1959 
3 1959 1962 1966 
3 1961 1960 1967 
3 1966 1967 1960 
3 1961 1967 1965 
3 1966 1962 1968 
3 1962 1963 1969 
3 1962 1969 1968 
3 1963 1964 1970 
3 1963 1970 1969 
3 1964 1965 1971 
