NORM_ASCII
2270 4536
3 542 649 543 
3 544 557 546 
3 560 557 544 
3 546 557 545 
3 651 547 549 
3 547 651 551 
3 548 553 549 
3 553 651 549 
3 550 552 652 
3 652 567 550 
3 551 555 552 
3 551 651 555 
3 552 555 653 
3 653 652 552 
3 553 555 651 
3 556 654 554 
3 554 655 555 
3 654 655 554 
3 555 656 653 
3 655 656 555 
3 654 556 565 
3 657 558 595 
3 559 558 658 
3 558 597 595 
3 658 558 657 
3 659 660 559 
3 559 658 661 
3 661 659 559 
3 660 662 559 
3 662 561 559 
3 566 561 663 
3 663 561 662 
3 563 562 664 
3 562 564 664 
3 664 665 563 
3 563 665 654 
3 565 563 654 
3 566 666 564 
3 666 664 564 
3 566 663 666 
3 567 667 568 
3 668 567 652 
3 668 669 567 
3 667 567 669 
3 670 569 568 
3 670 568 671 
3 667 671 568 
3 569 672 673 
3 673 570 569 
3 569 670 672 
3 571 570 572 
3 570 673 572 
3 674 573 572 
3 673 675 572 
3 572 675 674 
3 583 573 676 
3 676 573 674 
3 577 677 574 
3 678 574 677 
3 678 575 574 
3 679 575 678 
3 679 581 575 
3 576 680 577 
3 681 680 576 
3 576 682 683 
3 579 682 576 
3 576 683 684 
3 684 681 576 
3 577 680 677 
3 579 578 585 
3 582 585 578 
3 682 579 586 
3 586 579 585 
3 685 580 581 
3 685 612 580 
3 686 581 679 
3 687 581 686 
3 687 685 581 
3 584 585 582 
3 688 587 583 
3 583 676 688 
3 586 689 682 
3 587 689 586 
3 689 587 688 
3 588 590 690 
3 588 690 589 
3 596 589 691 
3 691 589 690 
3 692 690 590 
3 590 693 692 
3 693 590 591 
3 591 694 693 
3 695 694 591 
3 592 695 591 
3 696 592 697 
3 696 695 592 
3 594 697 592 
3 593 698 594 
3 593 601 698 
3 594 699 700 
3 698 699 594 
3 697 594 700 
3 596 657 595 
3 691 657 596 
3 606 599 625 
3 601 600 602 
3 602 701 601 
3 701 698 601 
3 602 603 701 
3 702 703 603 
3 703 701 603 
3 704 603 611 
3 705 702 603 
3 705 603 704 
3 611 604 706 
3 604 605 707 
3 604 707 706 
3 611 610 604 
3 605 608 707 
3 606 625 607 
3 607 708 709 
3 624 708 607 
3 625 624 607 
3 609 607 709 
3 710 707 608 
3 711 608 609 
3 711 710 608 
3 709 712 609 
3 711 609 712 
3 706 704 611 
3 713 612 685 
3 713 614 612 
3 616 614 713 
3 615 614 616 
3 616 713 617 
3 714 618 617 
3 617 713 715 
3 714 617 715 
3 618 716 717 
3 619 618 717 
3 716 618 714 
3 717 718 619 
3 718 719 619 
3 719 636 619 
3 624 620 720 
3 720 620 621 
3 621 623 720 
3 623 622 721 
3 721 622 633 
3 623 722 720 
3 623 723 722 
3 721 723 623 
3 720 708 624 
3 632 626 631 
3 724 627 628 
3 630 627 724 
3 628 725 726 
3 646 725 628 
3 727 724 628 
3 727 628 726 
3 631 629 728 
3 629 729 728 
3 730 629 630 
3 730 729 629 
3 630 724 730 
3 632 631 731 
3 631 728 731 
3 632 731 633 
3 721 633 732 
3 731 732 633 
3 634 733 635 
3 637 733 634 
3 734 635 733 
3 635 735 736 
3 736 737 635 
3 734 735 635 
3 635 737 638 
3 636 719 738 
3 637 636 739 
3 636 740 741 
3 741 739 636 
3 636 738 740 
3 637 739 742 
3 637 742 733 
3 638 737 640 
3 743 744 639 
3 640 743 639 
3 641 639 643 
3 639 744 643 
3 745 640 737 
3 745 743 640 
3 641 643 642 
3 643 746 747 
3 746 643 744 
3 650 645 643 
3 644 643 645 
3 650 643 747 
3 650 649 645 
3 748 725 646 
3 647 749 646 
3 748 646 749 
3 749 647 648 
3 648 750 751 
3 751 752 648 
3 648 650 750 
3 752 749 648 
3 650 753 754 
3 755 756 650 
3 747 753 650 
3 650 754 755 
3 756 750 650 
3 652 653 757 
3 652 757 668 
3 758 757 653 
3 759 653 656 
3 760 758 653 
3 760 653 759 
3 655 654 665 
3 665 761 655 
3 655 762 656 
3 763 762 655 
3 763 655 761 
3 759 656 762 
3 657 691 658 
3 661 658 691 
3 764 660 659 
3 692 659 661 
3 692 764 659 
3 765 662 660 
3 766 765 660 
3 764 766 660 
3 661 690 692 
3 691 690 661 
3 663 662 767 
3 662 765 768 
3 768 767 662 
3 666 663 767 
3 665 664 769 
3 770 769 664 
3 770 664 666 
3 769 771 665 
3 772 773 665 
3 772 665 771 
3 761 665 773 
3 774 666 767 
3 666 774 770 
3 671 667 775 
3 669 776 667 
3 667 776 775 
3 757 777 668 
3 669 668 777 
3 778 669 777 
3 776 669 778 
3 672 670 779 
3 670 780 779 
3 670 671 780 
3 671 781 782 
3 782 780 671 
3 671 775 781 
3 673 672 675 
3 672 783 675 
3 779 783 672 
3 676 674 784 
3 783 674 675 
3 784 674 783 
3 784 688 676 
3 785 677 680 
3 677 785 678 
3 678 785 786 
3 678 786 679 
3 679 786 787 
3 679 787 686 
3 680 681 785 
3 684 738 681 
3 681 738 719 
3 681 719 785 
3 689 683 682 
3 788 740 683 
3 683 740 684 
3 683 689 788 
3 684 740 738 
3 687 789 685 
3 685 715 713 
3 789 715 685 
3 716 686 787 
3 687 686 716 
3 789 687 716 
3 788 688 790 
3 790 688 791 
3 688 788 689 
3 792 688 784 
3 791 688 792 
3 693 764 692 
3 693 793 764 
3 793 693 694 
3 694 794 793 
3 795 796 694 
3 694 796 794 
3 795 694 695 
3 695 696 795 
3 797 696 697 
3 696 798 795 
3 696 797 799 
3 799 798 696 
3 800 797 697 
3 801 800 697 
3 700 801 697 
3 698 701 802 
3 802 699 698 
3 803 700 699 
3 699 802 804 
3 803 699 804 
3 801 700 803 
3 805 802 701 
3 701 703 805 
3 703 702 806 
3 702 705 806 
3 703 807 808 
3 703 809 805 
3 806 807 703 
3 808 809 703 
3 810 705 704 
3 704 706 811 
3 811 810 704 
3 810 806 705 
3 706 812 811 
3 707 813 706 
3 813 814 706 
3 706 815 816 
3 706 814 815 
3 706 816 817 
3 817 812 706 
3 813 707 710 
3 709 708 720 
3 720 818 709 
3 712 709 818 
3 813 710 711 
3 712 819 711 
3 711 819 813 
3 819 712 818 
3 714 715 716 
3 716 715 789 
3 787 717 716 
3 787 718 717 
3 718 786 785 
3 785 719 718 
3 786 718 787 
3 818 720 722 
3 820 723 721 
3 820 721 732 
3 821 818 722 
3 722 822 821 
3 822 722 723 
3 823 822 723 
3 723 820 823 
3 724 824 730 
3 727 825 724 
3 825 824 724 
3 725 748 726 
3 726 748 727 
3 826 727 748 
3 727 827 828 
3 727 828 825 
3 827 727 829 
3 727 830 829 
3 826 830 727 
3 731 728 729 
3 831 731 729 
3 831 729 730 
3 831 730 832 
3 824 832 730 
3 732 731 831 
3 732 833 834 
3 732 834 820 
3 833 732 831 
3 733 742 791 
3 791 734 733 
3 734 791 792 
3 792 835 734 
3 734 835 735 
3 735 836 736 
3 735 837 838 
3 735 835 837 
3 836 735 838 
3 736 836 745 
3 737 736 745 
3 739 741 788 
3 788 742 739 
3 788 741 740 
3 742 788 790 
3 790 791 742 
3 744 743 839 
3 745 839 743 
3 839 840 744 
3 841 744 842 
3 744 840 842 
3 744 843 746 
3 744 841 843 
3 844 745 836 
3 745 844 839 
3 747 746 845 
3 746 843 845 
3 753 747 845 
3 748 752 826 
3 752 748 749 
3 751 750 846 
3 750 847 848 
3 846 750 848 
3 750 756 847 
3 751 849 752 
3 846 849 751 
3 752 849 850 
3 826 752 850 
3 754 753 851 
3 852 753 845 
3 753 852 851 
3 851 853 754 
3 853 854 754 
3 755 754 854 
3 848 756 755 
3 855 856 755 
3 854 857 755 
3 755 857 855 
3 755 856 848 
3 848 847 756 
3 757 758 858 
3 777 757 858 
3 859 858 758 
3 859 758 760 
3 860 760 759 
3 759 861 860 
3 861 759 762 
3 862 760 860 
3 760 862 859 
3 761 863 864 
3 761 865 866 
3 864 867 761 
3 763 761 867 
3 866 863 761 
3 865 761 773 
3 868 869 762 
3 762 869 861 
3 868 762 763 
3 868 763 870 
3 867 870 763 
3 764 871 766 
3 793 871 764 
3 768 765 872 
3 872 765 766 
3 766 873 872 
3 871 873 766 
3 768 874 767 
3 767 874 875 
3 774 767 875 
3 873 874 768 
3 873 768 872 
3 876 877 769 
3 769 770 878 
3 879 880 769 
3 880 771 769 
3 879 769 877 
3 769 878 876 
3 770 881 882 
3 774 881 770 
3 770 882 878 
3 771 883 772 
3 883 771 880 
3 773 772 865 
3 883 884 772 
3 884 885 772 
3 772 886 887 
3 886 772 885 
3 865 772 887 
3 774 875 888 
3 774 888 881 
3 781 775 889 
3 889 775 776 
3 776 890 889 
3 778 890 776 
3 858 778 777 
3 858 891 778 
3 890 778 891 
3 783 779 892 
3 892 779 780 
3 892 780 893 
3 780 782 893 
3 889 782 781 
3 782 889 894 
3 893 782 895 
3 894 895 782 
3 896 783 892 
3 896 784 783 
3 784 835 792 
3 784 896 835 
3 794 873 793 
3 793 873 871 
3 794 897 873 
3 897 794 796 
3 796 795 898 
3 795 899 898 
3 899 795 798 
3 796 900 881 
3 881 901 796 
3 901 897 796 
3 900 796 898 
3 797 902 903 
3 797 903 799 
3 904 902 797 
3 905 797 800 
3 905 904 797 
3 899 798 903 
3 799 903 798 
3 906 800 907 
3 800 908 905 
3 906 908 800 
3 909 907 800 
3 800 801 910 
3 800 910 911 
3 800 911 912 
3 912 909 800 
3 910 801 803 
3 804 802 805 
3 910 803 804 
3 804 805 809 
3 804 809 808 
3 804 808 913 
3 804 913 910 
3 806 914 807 
3 914 806 810 
3 915 808 807 
3 915 807 914 
3 916 913 808 
3 808 915 917 
3 917 916 808 
3 810 811 918 
3 810 919 914 
3 919 810 918 
3 812 920 811 
3 920 918 811 
3 920 812 817 
3 921 814 813 
3 813 922 921 
3 813 819 922 
3 815 814 923 
3 923 814 924 
3 924 814 921 
3 925 816 815 
3 926 925 815 
3 815 923 926 
3 816 925 927 
3 817 816 927 
3 928 920 817 
3 927 928 817 
3 821 929 818 
3 930 819 818 
3 818 929 930 
3 930 922 819 
3 823 820 834 
3 931 821 822 
3 929 821 931 
3 822 823 931 
3 932 931 823 
3 823 834 932 
3 824 825 933 
3 824 934 832 
3 934 824 933 
3 935 825 936 
3 825 828 936 
3 933 825 935 
3 937 826 850 
3 826 937 830 
3 828 827 938 
3 939 940 827 
3 827 829 939 
3 827 940 938 
3 941 936 828 
3 828 938 941 
3 939 829 942 
3 942 829 830 
3 942 830 943 
3 943 830 937 
3 833 831 832 
3 944 945 832 
3 832 946 944 
3 947 946 832 
3 947 832 948 
3 832 934 948 
3 832 945 833 
3 949 834 833 
3 949 833 945 
3 949 932 834 
3 835 896 837 
3 836 950 951 
3 951 844 836 
3 836 838 950 
3 950 837 893 
3 837 896 893 
3 837 950 838 
3 840 839 952 
3 952 839 844 
3 952 953 840 
3 840 953 842 
3 842 954 841 
3 841 954 955 
3 955 843 841 
3 842 956 954 
3 953 957 842 
3 842 957 956 
3 845 843 955 
3 951 958 844 
3 844 958 952 
3 959 852 845 
3 845 955 960 
3 960 959 845 
3 846 961 849 
3 848 962 846 
3 962 963 846 
3 846 963 961 
3 856 964 848 
3 964 965 848 
3 848 965 962 
3 849 961 966 
3 849 966 850 
3 850 967 937 
3 850 966 967 
3 852 968 851 
3 851 968 969 
3 853 851 969 
3 959 970 852 
3 968 852 970 
3 853 969 971 
3 853 971 854 
3 971 857 854 
3 856 855 972 
3 973 855 857 
3 972 855 973 
3 964 856 972 
3 974 973 857 
3 857 971 975 
3 857 976 977 
3 977 978 857 
3 857 975 976 
3 974 857 978 
3 891 858 859 
3 859 979 891 
3 979 859 980 
3 862 980 859 
3 860 861 981 
3 862 860 981 
3 869 981 861 
3 982 980 862 
3 981 982 862 
3 983 864 863 
3 983 863 866 
3 864 984 867 
3 985 984 864 
3 864 986 985 
3 864 983 986 
3 866 865 987 
3 887 987 865 
3 987 983 866 
3 984 870 867 
3 868 988 869 
3 870 988 868 
3 989 981 869 
3 869 990 989 
3 988 990 869 
3 991 870 992 
3 991 988 870 
3 984 992 870 
3 897 874 873 
3 897 875 874 
3 901 875 897 
3 875 901 888 
3 877 876 993 
3 994 876 878 
3 994 995 876 
3 993 876 995 
3 993 996 877 
3 877 997 879 
3 996 997 877 
3 878 882 998 
3 998 994 878 
3 879 997 880 
3 997 883 880 
3 881 999 882 
3 881 888 901 
3 999 881 1000 
3 1000 881 900 
3 999 1001 882 
3 998 882 1001 
3 997 884 883 
3 884 1002 885 
3 884 996 1003 
3 884 997 996 
3 1002 884 1003 
3 1002 1004 885 
3 886 885 1005 
3 1004 1005 885 
3 887 886 1006 
3 1007 1008 886 
3 886 1008 1009 
3 1009 1006 886 
3 886 1005 1007 
3 1006 987 887 
3 889 890 894 
3 891 894 890 
3 894 891 1010 
3 1010 891 979 
3 893 896 892 
3 893 895 950 
3 1011 894 1010 
3 895 894 1011 
3 950 895 1012 
3 1012 895 1013 
3 1013 895 1011 
3 1014 900 898 
3 1015 1014 898 
3 898 1016 1015 
3 1016 898 899 
3 899 1017 1016 
3 903 1017 899 
3 900 1014 1000 
3 902 1017 903 
3 1017 902 1018 
3 902 1019 1018 
3 904 1019 902 
3 1019 904 1020 
3 1021 1020 904 
3 904 905 1021 
3 905 908 1021 
3 906 907 1022 
3 1022 1023 906 
3 908 906 1024 
3 1023 1024 906 
3 1025 907 909 
3 1022 907 1025 
3 908 1026 1021 
3 1026 908 1027 
3 1027 908 1024 
3 1028 909 912 
3 1025 909 1028 
3 1029 1030 910 
3 910 913 1029 
3 1031 911 910 
3 1032 1031 910 
3 910 1030 1032 
3 1033 912 911 
3 911 1031 1034 
3 911 1035 1036 
3 911 1036 1033 
3 1035 911 1034 
3 1037 912 1033 
3 1028 912 1037 
3 1029 913 916 
3 915 914 1038 
3 1038 914 919 
3 917 915 1039 
3 1039 915 1040 
3 1041 1040 915 
3 915 1038 1041 
3 916 917 1042 
3 916 1042 1029 
3 1039 1042 917 
3 920 919 918 
3 1043 919 1044 
3 1038 919 1043 
3 1044 919 920 
3 928 1044 920 
3 921 1045 924 
3 1045 921 922 
3 1045 922 930 
3 1046 1047 923 
3 923 924 1046 
3 926 923 1047 
3 1046 924 1045 
3 927 925 1048 
3 925 926 1049 
3 1049 1048 925 
3 1050 926 1047 
3 926 1050 1051 
3 1051 1049 926 
3 927 1048 1052 
3 1052 928 927 
3 928 1052 1053 
3 1053 1044 928 
3 929 1045 930 
3 929 1046 1045 
3 929 931 1054 
3 929 1055 1056 
3 1054 1055 929 
3 1056 1046 929 
3 931 932 949 
3 931 949 1057 
3 1058 931 1057 
3 1058 1054 931 
3 933 1059 1060 
3 948 934 933 
3 1061 948 933 
3 1060 1061 933 
3 933 935 1062 
3 1062 1059 933 
3 936 1063 935 
3 1062 935 1063 
3 941 1064 936 
3 936 1065 1063 
3 1065 936 1064 
3 1066 937 967 
3 943 937 1066 
3 1067 938 1068 
3 1068 938 940 
3 938 1069 941 
3 1067 1069 938 
3 939 1070 940 
3 1070 939 942 
3 1071 940 1070 
3 1068 940 1071 
3 1069 1072 941 
3 941 1072 1064 
3 942 1073 1074 
3 943 1073 942 
3 942 1074 1070 
3 943 1075 1076 
3 1066 1075 943 
3 943 1077 1073 
3 1076 1077 943 
3 1078 945 944 
3 944 1079 1078 
3 1080 1079 944 
3 944 946 1081 
3 1081 1080 944 
3 1078 1082 945 
3 945 1082 949 
3 947 1083 946 
3 1083 1081 946 
3 948 1084 947 
3 947 1084 1085 
3 1085 1083 947 
3 1086 948 1061 
3 948 1086 1084 
3 1057 949 1082 
3 951 950 1012 
3 958 951 1012 
3 952 1087 953 
3 958 1087 952 
3 957 953 1088 
3 1087 1088 953 
3 955 954 960 
3 1089 1090 954 
3 954 956 1089 
3 1090 1091 954 
3 954 959 960 
3 959 954 1091 
3 1089 956 1092 
3 1093 956 957 
3 1092 956 1093 
3 1088 1093 957 
3 958 1012 1013 
3 958 1013 1094 
3 1094 1087 958 
3 1091 1095 959 
3 959 1095 1096 
3 970 959 1096 
3 961 963 1097 
3 961 1097 1098 
3 1099 961 1098 
3 966 961 1099 
3 1100 962 965 
3 963 962 1100 
3 1097 963 1100 
3 964 972 1101 
3 1102 965 964 
3 1102 964 1101 
3 1100 965 1102 
3 967 966 1099 
3 967 1075 1066 
3 967 1103 1075 
3 1099 1103 967 
3 1096 969 968 
3 968 970 1096 
3 969 1096 1104 
3 1105 975 969 
3 969 1106 1105 
3 969 1104 1107 
3 1107 1106 969 
3 975 971 969 
3 972 973 1108 
3 972 1108 1102 
3 1102 1101 972 
3 1108 973 974 
3 1109 1108 974 
3 974 978 1109 
3 975 1105 1110 
3 975 1110 976 
3 976 1110 977 
3 977 1110 1111 
3 1111 978 977 
3 1109 978 1111 
3 1112 979 980 
3 1113 1010 979 
3 1114 979 1112 
3 979 1114 1113 
3 980 982 1112 
3 989 982 981 
3 1115 1112 982 
3 982 989 1115 
3 983 1116 986 
3 1117 1116 983 
3 1118 983 987 
3 1118 1117 983 
3 984 1119 1120 
3 984 1121 992 
3 1120 1121 984 
3 1119 984 1122 
3 1122 984 985 
3 985 1123 1122 
3 986 1123 985 
3 986 1116 1123 
3 987 1006 1118 
3 988 1124 990 
3 991 1125 988 
3 1124 988 1125 
3 990 1115 989 
3 1124 1115 990 
3 992 1126 991 
3 1125 991 1126 
3 992 1121 1126 
3 996 993 1127 
3 1128 1127 993 
3 1129 1130 993 
3 993 1130 1128 
3 993 995 1129 
3 998 1131 994 
3 995 994 1131 
3 1129 995 1131 
3 996 1127 1003 
3 1001 1132 998 
3 998 1133 1134 
3 998 1132 1133 
3 1134 1131 998 
3 1132 1001 999 
3 1000 1014 999 
3 999 1135 1132 
3 1135 999 1014 
3 1004 1002 1003 
3 1003 1136 1004 
3 1136 1003 1137 
3 1137 1003 1127 
3 1136 1138 1004 
3 1138 1005 1004 
3 1005 1138 1007 
3 1009 1139 1006 
3 1118 1006 1140 
3 1140 1006 1139 
3 1007 1141 1008 
3 1007 1142 1141 
3 1143 1142 1007 
3 1138 1143 1007 
3 1141 1144 1008 
3 1008 1144 1145 
3 1009 1008 1145 
3 1145 1139 1009 
3 1011 1010 1113 
3 1113 1013 1011 
3 1146 1013 1113 
3 1094 1013 1147 
3 1148 1013 1146 
3 1148 1147 1013 
3 1014 1149 1135 
3 1015 1149 1014 
3 1016 1149 1015 
3 1150 1149 1016 
3 1150 1016 1017 
3 1018 1150 1017 
3 1018 1151 1150 
3 1152 1151 1018 
3 1152 1018 1153 
3 1153 1018 1019 
3 1154 1153 1019 
3 1154 1019 1020 
3 1020 1155 1154 
3 1020 1156 1155 
3 1026 1156 1020 
3 1021 1026 1020 
3 1022 1157 1023 
3 1025 1157 1022 
3 1023 1158 1024 
3 1023 1159 1158 
3 1157 1159 1023 
3 1024 1158 1160 
3 1027 1024 1161 
3 1160 1161 1024 
3 1025 1162 1157 
3 1028 1162 1025 
3 1027 1156 1026 
3 1156 1027 1163 
3 1027 1160 1164 
3 1161 1160 1027 
3 1163 1027 1164 
3 1037 1162 1028 
3 1042 1030 1029 
3 1032 1030 1165 
3 1030 1042 1166 
3 1165 1030 1166 
3 1165 1031 1032 
3 1034 1031 1165 
3 1033 1036 1037 
3 1035 1034 1167 
3 1168 1167 1034 
3 1165 1169 1034 
3 1169 1168 1034 
3 1035 1170 1036 
3 1170 1035 1171 
3 1035 1172 1171 
3 1167 1172 1035 
3 1037 1036 1170 
3 1170 1173 1037 
3 1173 1162 1037 
3 1174 1041 1038 
3 1038 1043 1175 
3 1176 1038 1177 
3 1038 1175 1177 
3 1174 1038 1176 
3 1042 1039 1178 
3 1039 1040 1179 
3 1178 1039 1180 
3 1179 1180 1039 
3 1179 1040 1041 
3 1179 1041 1174 
3 1166 1042 1178 
3 1175 1043 1044 
3 1175 1044 1053 
3 1047 1046 1181 
3 1056 1181 1046 
3 1047 1182 1183 
3 1182 1047 1181 
3 1183 1050 1047 
3 1184 1052 1048 
3 1185 1184 1048 
3 1048 1049 1185 
3 1186 1049 1051 
3 1185 1049 1186 
3 1187 1051 1050 
3 1050 1183 1187 
3 1186 1051 1187 
3 1052 1184 1188 
3 1053 1052 1188 
3 1188 1175 1053 
3 1055 1054 1058 
3 1055 1189 1056 
3 1055 1190 1189 
3 1058 1191 1055 
3 1055 1192 1193 
3 1192 1055 1191 
3 1055 1194 1190 
3 1055 1193 1194 
3 1056 1189 1195 
3 1181 1056 1195 
3 1082 1196 1057 
3 1058 1057 1196 
3 1196 1191 1058 
3 1059 1197 1060 
3 1062 1197 1059 
3 1060 1198 1061 
3 1060 1197 1198 
3 1061 1199 1086 
3 1061 1198 1199 
3 1063 1200 1062 
3 1062 1200 1201 
3 1062 1201 1197 
3 1200 1063 1065 
3 1065 1064 1202 
3 1064 1072 1203 
3 1064 1203 1202 
3 1202 1204 1065 
3 1065 1204 1200 
3 1068 1205 1067 
3 1067 1205 1206 
3 1067 1206 1069 
3 1068 1207 1208 
3 1071 1207 1068 
3 1068 1209 1205 
3 1208 1209 1068 
3 1069 1206 1072 
3 1070 1207 1071 
3 1070 1074 1207 
3 1072 1206 1205 
3 1072 1205 1203 
3 1074 1073 1210 
3 1073 1077 1211 
3 1210 1073 1211 
3 1207 1074 1210 
3 1076 1075 1212 
3 1103 1212 1075 
3 1212 1077 1076 
3 1212 1213 1077 
3 1211 1077 1213 
3 1082 1078 1214 
3 1078 1079 1215 
3 1215 1214 1078 
3 1080 1216 1079 
3 1079 1216 1215 
3 1081 1216 1080 
3 1216 1081 1217 
3 1218 1217 1081 
3 1081 1083 1218 
3 1082 1214 1196 
3 1085 1219 1083 
3 1219 1218 1083 
3 1086 1220 1084 
3 1084 1220 1219 
3 1084 1219 1085 
3 1086 1199 1220 
3 1087 1094 1088 
3 1094 1221 1088 
3 1221 1093 1088 
3 1089 1222 1090 
3 1089 1092 1223 
3 1223 1224 1089 
3 1224 1222 1089 
3 1090 1222 1091 
3 1091 1222 1225 
3 1091 1225 1226 
3 1091 1226 1227 
3 1227 1095 1091 
3 1223 1092 1093 
3 1228 1093 1221 
3 1228 1223 1093 
3 1147 1221 1094 
3 1229 1096 1095 
3 1227 1229 1095 
3 1096 1229 1230 
3 1096 1230 1104 
3 1097 1100 1231 
3 1231 1098 1097 
3 1231 1103 1098 
3 1103 1099 1098 
3 1232 1100 1102 
3 1233 1231 1100 
3 1100 1232 1233 
3 1108 1234 1102 
3 1102 1234 1232 
3 1212 1103 1231 
3 1230 1235 1104 
3 1104 1235 1107 
3 1105 1106 1236 
3 1236 1110 1105 
3 1106 1107 1237 
3 1106 1238 1236 
3 1238 1106 1237 
3 1107 1235 1239 
3 1239 1237 1107 
3 1108 1109 1240 
3 1234 1108 1241 
3 1108 1240 1241 
3 1111 1242 1109 
3 1109 1242 1240 
3 1243 1110 1236 
3 1243 1111 1110 
3 1111 1243 1244 
3 1111 1244 1242 
3 1115 1245 1112 
3 1112 1245 1114 
3 1113 1114 1246 
3 1247 1113 1246 
3 1146 1113 1248 
3 1113 1247 1248 
3 1249 1114 1245 
3 1250 1114 1249 
3 1246 1114 1250 
3 1115 1124 1251 
3 1245 1115 1251 
3 1252 1123 1116 
3 1116 1253 1252 
3 1117 1253 1116 
3 1254 1117 1255 
3 1117 1118 1255 
3 1256 1257 1117 
3 1117 1257 1253 
3 1256 1117 1254 
3 1140 1255 1118 
3 1119 1258 1120 
3 1122 1258 1119 
3 1258 1259 1120 
3 1120 1259 1260 
3 1120 1260 1121 
3 1261 1121 1260 
3 1121 1261 1126 
3 1122 1262 1263 
3 1264 1262 1122 
3 1122 1263 1258 
3 1123 1264 1122 
3 1123 1265 1264 
3 1252 1266 1123 
3 1266 1265 1123 
3 1125 1267 1124 
3 1267 1251 1124 
3 1126 1261 1125 
3 1267 1125 1261 
3 1268 1137 1127 
3 1268 1127 1128 
3 1268 1128 1130 
3 1130 1129 1269 
3 1134 1270 1129 
3 1129 1131 1134 
3 1269 1129 1270 
3 1130 1269 1268 
3 1133 1132 1135 
3 1133 1271 1134 
3 1133 1151 1272 
3 1272 1271 1133 
3 1151 1133 1135 
3 1271 1273 1134 
3 1134 1273 1270 
3 1150 1135 1149 
3 1151 1135 1150 
3 1138 1136 1143 
3 1143 1136 1137 
3 1268 1143 1137 
3 1139 1145 1140 
3 1274 1140 1275 
3 1140 1274 1255 
3 1140 1145 1275 
3 1144 1141 1276 
3 1276 1141 1142 
3 1276 1142 1277 
3 1277 1142 1143 
3 1268 1277 1143 
3 1278 1144 1279 
3 1278 1145 1144 
3 1144 1276 1279 
3 1278 1275 1145 
3 1146 1280 1148 
3 1146 1248 1281 
3 1281 1280 1146 
3 1147 1148 1221 
3 1282 1148 1280 
3 1283 1148 1282 
3 1221 1148 1283 
3 1272 1151 1152 
3 1272 1152 1284 
3 1284 1152 1153 
3 1284 1153 1285 
3 1285 1153 1154 
3 1285 1154 1286 
3 1286 1154 1155 
3 1155 1287 1286 
3 1156 1287 1155 
3 1287 1156 1163 
3 1162 1159 1157 
3 1158 1288 1160 
3 1159 1288 1158 
3 1289 1159 1162 
3 1159 1289 1288 
3 1288 1290 1160 
3 1164 1160 1290 
3 1291 1289 1162 
3 1162 1173 1291 
3 1163 1290 1292 
3 1163 1292 1287 
3 1290 1163 1164 
3 1165 1293 1169 
3 1294 1165 1166 
3 1293 1165 1294 
3 1295 1294 1166 
3 1166 1296 1295 
3 1166 1178 1296 
3 1297 1167 1168 
3 1297 1298 1167 
3 1298 1299 1167 
3 1299 1172 1167 
3 1168 1169 1297 
3 1293 1297 1169 
3 1171 1173 1170 
3 1173 1171 1300 
3 1171 1301 1300 
3 1172 1301 1171 
3 1172 1299 1301 
3 1173 1300 1302 
3 1291 1173 1302 
3 1174 1303 1179 
3 1304 1174 1176 
3 1305 1303 1174 
3 1174 1304 1305 
3 1177 1175 1188 
3 1188 1176 1177 
3 1176 1188 1306 
3 1176 1306 1307 
3 1304 1176 1307 
3 1178 1180 1308 
3 1308 1305 1178 
3 1296 1178 1305 
3 1180 1179 1303 
3 1308 1180 1303 
3 1309 1182 1181 
3 1195 1310 1181 
3 1311 1312 1181 
3 1310 1311 1181 
3 1312 1309 1181 
3 1309 1183 1182 
3 1187 1183 1309 
3 1184 1313 1188 
3 1184 1185 1313 
3 1185 1314 1313 
3 1186 1314 1185 
3 1315 1314 1186 
3 1315 1186 1187 
3 1315 1187 1316 
3 1309 1316 1187 
3 1306 1188 1313 
3 1190 1317 1189 
3 1195 1189 1317 
3 1190 1194 1317 
3 1318 1191 1196 
3 1191 1318 1319 
3 1319 1192 1191 
3 1192 1319 1193 
3 1193 1319 1320 
3 1194 1193 1321 
3 1321 1193 1320 
3 1322 1317 1194 
3 1323 1324 1194 
3 1321 1325 1194 
3 1322 1194 1326 
3 1194 1325 1323 
3 1194 1324 1326 
3 1310 1195 1317 
3 1196 1214 1327 
3 1196 1327 1318 
3 1198 1197 1328 
3 1328 1197 1201 
3 1329 1198 1328 
3 1199 1198 1329 
3 1199 1329 1330 
3 1220 1199 1330 
3 1201 1200 1204 
3 1204 1328 1201 
3 1202 1203 1331 
3 1202 1331 1332 
3 1328 1204 1202 
3 1328 1202 1332 
3 1333 1203 1209 
3 1203 1205 1209 
3 1203 1333 1331 
3 1207 1210 1208 
3 1334 1208 1210 
3 1208 1334 1209 
3 1209 1335 1336 
3 1336 1333 1209 
3 1209 1334 1335 
3 1210 1337 1334 
3 1337 1210 1211 
3 1211 1338 1337 
3 1211 1213 1338 
3 1212 1339 1213 
3 1212 1340 1339 
3 1212 1231 1340 
3 1341 1338 1213 
3 1213 1339 1341 
3 1342 1214 1215 
3 1214 1342 1327 
3 1342 1215 1343 
3 1215 1216 1344 
3 1215 1344 1343 
3 1217 1345 1216 
3 1345 1344 1216 
3 1346 1345 1217 
3 1218 1220 1217 
3 1220 1330 1217 
3 1217 1330 1346 
3 1218 1219 1220 
3 1228 1221 1283 
3 1222 1224 1347 
3 1347 1225 1222 
3 1348 1223 1228 
3 1348 1224 1223 
3 1347 1224 1348 
3 1227 1225 1349 
3 1349 1225 1347 
3 1227 1226 1225 
3 1349 1350 1227 
3 1227 1350 1229 
3 1348 1228 1282 
3 1283 1282 1228 
3 1350 1351 1229 
3 1351 1230 1229 
3 1352 1230 1351 
3 1353 1235 1230 
3 1354 1353 1230 
3 1230 1352 1354 
3 1231 1233 1340 
3 1232 1355 1356 
3 1232 1357 1233 
3 1232 1234 1358 
3 1358 1359 1232 
3 1355 1232 1359 
3 1357 1232 1356 
3 1340 1233 1357 
3 1234 1241 1358 
3 1235 1353 1239 
3 1360 1243 1236 
3 1236 1238 1360 
3 1237 1239 1361 
3 1238 1237 1362 
3 1237 1361 1363 
3 1237 1363 1362 
3 1362 1364 1238 
3 1238 1364 1360 
3 1353 1354 1239 
3 1239 1354 1365 
3 1239 1365 1366 
3 1366 1361 1239 
3 1367 1240 1368 
3 1368 1240 1369 
3 1370 1241 1240 
3 1369 1240 1244 
3 1242 1244 1240 
3 1367 1370 1240 
3 1358 1241 1370 
3 1243 1360 1371 
3 1243 1371 1244 
3 1244 1371 1369 
3 1249 1245 1372 
3 1372 1245 1251 
3 1247 1246 1373 
3 1250 1373 1246 
3 1247 1373 1374 
3 1248 1247 1374 
3 1281 1248 1374 
3 1250 1249 1375 
3 1375 1249 1372 
3 1375 1376 1250 
3 1250 1376 1377 
3 1378 1373 1250 
3 1378 1250 1377 
3 1251 1379 1372 
3 1379 1251 1267 
3 1252 1253 1266 
3 1253 1380 1266 
3 1257 1381 1253 
3 1253 1381 1380 
3 1382 1254 1255 
3 1256 1254 1383 
3 1382 1384 1254 
3 1384 1385 1254 
3 1254 1385 1383 
3 1255 1386 1382 
3 1386 1255 1274 
3 1256 1387 1257 
3 1256 1388 1387 
3 1383 1388 1256 
3 1257 1387 1381 
3 1259 1258 1263 
3 1259 1389 1260 
3 1389 1259 1263 
3 1260 1390 1261 
3 1260 1389 1391 
3 1391 1392 1260 
3 1260 1392 1390 
3 1390 1393 1261 
3 1261 1393 1267 
3 1262 1394 1263 
3 1395 1394 1262 
3 1264 1395 1262 
3 1389 1263 1394 
3 1265 1396 1264 
3 1396 1395 1264 
3 1265 1380 1396 
3 1380 1265 1266 
3 1393 1397 1267 
3 1267 1397 1379 
3 1268 1398 1277 
3 1399 1400 1268 
3 1269 1401 1268 
3 1402 1398 1268 
3 1400 1402 1268 
3 1399 1268 1403 
3 1268 1401 1403 
3 1270 1292 1269 
3 1269 1404 1401 
3 1292 1404 1269 
3 1284 1270 1273 
3 1285 1270 1284 
3 1285 1292 1270 
3 1273 1271 1284 
3 1271 1272 1284 
3 1275 1405 1274 
3 1406 1274 1405 
3 1406 1386 1274 
3 1278 1405 1275 
3 1277 1279 1276 
3 1398 1279 1277 
3 1279 1407 1278 
3 1405 1278 1407 
3 1407 1279 1398 
3 1281 1408 1280 
3 1282 1280 1408 
3 1374 1409 1281 
3 1408 1281 1409 
3 1282 1408 1410 
3 1282 1410 1348 
3 1286 1292 1285 
3 1292 1286 1287 
3 1290 1288 1289 
3 1290 1289 1411 
3 1289 1302 1411 
3 1302 1289 1291 
3 1292 1290 1412 
3 1411 1412 1290 
3 1412 1413 1292 
3 1404 1292 1413 
3 1293 1414 1297 
3 1293 1415 1414 
3 1415 1293 1294 
3 1294 1295 1415 
3 1416 1417 1295 
3 1295 1418 1416 
3 1295 1417 1419 
3 1418 1295 1296 
3 1420 1295 1419 
3 1295 1420 1415 
3 1296 1305 1421 
3 1296 1421 1418 
3 1422 1423 1297 
3 1297 1423 1298 
3 1297 1424 1422 
3 1297 1414 1424 
3 1423 1299 1298 
3 1423 1301 1299 
3 1300 1301 1425 
3 1302 1300 1426 
3 1426 1300 1425 
3 1423 1425 1301 
3 1426 1411 1302 
3 1303 1305 1308 
3 1305 1304 1421 
3 1307 1421 1304 
3 1313 1307 1306 
3 1427 1307 1313 
3 1307 1428 1421 
3 1428 1307 1427 
3 1309 1429 1316 
3 1429 1309 1312 
3 1317 1430 1310 
3 1430 1431 1310 
3 1431 1311 1310 
3 1432 1312 1311 
3 1311 1431 1432 
3 1429 1312 1432 
3 1313 1433 1427 
3 1314 1433 1313 
3 1314 1434 1433 
3 1315 1434 1314 
3 1315 1316 1435 
3 1434 1315 1436 
3 1436 1315 1435 
3 1429 1437 1316 
3 1437 1435 1316 
3 1438 1430 1317 
3 1438 1317 1439 
3 1439 1317 1322 
3 1440 1319 1318 
3 1318 1441 1440 
3 1327 1441 1318 
3 1319 1440 1320 
3 1442 1320 1343 
3 1320 1440 1343 
3 1320 1442 1321 
3 1442 1443 1321 
3 1325 1321 1443 
3 1322 1444 1439 
3 1326 1445 1322 
3 1444 1322 1445 
3 1324 1323 1443 
3 1443 1323 1325 
3 1446 1445 1324 
3 1445 1326 1324 
3 1447 1446 1324 
3 1447 1324 1443 
3 1327 1342 1441 
3 1448 1328 1449 
3 1332 1449 1328 
3 1329 1328 1448 
3 1330 1329 1450 
3 1448 1450 1329 
3 1346 1330 1450 
3 1332 1331 1451 
3 1331 1333 1451 
3 1449 1332 1451 
3 1333 1336 1451 
3 1452 1334 1338 
3 1334 1337 1338 
3 1334 1452 1335 
3 1335 1453 1336 
3 1335 1452 1453 
3 1454 1455 1336 
3 1451 1336 1455 
3 1336 1453 1454 
3 1456 1452 1338 
3 1338 1341 1456 
3 1340 1341 1339 
3 1340 1357 1457 
3 1341 1340 1458 
3 1458 1340 1457 
3 1456 1341 1458 
3 1343 1440 1342 
3 1441 1342 1440 
3 1459 1343 1344 
3 1343 1460 1442 
3 1460 1343 1459 
3 1345 1459 1344 
3 1459 1345 1346 
3 1346 1450 1448 
3 1459 1346 1461 
3 1448 1461 1346 
3 1348 1462 1347 
3 1349 1347 1463 
3 1463 1347 1462 
3 1464 1348 1410 
3 1462 1348 1464 
3 1463 1465 1349 
3 1349 1465 1350 
3 1351 1350 1465 
3 1465 1352 1351 
3 1354 1352 1466 
3 1352 1465 1466 
3 1354 1466 1467 
3 1467 1365 1354 
3 1468 1356 1355 
3 1359 1469 1355 
3 1469 1468 1355 
3 1457 1357 1356 
3 1356 1468 1470 
3 1457 1356 1470 
3 1471 1359 1358 
3 1471 1358 1370 
3 1359 1472 1469 
3 1359 1471 1473 
3 1359 1473 1472 
3 1360 1364 1474 
3 1371 1360 1474 
3 1475 1361 1476 
3 1476 1361 1366 
3 1363 1361 1475 
3 1362 1363 1477 
3 1364 1362 1477 
3 1363 1478 1477 
3 1363 1475 1478 
3 1479 1480 1364 
3 1364 1477 1479 
3 1474 1364 1481 
3 1364 1480 1481 
3 1366 1365 1476 
3 1467 1482 1365 
3 1476 1365 1482 
3 1368 1483 1367 
3 1483 1484 1367 
3 1484 1485 1367 
3 1473 1370 1367 
3 1473 1367 1485 
3 1369 1486 1368 
3 1368 1486 1487 
3 1488 1368 1489 
3 1488 1483 1368 
3 1489 1368 1487 
3 1486 1369 1490 
3 1490 1369 1371 
3 1370 1473 1471 
3 1371 1474 1490 
3 1379 1491 1372 
3 1372 1491 1492 
3 1372 1492 1375 
3 1378 1374 1373 
3 1493 1374 1378 
3 1409 1374 1493 
3 1494 1375 1492 
3 1376 1375 1494 
3 1494 1495 1376 
3 1495 1496 1376 
3 1496 1377 1376 
3 1497 1377 1496 
3 1498 1377 1497 
3 1377 1498 1499 
3 1499 1378 1377 
3 1499 1500 1378 
3 1378 1500 1493 
3 1501 1379 1502 
3 1491 1379 1501 
3 1502 1379 1397 
3 1380 1503 1396 
3 1381 1503 1380 
3 1381 1504 1503 
3 1387 1504 1381 
3 1382 1505 1384 
3 1506 1505 1382 
3 1386 1506 1382 
3 1388 1383 1507 
3 1383 1385 1507 
3 1505 1385 1384 
3 1508 1385 1509 
3 1509 1385 1505 
3 1385 1508 1507 
3 1510 1506 1386 
3 1386 1406 1511 
3 1510 1386 1511 
3 1388 1504 1387 
3 1512 1388 1507 
3 1512 1504 1388 
3 1513 1391 1389 
3 1513 1389 1394 
3 1390 1392 1393 
3 1391 1514 1392 
3 1391 1515 1516 
3 1517 1515 1391 
3 1516 1514 1391 
3 1391 1513 1517 
3 1514 1502 1392 
3 1392 1502 1397 
3 1392 1397 1393 
3 1518 1394 1519 
3 1519 1394 1395 
3 1513 1394 1518 
3 1520 1395 1396 
3 1519 1395 1520 
3 1396 1521 1520 
3 1503 1521 1396 
3 1522 1407 1398 
3 1522 1398 1523 
3 1402 1523 1398 
3 1400 1399 1524 
3 1399 1525 1524 
3 1403 1525 1399 
3 1524 1402 1400 
3 1403 1401 1404 
3 1523 1402 1526 
3 1526 1402 1524 
3 1527 1403 1528 
3 1525 1403 1529 
3 1403 1530 1529 
3 1531 1403 1527 
3 1404 1528 1403 
3 1532 1530 1403 
3 1532 1403 1531 
3 1413 1528 1404 
3 1405 1407 1522 
3 1522 1533 1405 
3 1405 1533 1406 
3 1406 1533 1511 
3 1534 1410 1408 
3 1408 1535 1534 
3 1409 1500 1408 
3 1500 1535 1408 
3 1493 1500 1409 
3 1410 1534 1536 
3 1410 1536 1464 
3 1528 1411 1426 
3 1413 1411 1528 
3 1411 1413 1412 
3 1424 1414 1415 
3 1424 1415 1420 
3 1417 1416 1537 
3 1538 1416 1539 
3 1416 1418 1540 
3 1539 1416 1540 
3 1537 1416 1538 
3 1419 1417 1537 
3 1540 1418 1541 
3 1418 1421 1541 
3 1419 1537 1542 
3 1419 1542 1420 
3 1420 1543 1424 
3 1544 1543 1420 
3 1544 1420 1542 
3 1545 1546 1421 
3 1421 1546 1541 
3 1545 1421 1547 
3 1547 1421 1428 
3 1422 1548 1423 
3 1548 1422 1549 
3 1422 1550 1549 
3 1422 1424 1550 
3 1548 1425 1423 
3 1550 1424 1551 
3 1424 1543 1551 
3 1426 1425 1548 
3 1527 1528 1426 
3 1552 1527 1426 
3 1548 1552 1426 
3 1427 1433 1428 
3 1428 1434 1436 
3 1434 1428 1433 
3 1547 1428 1436 
3 1432 1437 1429 
3 1431 1430 1553 
3 1554 1553 1430 
3 1555 1554 1430 
3 1555 1430 1438 
3 1556 1431 1553 
3 1431 1556 1432 
3 1437 1432 1556 
3 1557 1558 1435 
3 1558 1559 1435 
3 1559 1436 1435 
3 1557 1435 1437 
3 1436 1545 1547 
3 1436 1559 1560 
3 1560 1545 1436 
3 1437 1556 1557 
3 1438 1439 1444 
3 1444 1561 1438 
3 1555 1438 1561 
3 1443 1442 1562 
3 1460 1562 1442 
3 1443 1562 1447 
3 1444 1563 1561 
3 1445 1563 1444 
3 1445 1564 1563 
3 1565 1445 1446 
3 1564 1445 1565 
3 1446 1447 1566 
3 1566 1565 1446 
3 1461 1447 1460 
3 1460 1447 1562 
3 1566 1447 1567 
3 1447 1461 1568 
3 1447 1568 1567 
3 1461 1448 1449 
3 1461 1449 1455 
3 1449 1451 1455 
3 1452 1456 1458 
3 1452 1458 1453 
3 1569 1454 1453 
3 1453 1570 1569 
3 1570 1453 1458 
3 1455 1454 1571 
3 1571 1454 1569 
3 1571 1572 1455 
3 1455 1572 1461 
3 1573 1457 1470 
3 1457 1573 1458 
3 1458 1573 1570 
3 1461 1460 1459 
3 1572 1568 1461 
3 1464 1574 1462 
3 1462 1575 1463 
3 1575 1462 1574 
3 1463 1467 1466 
3 1465 1463 1466 
3 1576 1463 1575 
3 1576 1467 1463 
3 1577 1464 1498 
3 1498 1464 1499 
3 1464 1536 1499 
3 1464 1577 1574 
3 1576 1482 1467 
3 1468 1469 1470 
3 1578 1470 1469 
3 1469 1472 1578 
3 1579 1580 1470 
3 1581 1573 1470 
3 1579 1470 1582 
3 1578 1582 1470 
3 1470 1580 1581 
3 1472 1582 1578 
3 1472 1583 1582 
3 1472 1473 1584 
3 1583 1472 1584 
3 1473 1485 1585 
3 1584 1473 1585 
3 1481 1490 1474 
3 1476 1586 1475 
3 1587 1588 1475 
3 1475 1586 1587 
3 1475 1588 1589 
3 1475 1589 1478 
3 1586 1476 1590 
3 1482 1590 1476 
3 1477 1478 1591 
3 1591 1479 1477 
3 1592 1478 1589 
3 1478 1592 1591 
3 1480 1479 1593 
3 1479 1591 1593 
3 1480 1594 1490 
3 1480 1593 1594 
3 1490 1481 1480 
3 1595 1482 1576 
3 1590 1482 1595 
3 1483 1596 1484 
3 1488 1596 1483 
3 1484 1597 1598 
3 1485 1484 1598 
3 1597 1484 1599 
3 1484 1596 1599 
3 1598 1600 1485 
3 1585 1485 1600 
3 1490 1601 1486 
3 1487 1486 1601 
3 1601 1602 1487 
3 1487 1602 1489 
3 1489 1596 1488 
3 1489 1602 1603 
3 1604 1489 1603 
3 1596 1489 1599 
3 1489 1604 1599 
3 1601 1490 1594 
3 1491 1501 1605 
3 1491 1605 1492 
3 1492 1605 1494 
3 1605 1495 1494 
3 1495 1606 1607 
3 1495 1605 1606 
3 1607 1496 1495 
3 1496 1607 1497 
3 1497 1608 1498 
3 1609 1497 1610 
3 1610 1497 1607 
3 1611 1608 1497 
3 1497 1609 1611 
3 1608 1577 1498 
3 1535 1500 1499 
3 1499 1536 1535 
3 1501 1502 1514 
3 1501 1514 1516 
3 1516 1612 1501 
3 1612 1605 1501 
3 1504 1521 1503 
3 1521 1504 1512 
3 1613 1505 1614 
3 1505 1615 1614 
3 1615 1505 1506 
3 1613 1509 1505 
3 1615 1506 1510 
3 1512 1507 1508 
3 1509 1613 1508 
3 1616 1617 1508 
3 1508 1617 1512 
3 1508 1618 1616 
3 1618 1508 1613 
3 1510 1511 1619 
3 1615 1510 1619 
3 1619 1511 1620 
3 1620 1511 1533 
3 1521 1512 1617 
3 1513 1518 1517 
3 1621 1516 1515 
3 1515 1622 1621 
3 1517 1623 1515 
3 1622 1515 1623 
3 1606 1516 1624 
3 1624 1516 1621 
3 1612 1516 1606 
3 1625 1517 1518 
3 1625 1626 1517 
3 1623 1517 1626 
3 1518 1519 1617 
3 1617 1627 1518 
3 1518 1627 1625 
3 1520 1521 1519 
3 1521 1617 1519 
3 1533 1522 1628 
3 1526 1522 1523 
3 1522 1526 1628 
3 1526 1524 1629 
3 1524 1525 1630 
3 1629 1524 1630 
3 1631 1630 1525 
3 1529 1632 1525 
3 1631 1525 1632 
3 1628 1526 1633 
3 1629 1633 1526 
3 1531 1527 1634 
3 1527 1552 1634 
3 1632 1529 1635 
3 1635 1529 1636 
3 1530 1636 1529 
3 1637 1636 1530 
3 1638 1639 1530 
3 1530 1639 1640 
3 1637 1530 1640 
3 1638 1530 1532 
3 1532 1531 1641 
3 1642 1641 1531 
3 1531 1634 1642 
3 1638 1532 1641 
3 1643 1533 1628 
3 1643 1620 1533 
3 1535 1536 1534 
3 1537 1644 1542 
3 1644 1537 1645 
3 1537 1538 1646 
3 1645 1537 1646 
3 1646 1538 1539 
3 1539 1647 1646 
3 1541 1539 1540 
3 1648 1647 1539 
3 1648 1539 1546 
3 1539 1541 1546 
3 1644 1649 1542 
3 1650 1544 1542 
3 1649 1650 1542 
3 1543 1651 1652 
3 1652 1551 1543 
3 1543 1653 1654 
3 1655 1653 1543 
3 1654 1651 1543 
3 1543 1544 1655 
3 1544 1650 1656 
3 1655 1544 1656 
3 1657 1546 1545 
3 1657 1545 1560 
3 1647 1546 1657 
3 1647 1648 1546 
3 1658 1552 1548 
3 1548 1549 1658 
3 1549 1659 1658 
3 1549 1550 1660 
3 1549 1660 1659 
3 1551 1660 1550 
3 1652 1661 1551 
3 1551 1661 1660 
3 1662 1663 1552 
3 1662 1552 1661 
3 1661 1552 1658 
3 1634 1552 1663 
3 1556 1553 1557 
3 1554 1664 1553 
3 1664 1557 1553 
3 1665 1666 1554 
3 1664 1554 1666 
3 1665 1554 1555 
3 1561 1665 1555 
3 1557 1667 1558 
3 1667 1557 1664 
3 1559 1558 1668 
3 1668 1558 1667 
3 1669 1560 1559 
3 1668 1670 1559 
3 1559 1670 1669 
3 1657 1560 1669 
3 1563 1564 1561 
3 1561 1671 1665 
3 1564 1671 1561 
3 1672 1564 1565 
3 1673 1564 1672 
3 1671 1564 1673 
3 1672 1565 1566 
3 1566 1674 1672 
3 1675 1674 1566 
3 1567 1675 1566 
3 1675 1567 1676 
3 1568 1676 1567 
3 1676 1568 1677 
3 1568 1572 1677 
3 1571 1569 1678 
3 1679 1680 1569 
3 1569 1570 1679 
3 1681 1678 1569 
3 1681 1569 1680 
3 1573 1581 1570 
3 1580 1679 1570 
3 1570 1581 1580 
3 1572 1571 1677 
3 1571 1678 1682 
3 1682 1676 1571 
3 1677 1571 1676 
3 1577 1683 1574 
3 1684 1574 1683 
3 1574 1684 1575 
3 1575 1684 1685 
3 1685 1686 1575 
3 1576 1575 1686 
3 1686 1687 1576 
3 1595 1576 1687 
3 1608 1611 1577 
3 1683 1577 1611 
3 1579 1688 1580 
3 1582 1689 1579 
3 1579 1689 1690 
3 1688 1579 1690 
3 1679 1580 1691 
3 1691 1580 1692 
3 1580 1688 1692 
3 1693 1582 1583 
3 1582 1693 1689 
3 1583 1694 1693 
3 1584 1694 1583 
3 1694 1584 1695 
3 1584 1696 1695 
3 1585 1697 1584 
3 1584 1697 1696 
3 1585 1600 1697 
3 1586 1590 1587 
3 1698 1587 1590 
3 1587 1698 1588 
3 1589 1588 1699 
3 1699 1588 1700 
3 1701 1700 1588 
3 1588 1698 1701 
3 1589 1699 1592 
3 1698 1590 1595 
3 1702 1703 1591 
3 1592 1702 1591 
3 1591 1703 1704 
3 1704 1593 1591 
3 1699 1705 1592 
3 1702 1592 1706 
3 1705 1706 1592 
3 1593 1707 1594 
3 1593 1708 1707 
3 1708 1593 1704 
3 1709 1594 1707 
3 1594 1709 1601 
3 1687 1698 1595 
3 1710 1597 1599 
3 1600 1598 1597 
3 1710 1600 1597 
3 1599 1604 1711 
3 1599 1711 1712 
3 1710 1599 1712 
3 1710 1697 1600 
3 1601 1709 1602 
3 1602 1709 1713 
3 1602 1713 1603 
3 1603 1714 1715 
3 1716 1711 1603 
3 1713 1717 1603 
3 1715 1716 1603 
3 1714 1603 1717 
3 1604 1603 1711 
3 1606 1605 1612 
3 1606 1610 1607 
3 1718 1606 1624 
3 1610 1606 1718 
3 1609 1610 1718 
3 1685 1609 1718 
3 1611 1609 1685 
3 1685 1683 1611 
3 1614 1719 1613 
3 1618 1613 1719 
3 1719 1614 1720 
3 1721 1614 1722 
3 1720 1614 1721 
3 1722 1614 1615 
3 1619 1722 1615 
3 1616 1627 1617 
3 1616 1719 1627 
3 1616 1618 1719 
3 1620 1723 1619 
3 1723 1722 1619 
3 1643 1724 1620 
3 1724 1723 1620 
3 1624 1621 1725 
3 1622 1726 1621 
3 1726 1725 1621 
3 1623 1626 1622 
3 1727 1726 1622 
3 1622 1728 1727 
3 1622 1626 1729 
3 1729 1728 1622 
3 1624 1725 1718 
3 1626 1625 1627 
3 1626 1627 1729 
3 1729 1627 1730 
3 1731 1730 1627 
3 1731 1627 1719 
3 1628 1633 1732 
3 1732 1733 1628 
3 1628 1733 1643 
3 1629 1734 1633 
3 1735 1734 1629 
3 1735 1629 1630 
3 1630 1631 1735 
3 1631 1635 1735 
3 1631 1632 1635 
3 1736 1732 1633 
3 1633 1737 1736 
3 1734 1738 1633 
3 1633 1738 1737 
3 1634 1663 1739 
3 1739 1642 1634 
3 1740 1635 1741 
3 1635 1636 1742 
3 1735 1635 1740 
3 1742 1741 1635 
3 1743 1636 1744 
3 1745 1744 1636 
3 1743 1742 1636 
3 1637 1745 1636 
3 1745 1637 1746 
3 1746 1637 1640 
3 1747 1639 1638 
3 1638 1641 1748 
3 1749 1638 1748 
3 1747 1638 1750 
3 1638 1749 1750 
3 1639 1747 1640 
3 1750 1751 1640 
3 1750 1640 1747 
3 1752 1746 1640 
3 1752 1640 1751 
3 1642 1748 1641 
3 1753 1748 1642 
3 1753 1642 1739 
3 1643 1733 1724 
3 1645 1649 1644 
3 1754 1649 1645 
3 1754 1645 1646 
3 1647 1755 1646 
3 1669 1670 1646 
3 1669 1646 1755 
3 1754 1646 1670 
3 1755 1647 1657 
3 1754 1756 1649 
3 1656 1649 1756 
3 1656 1650 1649 
3 1757 1652 1651 
3 1654 1758 1651 
3 1651 1758 1757 
3 1759 1662 1652 
3 1652 1662 1661 
3 1739 1759 1652 
3 1757 1739 1652 
3 1654 1653 1760 
3 1653 1655 1761 
3 1760 1653 1761 
3 1654 1762 1758 
3 1760 1762 1654 
3 1763 1655 1656 
3 1763 1764 1655 
3 1764 1761 1655 
3 1765 1656 1756 
3 1765 1763 1656 
3 1669 1755 1657 
3 1661 1658 1659 
3 1661 1659 1660 
3 1662 1759 1663 
3 1759 1739 1663 
3 1664 1766 1667 
3 1666 1766 1664 
3 1665 1766 1666 
3 1766 1665 1671 
3 1767 1668 1667 
3 1767 1667 1768 
3 1768 1667 1769 
3 1671 1667 1766 
3 1671 1769 1667 
3 1767 1670 1668 
3 1754 1670 1770 
3 1771 1770 1670 
3 1670 1767 1771 
3 1673 1769 1671 
3 1674 1772 1672 
3 1672 1773 1774 
3 1672 1772 1773 
3 1672 1774 1673 
3 1673 1774 1769 
3 1775 1772 1674 
3 1674 1776 1777 
3 1778 1681 1674 
3 1778 1674 1675 
3 1674 1681 1680 
3 1680 1776 1674 
3 1777 1775 1674 
3 1779 1778 1675 
3 1779 1675 1676 
3 1779 1676 1682 
3 1678 1779 1682 
3 1681 1778 1678 
3 1678 1778 1779 
3 1680 1679 1776 
3 1691 1780 1679 
3 1780 1776 1679 
3 1684 1683 1685 
3 1781 1685 1718 
3 1685 1781 1782 
3 1782 1686 1685 
3 1783 1686 1782 
3 1686 1783 1687 
3 1701 1687 1784 
3 1701 1698 1687 
3 1687 1783 1784 
3 1785 1692 1688 
3 1690 1785 1688 
3 1690 1689 1693 
3 1695 1690 1693 
3 1690 1786 1787 
3 1695 1786 1690 
3 1690 1787 1785 
3 1780 1691 1692 
3 1788 1692 1789 
3 1692 1788 1780 
3 1692 1785 1790 
3 1790 1789 1692 
3 1693 1694 1695 
3 1695 1791 1786 
3 1792 1695 1696 
3 1791 1695 1792 
3 1696 1697 1793 
3 1793 1792 1696 
3 1697 1710 1793 
3 1699 1794 1705 
3 1699 1700 1794 
3 1700 1701 1795 
3 1700 1795 1794 
3 1795 1701 1784 
3 1702 1796 1703 
3 1706 1797 1702 
3 1702 1797 1798 
3 1798 1799 1702 
3 1796 1702 1799 
3 1704 1703 1796 
3 1704 1796 1800 
3 1708 1704 1801 
3 1800 1801 1704 
3 1794 1802 1705 
3 1705 1802 1706 
3 1803 1797 1706 
3 1802 1804 1706 
3 1706 1804 1803 
3 1707 1805 1709 
3 1707 1708 1805 
3 1801 1805 1708 
3 1709 1805 1714 
3 1709 1806 1713 
3 1806 1709 1714 
3 1807 1710 1808 
3 1808 1710 1712 
3 1807 1793 1710 
3 1716 1809 1711 
3 1711 1809 1712 
3 1712 1810 1811 
3 1812 1813 1712 
3 1712 1813 1808 
3 1811 1812 1712 
3 1712 1809 1814 
3 1712 1814 1810 
3 1713 1806 1717 
3 1714 1801 1715 
3 1714 1717 1806 
3 1801 1714 1805 
3 1801 1815 1715 
3 1716 1715 1816 
3 1715 1815 1816 
3 1817 1716 1816 
3 1716 1817 1818 
3 1809 1716 1818 
3 1819 1781 1718 
3 1718 1725 1819 
3 1719 1820 1731 
3 1719 1821 1820 
3 1719 1720 1821 
3 1821 1720 1822 
3 1721 1822 1720 
3 1721 1722 1723 
3 1823 1822 1721 
3 1723 1823 1721 
3 1824 1823 1723 
3 1723 1724 1824 
3 1724 1825 1824 
3 1733 1825 1724 
3 1727 1819 1725 
3 1727 1725 1726 
3 1727 1728 1826 
3 1727 1826 1819 
3 1783 1728 1827 
3 1728 1729 1828 
3 1783 1826 1728 
3 1728 1829 1830 
3 1828 1829 1728 
3 1827 1728 1830 
3 1730 1831 1729 
3 1828 1729 1831 
3 1832 1831 1730 
3 1730 1731 1833 
3 1832 1730 1834 
3 1834 1730 1833 
3 1731 1820 1833 
3 1733 1732 1835 
3 1732 1736 1835 
3 1733 1836 1825 
3 1835 1836 1733 
3 1734 1837 1738 
3 1837 1734 1838 
3 1838 1734 1735 
3 1740 1839 1735 
3 1838 1735 1839 
3 1736 1840 1835 
3 1841 1842 1736 
3 1736 1737 1841 
3 1736 1842 1840 
3 1841 1737 1738 
3 1738 1843 1841 
3 1738 1844 1843 
3 1845 1738 1837 
3 1845 1844 1738 
3 1739 1757 1753 
3 1846 1740 1741 
3 1846 1847 1740 
3 1740 1847 1839 
3 1741 1848 1846 
3 1848 1741 1742 
3 1742 1849 1848 
3 1742 1743 1849 
3 1850 1743 1744 
3 1851 1849 1743 
3 1743 1852 1851 
3 1852 1743 1850 
3 1850 1744 1745 
3 1745 1746 1853 
3 1850 1745 1853 
3 1853 1746 1752 
3 1854 1748 1753 
3 1748 1854 1749 
3 1749 1855 1856 
3 1749 1854 1855 
3 1750 1749 1856 
3 1751 1750 1857 
3 1858 1857 1750 
3 1750 1856 1858 
3 1751 1859 1752 
3 1860 1859 1751 
3 1860 1751 1857 
3 1752 1859 1853 
3 1753 1855 1854 
3 1753 1757 1855 
3 1754 1861 1862 
3 1770 1861 1754 
3 1863 1756 1754 
3 1862 1863 1754 
3 1765 1756 1863 
3 1757 1758 1855 
3 1758 1864 1855 
3 1865 1758 1866 
3 1867 1758 1762 
3 1865 1864 1758 
3 1866 1758 1867 
3 1868 1760 1761 
3 1762 1760 1869 
3 1868 1870 1760 
3 1871 1760 1870 
3 1869 1760 1871 
3 1761 1872 1873 
3 1873 1868 1761 
3 1872 1761 1764 
3 1869 1874 1762 
3 1762 1874 1867 
3 1763 1875 1764 
3 1875 1763 1765 
3 1875 1872 1764 
3 1863 1876 1765 
3 1875 1765 1876 
3 1768 1771 1767 
3 1768 1770 1771 
3 1768 1877 1878 
3 1769 1877 1768 
3 1878 1770 1768 
3 1774 1877 1769 
3 1878 1879 1770 
3 1880 1861 1770 
3 1770 1879 1880 
3 1775 1773 1772 
3 1880 1774 1773 
3 1775 1880 1773 
3 1774 1879 1878 
3 1879 1774 1880 
3 1878 1877 1774 
3 1881 1775 1882 
3 1775 1881 1880 
3 1775 1883 1882 
3 1775 1777 1884 
3 1884 1883 1775 
3 1776 1788 1777 
3 1776 1780 1788 
3 1777 1788 1884 
3 1782 1781 1826 
3 1819 1826 1781 
3 1826 1783 1782 
3 1827 1784 1783 
3 1784 1827 1885 
3 1886 1784 1885 
3 1795 1784 1886 
3 1785 1887 1790 
3 1785 1787 1888 
3 1888 1887 1785 
3 1786 1889 1787 
3 1786 1791 1889 
3 1888 1787 1890 
3 1787 1889 1890 
3 1789 1884 1788 
3 1789 1891 1892 
3 1884 1789 1892 
3 1789 1790 1893 
3 1893 1891 1789 
3 1894 1790 1887 
3 1893 1790 1895 
3 1896 1895 1790 
3 1897 1790 1894 
3 1790 1897 1896 
3 1898 1899 1791 
3 1889 1791 1899 
3 1792 1898 1791 
3 1793 1807 1792 
3 1792 1900 1901 
3 1902 1903 1792 
3 1792 1903 1904 
3 1901 1898 1792 
3 1792 1904 1900 
3 1902 1792 1807 
3 1886 1794 1795 
3 1886 1802 1794 
3 1800 1796 1799 
3 1797 1803 1905 
3 1905 1798 1797 
3 1798 1905 1906 
3 1798 1907 1799 
3 1798 1906 1907 
3 1799 1907 1908 
3 1800 1799 1909 
3 1909 1799 1908 
3 1800 1909 1801 
3 1909 1815 1801 
3 1804 1802 1886 
3 1910 1911 1803 
3 1804 1910 1803 
3 1911 1905 1803 
3 1804 1912 1910 
3 1804 1886 1912 
3 1808 1913 1807 
3 1807 1913 1902 
3 1813 1913 1808 
3 1809 1818 1914 
3 1914 1915 1809 
3 1814 1809 1915 
3 1811 1810 1916 
3 1810 1814 1917 
3 1916 1810 1918 
3 1810 1917 1918 
3 1904 1811 1916 
3 1904 1919 1811 
3 1811 1919 1812 
3 1902 1813 1812 
3 1920 1902 1812 
3 1812 1919 1920 
3 1913 1813 1902 
3 1921 1814 1915 
3 1814 1921 1917 
3 1815 1909 1922 
3 1923 1816 1815 
3 1924 1923 1815 
3 1815 1922 1924 
3 1816 1925 1817 
3 1925 1816 1923 
3 1925 1926 1817 
3 1817 1926 1927 
3 1818 1817 1927 
3 1818 1927 1914 
3 1833 1820 1821 
3 1833 1821 1928 
3 1821 1822 1928 
3 1823 1928 1822 
3 1929 1928 1823 
3 1824 1929 1823 
3 1825 1929 1824 
3 1825 1930 1929 
3 1836 1930 1825 
3 1827 1830 1931 
3 1931 1885 1827 
3 1829 1828 1932 
3 1831 1932 1828 
3 1829 1933 1830 
3 1932 1934 1829 
3 1829 1934 1933 
3 1931 1830 1933 
3 1932 1831 1832 
3 1935 1932 1832 
3 1935 1832 1834 
3 1928 1936 1833 
3 1936 1937 1833 
3 1833 1937 1938 
3 1834 1833 1938 
3 1939 1834 1938 
3 1935 1834 1939 
3 1835 1840 1836 
3 1836 1940 1930 
3 1840 1940 1836 
3 1837 1838 1845 
3 1838 1941 1845 
3 1839 1941 1838 
3 1942 1839 1847 
3 1941 1839 1942 
3 1840 1943 1940 
3 1842 1943 1840 
3 1944 1842 1841 
3 1843 1944 1841 
3 1842 1944 1943 
3 1843 1945 1944 
3 1945 1843 1946 
3 1947 1843 1948 
3 1947 1946 1843 
3 1948 1843 1844 
3 1949 1948 1844 
3 1844 1845 1949 
3 1949 1845 1950 
3 1941 1950 1845 
3 1951 1847 1846 
3 1952 1953 1846 
3 1951 1846 1953 
3 1846 1848 1952 
3 1847 1951 1942 
3 1849 1952 1848 
3 1954 1955 1849 
3 1955 1952 1849 
3 1851 1954 1849 
3 1956 1850 1853 
3 1956 1852 1850 
3 1852 1957 1851 
3 1851 1958 1954 
3 1851 1957 1959 
3 1851 1959 1958 
3 1957 1852 1960 
3 1852 1956 1961 
3 1961 1960 1852 
3 1853 1859 1956 
3 1855 1864 1856 
3 1856 1864 1858 
3 1962 1857 1963 
3 1857 1962 1964 
3 1965 1966 1857 
3 1860 1857 1966 
3 1963 1857 1865 
3 1857 1858 1865 
3 1964 1965 1857 
3 1865 1858 1864 
3 1966 1956 1859 
3 1966 1859 1860 
3 1861 1881 1862 
3 1880 1881 1861 
3 1967 1968 1862 
3 1969 1876 1862 
3 1968 1969 1862 
3 1970 1862 1971 
3 1862 1970 1967 
3 1881 1971 1862 
3 1862 1876 1863 
3 1866 1963 1865 
3 1866 1972 1963 
3 1973 1866 1867 
3 1972 1866 1973 
3 1974 1867 1874 
3 1867 1975 1973 
3 1975 1867 1974 
3 1868 1873 1976 
3 1868 1977 1870 
3 1976 1977 1868 
3 1871 1974 1869 
3 1974 1874 1869 
3 1870 1978 1871 
3 1977 1978 1870 
3 1871 1979 1980 
3 1871 1978 1979 
3 1980 1974 1871 
3 1968 1873 1872 
3 1872 1875 1968 
3 1873 1968 1976 
3 1875 1876 1969 
3 1875 1969 1968 
3 1882 1971 1881 
3 1883 1981 1882 
3 1882 1981 1982 
3 1882 1982 1983 
3 1983 1971 1882 
3 1883 1892 1981 
3 1884 1892 1883 
3 1984 1886 1885 
3 1931 1984 1885 
3 1886 1985 1986 
3 1886 1984 1985 
3 1986 1912 1886 
3 1887 1888 1987 
3 1894 1887 1987 
3 1888 1890 1987 
3 1890 1889 1899 
3 1899 1987 1890 
3 1988 1892 1891 
3 1988 1891 1893 
3 1892 1988 1981 
3 1893 1895 1988 
3 1894 1987 1901 
3 1901 1989 1894 
3 1894 1989 1897 
3 1990 1991 1895 
3 1988 1895 1991 
3 1895 1896 1990 
3 1896 1992 1993 
3 1896 1897 1994 
3 1994 1995 1896 
3 1992 1896 1995 
3 1990 1896 1993 
3 1989 1996 1897 
3 1897 1996 1997 
3 1897 1997 1994 
3 1901 1899 1898 
3 1987 1899 1901 
3 1900 1989 1901 
3 1998 1900 1999 
3 1996 1900 1998 
3 1989 1900 1996 
3 1999 1900 1904 
3 1920 1903 1902 
3 1903 1920 1919 
3 1903 1919 1904 
3 1999 1904 2000 
3 1904 1916 2000 
3 2001 1905 1911 
3 2001 1906 1905 
3 2002 1906 2001 
3 1907 1906 2003 
3 2002 2003 1906 
3 1908 1907 2003 
3 1909 1908 1922 
3 1908 2003 1922 
3 2004 1911 1910 
3 1986 2004 1910 
3 1910 1912 1986 
3 1911 2004 2001 
3 2005 1921 1914 
3 1915 1914 1921 
3 1914 1927 2005 
3 1916 2006 2007 
3 2006 1916 1918 
3 2007 2000 1916 
3 1917 1921 2008 
3 1917 2008 1918 
3 1918 2009 2010 
3 2008 2009 1918 
3 2010 2006 1918 
3 1921 2005 2008 
3 2003 1924 1922 
3 2011 2012 1923 
3 1924 2011 1923 
3 1925 1923 2012 
3 2013 1924 2003 
3 2011 1924 2013 
3 1925 2014 2015 
3 1925 2012 2014 
3 2016 1926 1925 
3 2017 2016 1925 
3 1925 2015 2017 
3 2018 1926 2019 
3 2020 1927 1926 
3 1926 2016 2019 
3 2020 1926 2018 
3 2020 2005 1927 
3 1929 1936 1928 
3 1930 1936 1929 
3 1936 1930 1940 
3 1933 2021 1931 
3 2022 1984 1931 
3 2022 1931 2021 
3 1934 1932 2023 
3 2023 1932 1935 
3 2024 1933 1934 
3 2021 1933 2024 
3 1934 2023 2024 
3 2025 2023 1935 
3 2025 1935 1939 
3 1937 1936 1940 
3 1937 1940 1943 
3 1938 1937 1945 
3 1945 1937 1943 
3 1938 1945 1946 
3 2026 1938 1946 
3 2026 1939 1938 
3 1939 2027 2025 
3 2027 1939 2026 
3 1941 1942 1950 
3 1951 2028 1942 
3 1942 2028 1950 
3 1943 1944 1945 
3 2026 1946 1947 
3 1947 1948 2029 
3 1947 2030 2026 
3 1947 2029 2030 
3 1948 1949 2031 
3 2029 1948 2031 
3 1949 1950 2032 
3 1949 2032 2033 
3 2031 1949 2033 
3 1950 2028 2032 
3 1953 2034 1951 
3 1951 2034 2035 
3 2028 1951 2035 
3 1952 2034 1953 
3 2036 1952 1955 
3 1952 2036 2034 
3 1954 1958 1955 
3 1955 2037 2036 
3 2037 1955 2038 
3 2038 1955 2039 
3 1955 1958 2039 
