NORM_ASCII
806 1608
  -0.0020236   -0.0107658    0.0011852   -0.4004713   -0.1367896    0.9060416
  -0.0023618   -0.0100691    0.0010544   -0.4981874   -0.1697687    0.8502869
  -0.0043280   -0.0156438   -0.0011262   -0.8253858   -0.1533112    0.5433544
  -0.0040024   -0.0142046   -0.0005700   -0.7439399   -0.1080116    0.6594595
  -0.0046964   -0.0152600   -0.0021125   -0.9779926   -0.0285799    0.2066730
  -0.0046580   -0.0144996   -0.0028570   -0.9995198   -0.0160668   -0.0264970
  -0.0047788   -0.0163797   -0.0020515   -0.9225586   -0.0526180    0.3822525
  -0.0042809   -0.0154236   -0.0039642   -0.5574055    0.1228184   -0.8211058
  -0.0045277   -0.0144015   -0.0033378   -0.9177946    0.0243603   -0.3963075
  -0.0039044   -0.0146949   -0.0039544   -0.2175636   -0.0129488   -0.9759602
  -0.0035937   -0.0138958   -0.0040066    0.0571552   -0.1348071   -0.9892221
  -0.0028785   -0.0123725   -0.0042446    0.3421313   -0.1650478   -0.9250434
  -0.0033276   -0.0068588    0.0006393   -0.8204046   -0.2256697    0.5253660
  -0.0032699   -0.0057529    0.0009873   -0.8261866   -0.1204166    0.5503776
  -0.0029662   -0.0049100    0.0013459   -0.7285013    0.1573984    0.6667170
  -0.0032099   -0.0043118    0.0006852   -0.7576557    0.3969822    0.5180377
  -0.0034291   -0.0042330    0.0001893   -0.8536271    0.4019544    0.3312907
  -0.0030528   -0.0036119   -0.0003896   -0.7095603    0.6791717    0.1877499
  -0.0029224   -0.0034740   -0.0008717   -0.4702442    0.8792200    0.0764365
  -0.0031540   -0.0040119    0.0003475   -0.7483498    0.5741466    0.3321570
  -0.0021161   -0.0079834   -0.0046249    0.2402595   -0.0532101   -0.9692492
  -0.0020632   -0.0069968   -0.0047024    0.1559828   -0.0976889   -0.9829172
  -0.0020093   -0.0068624   -0.0047130    0.1230994   -0.1115732   -0.9861024
  -0.0021181   -0.0045415   -0.0048529   -0.0648569    0.0586436   -0.9961699
  -0.0021454   -0.0055352   -0.0048365    0.0603999   -0.0514138   -0.9968493
  -0.0020434   -0.0040218   -0.0047727   -0.1338787    0.3008364   -0.9442319
  -0.0024650   -0.0038004   -0.0046004   -0.3292144    0.3830698   -0.8630617
  -0.0028337   -0.0034527   -0.0040544   -0.6420659    0.6234030   -0.4462287
  -0.0025554   -0.0035272   -0.0043961   -0.4837334    0.5790975   -0.6562378
  -0.0031066   -0.0032883   -0.0025262   -0.4497521    0.8888576    0.0874942
  -0.0018793   -0.0030245   -0.0038127   -0.2681280    0.9633823    0.0013708
  -0.0021748   -0.0033176   -0.0043613   -0.2282633    0.7117956   -0.6642611
  -0.0028079   -0.0034142   -0.0013649   -0.2380936    0.9594201    0.1510780
  -0.0027522   -0.0032069   -0.0025094   -0.2098492    0.9604278    0.1831439
  -0.0019915   -0.0104101   -0.0041268    0.5833904   -0.1710240   -0.7939814
  -0.0019662   -0.0098024   -0.0043146    0.5659881   -0.1552963   -0.8096545
  -0.0026153   -0.0122009   -0.0040914    0.6319058   -0.1260588   -0.7647249
  -0.0022050   -0.0115332   -0.0039188    0.6560694   -0.1463714   -0.7403704
  -0.0014478   -0.0109496   -0.0033966    0.6561803   -0.1371739   -0.7420315
  -0.0019897   -0.0091955   -0.0044476    0.4445147   -0.0613820   -0.8936660
  -0.0021210   -0.0075148    0.0017367   -0.5051685   -0.2748528    0.8180836
  -0.0026841   -0.0067258    0.0015079   -0.6188343   -0.2409419    0.7476571
  -0.0032242   -0.0074641    0.0006830   -0.7543649   -0.2439187    0.6094565
  -0.0019802   -0.0086277    0.0015484   -0.4646649   -0.2404107    0.8522260
  -0.0019342   -0.0081177    0.0016869   -0.4519967   -0.2773271    0.8478141
  -0.0016052   -0.0098339    0.0014472   -0.3056088   -0.2179652    0.9268735
  -0.0017670   -0.0103174    0.0013321   -0.3255109   -0.1549447    0.9327565
  -0.0030173   -0.0141926    0.0003752   -0.5546844   -0.1331682    0.8213352
  -0.0027897   -0.0137439    0.0005512   -0.4742496   -0.1308765    0.8706082
  -0.0026151   -0.0127211    0.0007363   -0.4480366   -0.1236801    0.8854188
  -0.0019764   -0.0118816    0.0011016   -0.3260984   -0.1183888    0.9378934
  -0.0018741   -0.0113695    0.0011772   -0.3253284   -0.1252978    0.9372630
  -0.0009747   -0.0111311    0.0014103   -0.1495490   -0.1646985    0.9749408
  -0.0039191   -0.0162186   -0.0006437   -0.7182249   -0.1765921    0.6730291
  -0.0037459   -0.0160214   -0.0003791   -0.6324209   -0.1899540    0.7509736
  -0.0034258   -0.0150926   -0.0000070   -0.6448884   -0.1333418    0.7525549
  -0.0031659   -0.0146748    0.0002419   -0.5546814   -0.1316107    0.8215882
  -0.0048951   -0.0160797   -0.0030034   -0.9921814    0.1189616   -0.0377381
  -0.0049946   -0.0167971   -0.0023499   -0.8966616    0.1114927    0.4284477
  -0.0043549   -0.0164382   -0.0042850   -0.4439085    0.2873439   -0.8487513
  -0.0045664   -0.0159209   -0.0039026   -0.8062372    0.1744133   -0.5652977
  -0.0039424   -0.0160085   -0.0042311   -0.0514622    0.2537962   -0.9658877
  -0.0036055   -0.0148849   -0.0039761    0.0414599    0.1013421   -0.9939873
  -0.0031175   -0.0134966   -0.0040085    0.4018111   -0.1422756   -0.9046024
  -0.0027763   -0.0148012   -0.0037221    0.3457246    0.0415509   -0.9374156
  -0.0030515   -0.0129109   -0.0041553    0.3544853   -0.2138635   -0.9102761
  -0.0027625   -0.0131362   -0.0038882    0.5677031   -0.1560958   -0.8082990
  -0.0031667   -0.0061807    0.0010971   -0.7848631   -0.2533431    0.5655150
  -0.0028525   -0.0065122    0.0013913   -0.6827858   -0.2477977    0.6873135
  -0.0030067   -0.0060285    0.0013598   -0.6990333   -0.2016855    0.6860579
  -0.0029390   -0.0055163    0.0014748   -0.6946420   -0.0955234    0.7129851
  -0.0024776   -0.0051921    0.0018479   -0.5382621    0.0415360    0.8417533
  -0.0022769   -0.0046770    0.0018137   -0.5138647    0.2736151    0.8130669
  -0.0025938   -0.0041028    0.0012267   -0.6161578    0.5131728    0.5974975
  -0.0027936   -0.0039292    0.0007445   -0.5855975    0.6676329    0.4597193
  -0.0024782   -0.0033876   -0.0001821   -0.3615573    0.9255029    0.1127860
  -0.0028200   -0.0036255    0.0001153   -0.5861486    0.7402276    0.3293826
  -0.0021244   -0.0035918   -0.0010436    0.0685189    0.9955915    0.0640531
  -0.0017515   -0.0033533    0.0001695    0.0852098    0.9773516   -0.1937087
  -0.0015144   -0.0068990   -0.0045128    0.4309652   -0.0992384   -0.8968950
  -0.0015151   -0.0089818   -0.0041307    0.5801392   -0.0790456   -0.8106727
  -0.0016455   -0.0058348   -0.0047400    0.3053486   -0.0693170   -0.9497144
  -0.0015548   -0.0047160   -0.0048108    0.2345897   -0.0028025   -0.9720904
  -0.0014421   -0.0042036   -0.0047465    0.2326385    0.2047481   -0.9507668
  -0.0017777   -0.0035882   -0.0045877    0.0255526    0.4727557   -0.8808230
  -0.0024178   -0.0032241   -0.0025068   -0.0268818    0.9701064    0.2411867
  -0.0019292   -0.0032021   -0.0026639   -0.0777594    0.9427577    0.3242858
  -0.0015937   -0.0032136   -0.0026604   -0.2164178    0.9083957    0.3577438
  -0.0015344   -0.0029895   -0.0038026   -0.1425718    0.9291421   -0.3411280
  -0.0012919   -0.0029549   -0.0032908   -0.1964772    0.9803273    0.0188427
  -0.0013319   -0.0030275   -0.0030273   -0.2815703    0.9114705    0.2998996
  -0.0016069   -0.0031963   -0.0041551   -0.1633382    0.8319431   -0.5302747
  -0.0015020   -0.0033293   -0.0043522    0.0488371    0.6843195   -0.7275450
  -0.0013251   -0.0089638   -0.0039522    0.6994531   -0.1134811   -0.7056114
  -0.0023916   -0.0132625   -0.0035814    0.5756401   -0.0701501   -0.8146885
  -0.0021760   -0.0119229   -0.0037108    0.6431647   -0.1391815   -0.7529726
  -0.0013342   -0.0120016   -0.0031451    0.5874421   -0.1058622   -0.8023123
  -0.0006696   -0.0085852   -0.0033919    0.6290344   -0.1458194   -0.7635787
  -0.0000075   -0.0102323   -0.0024363    0.6561838   -0.1280437   -0.7436582
  -0.0017692   -0.0060748    0.0022636   -0.4768389   -0.1640831    0.8635401
  -0.0015580   -0.0066980    0.0022591   -0.3423170   -0.2439499    0.9073630
  -0.0013942   -0.0083274    0.0018796   -0.2920623   -0.2703151    0.9174036
  -0.0007540   -0.0095984    0.0017336   -0.1621161   -0.2370031    0.9578872
  -0.0022090   -0.0145330    0.0007599   -0.3495835   -0.1402364    0.9263504
  -0.0021754   -0.0139969    0.0008225   -0.3000311   -0.1290187    0.9451643
  -0.0018231   -0.0124807    0.0010748   -0.1809877   -0.1371131    0.9738806
  -0.0006193   -0.0123168    0.0012542   -0.0004862   -0.1887625    0.9820226
   0.0006008   -0.0105353    0.0016776    0.0914436   -0.2459741    0.9649533
  -0.0002645   -0.0097473    0.0017616   -0.0543446   -0.2213738    0.9736736
  -0.0040213   -0.0169501   -0.0008013   -0.7623151   -0.1086175    0.6380266
  -0.0037922   -0.0165313   -0.0005174    0.9615837   -0.0828537    0.2617099
  -0.0037922   -0.0165313   -0.0005174    0.3833024   -0.1840833    0.9050926
  -0.0037922   -0.0165313   -0.0005174    0.7469047   -0.2093871    0.6311025
  -0.0036312   -0.0166267   -0.0003484   -0.6754952   -0.2159171    0.7050433
  -0.0034513   -0.0167188   -0.0001994   -0.6012184   -0.1627035    0.7823452
  -0.0026952   -0.0159752    0.0003839   -0.4293586   -0.1273407    0.8941116
  -0.0050058   -0.0173893   -0.0042347   -0.7861931    0.2628322   -0.5593028
  -0.0052113   -0.0170177   -0.0033469   -0.9452003    0.2697889   -0.1838761
  -0.0050597   -0.0166015   -0.0029762   -0.9669337    0.2264849    0.1172338
  -0.0054707   -0.0175446   -0.0028644   -0.9623170    0.2290223    0.1466110
  -0.0053646   -0.0178246   -0.0023163   -0.8054066    0.1417281    0.5755288
  -0.0044688   -0.0177834   -0.0013803   -0.7553125    0.0221906    0.6549891
  -0.0042804   -0.0174493   -0.0047700   -0.2164195    0.3476920   -0.9122899
  -0.0041248   -0.0169892   -0.0045625   -0.0676602    0.3575734   -0.9314308
  -0.0035185   -0.0161522   -0.0041615    0.2836924    0.2672830   -0.9209117
  -0.0033666   -0.0151295   -0.0039510    0.2821395    0.1683582   -0.9444855
  -0.0023245   -0.0137953   -0.0034698    0.5154710   -0.0066256   -0.8568814
  -0.0020254   -0.0145660   -0.0033228    0.5030860    0.0566362   -0.8623786
  -0.0033184   -0.0156959   -0.0039830    0.4320099    0.1052479   -0.8957066
  -0.0020143   -0.0052195    0.0020873   -0.4060920    0.1536544    0.9008216
  -0.0014289   -0.0056556    0.0024227   -0.2750472    0.0675837    0.9590524
  -0.0024062   -0.0041198    0.0013950   -0.4968565    0.5315373    0.6860041
  -0.0014308   -0.0050483    0.0022650   -0.2946955    0.2826320    0.9128383
  -0.0018909   -0.0044014    0.0018670   -0.3084985    0.4990447    0.8098044
  -0.0020388   -0.0039751    0.0014207   -0.3966839    0.6975799    0.5966777
  -0.0022277   -0.0037477    0.0009463   -0.4761988    0.7007332    0.5312323
  -0.0016700   -0.0033894    0.0008368   -0.3963524    0.8397579    0.3710949
  -0.0015149   -0.0033485    0.0006772    0.1605097    0.9870341   -0.0005842
  -0.0016219   -0.0037188   -0.0008857    0.0993241    0.9940964    0.0436703
  -0.0015476   -0.0036383   -0.0017121   -0.0144328    0.9831807    0.1820645
  -0.0017508   -0.0034816   -0.0021969   -0.0665559    0.9292592    0.3633836
  -0.0013822   -0.0036991   -0.0003761    0.3074599    0.9129937   -0.2681622
  -0.0013347   -0.0077471   -0.0042596    0.6157182   -0.0860747   -0.7832511
  -0.0012351   -0.0073996   -0.0042423    0.5676018   -0.0772779   -0.8196684
  -0.0012137   -0.0060205   -0.0045240    0.5162962   -0.0802553   -0.8526414
  -0.0012149   -0.0052222   -0.0046107    0.4461430   -0.0579524   -0.8930834
  -0.0011057   -0.0048999   -0.0046136    0.4576825   -0.0052990   -0.8890999
  -0.0009986   -0.0043876   -0.0045431    0.4955662    0.2274200   -0.8382686
  -0.0011812   -0.0037841   -0.0044979    0.3340359    0.4045847   -0.8513115
  -0.0008770   -0.0034453   -0.0020106   -0.2998253    0.8642762    0.4038952
  -0.0014035   -0.0030656   -0.0039788    0.0241191    0.8920179   -0.4513561
  -0.0009479   -0.0029236   -0.0032810   -0.1921664    0.9737599    0.1219173
  -0.0012037   -0.0035211   -0.0043744    0.3028965    0.6316111   -0.7136674
  -0.0018417   -0.0129359   -0.0033075    0.5415235   -0.0077032   -0.8406503
  -0.0016945   -0.0123700   -0.0032622    0.5442127   -0.0918583   -0.8339032
  -0.0006842   -0.0135493   -0.0023107    0.6677933   -0.0328605   -0.7436211
  -0.0000546   -0.0115385   -0.0020985    0.7225255   -0.0833675   -0.6862993
   0.0008457   -0.0089683   -0.0021546    0.6308432   -0.1989652   -0.7499665
  -0.0005052   -0.0070016   -0.0037587    0.6018012   -0.1131247   -0.7905935
   0.0002036   -0.0073762   -0.0031532    0.5456096   -0.1602846   -0.8225685
   0.0001625   -0.0080380   -0.0029677    0.5648843   -0.2052712   -0.7992305
   0.0002345   -0.0111311   -0.0018863    0.7018644   -0.1201337   -0.7021070
   0.0007807   -0.0101147   -0.0017369    0.5642704   -0.1755137   -0.8067180
  -0.0010315   -0.0063514    0.0024867   -0.1804536   -0.1632309    0.9699444
  -0.0010979   -0.0068622    0.0023710   -0.1254092   -0.2599935    0.9574319
  -0.0015412   -0.0131207    0.0010567   -0.0960829   -0.1173868    0.9884272
  -0.0018192   -0.0167239    0.0006607   -0.1317832   -0.0586304    0.9895432
  -0.0007409   -0.0128202    0.0011665    0.0556990   -0.1568985    0.9860428
   0.0009703   -0.0111389    0.0014397    0.3821297   -0.2836916    0.8794862
   0.0015494   -0.0094642    0.0018881    0.3353182   -0.2983957    0.8936004
   0.0006081   -0.0094858    0.0019375    0.0109523   -0.2363183    0.9716140
   0.0015847   -0.0100067    0.0016456    0.4980090   -0.3059789    0.8113963
  -0.0001354   -0.0081925    0.0021091   -0.0287410   -0.2114740    0.9769610
  -0.0038691   -0.0181613   -0.0006531   -0.7177637   -0.0493255    0.6945374
  -0.0036986   -0.0171371   -0.0004629   -0.6956108   -0.1263390    0.7072228
  -0.0036366   -0.0167045   -0.0003713   -0.5486445   -0.1994341    0.8119207
  -0.0034473   -0.0178372   -0.0002356   -0.6216630   -0.0725567    0.7799171
  -0.0023220   -0.0165988    0.0005022   -0.3845201   -0.0769696    0.9199021
  -0.0052730   -0.0178990   -0.0041553   -0.9090246    0.1533079   -0.3875189
  -0.0049823   -0.0183729   -0.0047660   -0.6917285    0.1982168   -0.6944220
  -0.0054261   -0.0174985   -0.0034193   -0.9608908    0.2103122   -0.1801600
  -0.0056359   -0.0182050   -0.0026882   -0.9627450    0.0696199    0.2612951
  -0.0056599   -0.0181082   -0.0030101   -0.9939202    0.0902974   -0.0629994
  -0.0048896   -0.0187145   -0.0016394   -0.6878586   -0.0124578    0.7257378
  -0.0055233   -0.0189452   -0.0021691   -0.7895113   -0.0333745    0.6128279
  -0.0055250   -0.0183379   -0.0023269   -0.8893371    0.0408932    0.4554198
  -0.0046039   -0.0184123   -0.0050191   -0.3759326    0.2061490   -0.9034253
  -0.0041848   -0.0179869   -0.0049587    0.0707309    0.2868175   -0.9553705
  -0.0038198   -0.0173588   -0.0046585    0.3751371    0.2969286   -0.8781261
  -0.0038116   -0.0170806   -0.0045637    0.3323563    0.2903690   -0.8973434
  -0.0018577   -0.0157768   -0.0031915    0.5569538    0.1107470   -0.8231267
  -0.0029038   -0.0169395   -0.0039903    0.4723476    0.1945226   -0.8596794
  -0.0012618   -0.0139865   -0.0028090    0.6000052    0.0277145   -0.7995159
  -0.0014631   -0.0148463   -0.0029029    0.6460741    0.0222173   -0.7629512
  -0.0010946   -0.0049604    0.0023048   -0.1732904    0.3167668    0.9325391
  -0.0000979   -0.0061033    0.0026494   -0.0563019   -0.0025672    0.9984105
  -0.0005139   -0.0056380    0.0025554   -0.1485525    0.1329660    0.9799246
  -0.0013851   -0.0045137    0.0020270   -0.2839602    0.4109984    0.8662834
  -0.0015636   -0.0043325    0.0018598   -0.3625702    0.3924651    0.8452893
  -0.0016988   -0.0041803    0.0017330   -0.3528997    0.5210202    0.7771742
  -0.0014269   -0.0036359    0.0012434   -0.1115763    0.7667500    0.6321750
  -0.0014892   -0.0034399    0.0010001   -0.0879826    0.8645874    0.4947197
  -0.0011980   -0.0037310   -0.0002099    0.3833475    0.9133642   -0.1371519
  -0.0012290   -0.0035339    0.0006715    0.5250229    0.8497791   -0.0471848
  -0.0010189   -0.0037249    0.0011358    0.5301062    0.8435389    0.0861950
  -0.0006304   -0.0038320   -0.0008881   -0.2786827    0.8970344    0.3430235
  -0.0006564   -0.0037345   -0.0012086   -0.2925970    0.9054473    0.3074934
  -0.0005419   -0.0039276   -0.0006374   -0.0660486    0.8828610    0.4649668
  -0.0005906   -0.0040625   -0.0002466    0.2840494    0.9414881    0.1814280
  -0.0008162   -0.0060725   -0.0042194    0.5652278   -0.0819448   -0.8208548
  -0.0000668   -0.0049971   -0.0038910    0.5478743    0.0040428   -0.8365509
  -0.0001265   -0.0036417   -0.0037038    0.4699438    0.4466730   -0.7613383
  -0.0005760   -0.0035554   -0.0039368    0.4312647    0.5387589   -0.7237055
  -0.0003130   -0.0032732   -0.0018101   -0.4324086    0.8032388    0.4096709
  -0.0010903   -0.0031850   -0.0039907    0.2738405    0.7830276   -0.5584614
  -0.0006258   -0.0030001   -0.0032869    0.1733259    0.9369134   -0.3035644
   0.0000466   -0.0031657   -0.0017898   -0.2820481    0.8802806    0.3815165
   0.0005411   -0.0031159   -0.0019429    0.1772111    0.9760204    0.1264133
   0.0001660   -0.0033636   -0.0031574    0.3760438    0.7304791   -0.5700801
  -0.0003519   -0.0131724   -0.0019868    0.7862769   -0.0426435   -0.6164010
  -0.0007373   -0.0141040   -0.0022863    0.7076458   -0.0000098   -0.7065673
   0.0014010   -0.0085200   -0.0018412    0.5184658   -0.2029071   -0.8306756
   0.0014200   -0.0080337   -0.0020675    0.5888989   -0.2261840   -0.7759117
   0.0009739   -0.0071420   -0.0027761    0.5649742   -0.1616533   -0.8091182
   0.0000758   -0.0132696   -0.0013471    0.7127127   -0.1124295   -0.6923874
   0.0007576   -0.0107929   -0.0015778    0.4821556   -0.1857883   -0.8561593
   0.0014058   -0.0104630   -0.0014134    0.3950350   -0.1497756   -0.9063745
  -0.0002177   -0.0066072    0.0025632   -0.0123382   -0.2033399    0.9790305
  -0.0004069   -0.0070733    0.0024132   -0.0781336   -0.2793077    0.9570174
   0.0012826   -0.0086056    0.0021235    0.0456164   -0.1945575    0.9798298
  -0.0014035   -0.0142501    0.0009295    0.0139080   -0.1243101    0.9921459
  -0.0008458   -0.0138731    0.0010133    0.0544069   -0.1322478    0.9897224
  -0.0023860   -0.0172155    0.0004709   -0.4177995   -0.0001830    0.9085392
  -0.0018246   -0.0174386    0.0006853   -0.2253388    0.0880946    0.9702895
  -0.0006131   -0.0144741    0.0009123    0.0942689   -0.1056685    0.9899230
  -0.0006990   -0.0160912    0.0007455    0.1115345   -0.0927042    0.9894271
  -0.0011037   -0.0170928    0.0007218    0.0710042    0.0868372    0.9936889
  -0.0007839   -0.0166152    0.0006916    0.6478814   -0.0221166    0.7614201
   0.0004767   -0.0125785    0.0010581    0.4392380   -0.2340528    0.8673461
  -0.0000191   -0.0135308    0.0009509    0.3647123   -0.1147032    0.9240282
   0.0010355   -0.0126296    0.0006699    0.7344471   -0.2949205    0.6112359
   0.0011740   -0.0116513    0.0010498    0.6427767   -0.2994052    0.7051204
   0.0016865   -0.0102222    0.0014486    0.6727460   -0.3173057    0.6683786
   0.0013863   -0.0091717    0.0020264    0.1759087   -0.2269239    0.9578944
   0.0020388   -0.0097618    0.0014482    0.7304784   -0.3193714    0.6036582
   0.0020019   -0.0087697    0.0019669    0.4240861   -0.2447524    0.8719216
   0.0016882   -0.0102169    0.0014501    0.7846185   -0.2840715    0.5510691
  -0.0037523   -0.0194015   -0.0003633   -0.7166611   -0.0557302    0.6951913
  -0.0028882   -0.0187249    0.0003474   -0.6054932    0.0307990    0.7952543
  -0.0052187   -0.0188992   -0.0046587   -0.8678909    0.0381922   -0.4952845
  -0.0054669   -0.0184538   -0.0039810   -0.9366786    0.0426680   -0.3475812
  -0.0056733   -0.0185568   -0.0034001   -0.9751502    0.0037224   -0.2215134
  -0.0050090   -0.0194138   -0.0050432   -0.6993163    0.0473079   -0.7132451
  -0.0057372   -0.0186349   -0.0030575   -0.9974847   -0.0708503   -0.0021318
  -0.0057263   -0.0190077   -0.0027361   -0.9679023   -0.0907608    0.2343666
  -0.0054514   -0.0195513   -0.0020902   -0.7539449   -0.1552452    0.6383307
  -0.0046399   -0.0205309   -0.0014405   -0.6857417   -0.2560216    0.6813305
  -0.0056441   -0.0204694   -0.0026021   -0.9146544   -0.1939727    0.3546576
  -0.0055951   -0.0188810   -0.0023274   -0.9223508   -0.0819233    0.3775679
  -0.0041629   -0.0185188   -0.0050906    0.0875675    0.1888196   -0.9780997
  -0.0046051   -0.0189419   -0.0051360   -0.2075408    0.1451210   -0.9674021
  -0.0048139   -0.0194364   -0.0051644   -0.3794626    0.0449213   -0.9241159
  -0.0039164   -0.0185448   -0.0049925    0.3928228    0.2141911   -0.8943223
  -0.0037173   -0.0187033   -0.0048900    0.4910222    0.2172334   -0.8436272
  -0.0026217   -0.0181488   -0.0039880    0.5702209    0.2508544   -0.7822533
  -0.0025810   -0.0176369   -0.0038425    0.5633733    0.1934712   -0.8032306
  -0.0017749   -0.0163827   -0.0031250    0.6578438    0.1241743   -0.7428474
  -0.0006656   -0.0153167   -0.0020472    0.7989638    0.0361254   -0.6002931
  -0.0001384   -0.0054543    0.0025866   -0.0720812    0.3071688    0.9489213
  -0.0006843   -0.0043897    0.0020550   -0.0237006    0.6138282    0.7890838
   0.0002158   -0.0061909    0.0026368    0.1166921   -0.0265215    0.9928140
   0.0001961   -0.0054696    0.0025895    0.0788857    0.2443164    0.9664815
  -0.0013400   -0.0040765    0.0017529   -0.2008681    0.6276405    0.7521432
  -0.0003680   -0.0044944    0.0020453    0.2092607    0.7758967    0.5951422
  -0.0006880   -0.0040387    0.0002583    0.5303383    0.8477859   -0.0006319
  -0.0007086   -0.0040425   -0.0000564    0.4390010    0.8957968    0.0694715
  -0.0004963   -0.0043189    0.0007104    0.5813465    0.8123358    0.0463339
   0.0000745   -0.0048912    0.0021607    0.4651278    0.8545846    0.2309574
  -0.0002317   -0.0046056    0.0014635    0.5951288    0.8034941    0.0147984
  -0.0004680   -0.0043316    0.0010598    0.6049624    0.7962386    0.0049570
   0.0000398   -0.0042826   -0.0002673    0.1969764    0.8384335    0.5081630
  -0.0000611   -0.0041108   -0.0004759    0.0649497    0.7687454    0.6362484
   0.0000608   -0.0037466   -0.0008636   -0.0643513    0.7673640    0.6379744
  -0.0002404   -0.0044353    0.0003780    0.4837120    0.8662021    0.1253655
   0.0000463   -0.0044670    0.0000424    0.2791104    0.8534594    0.4401187
   0.0003748   -0.0049457    0.0006519    0.3284333    0.9091673    0.2560203
   0.0012146   -0.0049015   -0.0029836    0.6157062    0.0829006   -0.7836028
   0.0013005   -0.0061152   -0.0027611    0.6404999   -0.0475677   -0.7664836
   0.0002721   -0.0042762   -0.0036179    0.5030247    0.1916563   -0.8427538
   0.0011034   -0.0042975   -0.0030189    0.6037450    0.3524439   -0.7150352
   0.0008245   -0.0036619   -0.0028531    0.5520444    0.6386012   -0.5361302
   0.0002451   -0.0031948   -0.0027974    0.3026068    0.8656323   -0.3988857
   0.0006734   -0.0031866   -0.0021185    0.3598733    0.9170112   -0.1719929
   0.0004066   -0.0032743   -0.0014639   -0.0843139    0.8778417    0.4714712
   0.0011012   -0.0036180   -0.0014221    0.4233056    0.8497917    0.3141121
   0.0010999   -0.0035330   -0.0017234    0.4997973    0.8655502    0.0320223
   0.0007314   -0.0033358   -0.0014674    0.2160138    0.8334633    0.5086030
   0.0007304   -0.0034055   -0.0026512    0.4772055    0.8020786   -0.3590890
  -0.0002311   -0.0138760   -0.0016133    0.9023373   -0.0679716   -0.4256374
   0.0019923   -0.0101354   -0.0011804    0.5788568   -0.1292179   -0.8051258
   0.0021299   -0.0090152   -0.0013038    0.6371270   -0.1271486   -0.7601989
   0.0012770   -0.0068291   -0.0026150    0.6482029   -0.1286340   -0.7505240
   0.0016621   -0.0068129   -0.0022712    0.6517447   -0.0837210   -0.7538035
   0.0003222   -0.0136469   -0.0009933    0.6733718   -0.1824480   -0.7164378
   0.0003614   -0.0130382   -0.0011966    0.5543658   -0.1931999   -0.8095383
   0.0009553   -0.0127091   -0.0009712    0.6448530   -0.2660815   -0.7164951
   0.0015803   -0.0106569   -0.0012966    0.4859964   -0.1863500   -0.8538625
   0.0017788   -0.0112586   -0.0009728    0.7824272   -0.2020142   -0.5890653
   0.0013889   -0.0123183   -0.0008061    0.6473222   -0.3043974   -0.6987963
   0.0006921   -0.0068514    0.0024967    0.1865545   -0.1298070    0.9738314
   0.0018819   -0.0082195    0.0021336    0.2526766   -0.1217785    0.9598565
   0.0013167   -0.0069786    0.0023064    0.2979724   -0.0597329    0.9527037
  -0.0023500   -0.0176658    0.0005218   -0.4199745    0.1006524    0.9019371
  -0.0019721   -0.0179761    0.0007519   -0.2413190    0.1878234    0.9520964
  -0.0012699   -0.0184873    0.0009273    0.0656577    0.1402941    0.9879305
  -0.0006531   -0.0161013    0.0007361    0.3549228   -0.0847777    0.9310438
  -0.0009601   -0.0171290    0.0006987    0.3702617    0.0433782    0.9279141
  -0.0007239   -0.0183381    0.0007532    0.2818429    0.1077619    0.9533897
  -0.0007839   -0.0166152    0.0006916    0.8611883    0.0038250    0.5082717
  -0.0007839   -0.0166152    0.0006916    0.7675440   -0.0263407    0.6404548
   0.0005962   -0.0136133    0.0006144    0.7792994   -0.1648420    0.6045821
   0.0006866   -0.0131089    0.0007278    0.7421794   -0.2229505    0.6320307
  -0.0005017   -0.0166840    0.0006498    0.2731467   -0.0457644    0.9608832
  -0.0000102   -0.0162151    0.0004770    0.7234571   -0.0359723    0.6894316
   0.0001158   -0.0160209    0.0002846    0.9448721   -0.0214835    0.3267340
   0.0007933   -0.0139314   -0.0000859    0.9310768   -0.3059541    0.1987159
   0.0013115   -0.0126118    0.0003227    0.8639476   -0.2854921    0.4148358
   0.0021340   -0.0106869    0.0003854    0.9248174   -0.2768267    0.2609210
   0.0025882   -0.0096898    0.0006314    0.8790244   -0.3301704    0.3439528
   0.0018115   -0.0106915    0.0009866    0.7552443   -0.3006971    0.5823979
   0.0018345   -0.0102187    0.0012844    0.9330527   -0.1660457    0.3191262
   0.0019852   -0.0102161    0.0011222    0.7745694   -0.3915613    0.4967112
   0.0027106   -0.0088199    0.0014164    0.7920806   -0.3140943    0.5234053
   0.0018345   -0.0102187    0.0012844    0.9830668   -0.1058291    0.1495991
   0.0018345   -0.0102187    0.0012844    0.9526662   -0.1789795    0.2457509
   0.0025505   -0.0083324    0.0018464    0.6104614   -0.1924096    0.7683199
  -0.0039624   -0.0203981   -0.0006105   -0.6748797   -0.2477959    0.6950788
  -0.0037458   -0.0200307   -0.0003315   -0.7315940   -0.0642238    0.6787087
  -0.0023556   -0.0190048    0.0008006   -0.4632883    0.0620244    0.8840345
  -0.0028697   -0.0193321    0.0004860   -0.6119584    0.0044372    0.7908775
  -0.0053797   -0.0194635   -0.0044829   -0.8919117   -0.0414150   -0.4503092
  -0.0055236   -0.0189837   -0.0040385   -0.9515498   -0.0536250   -0.3027826
  -0.0056739   -0.0202094   -0.0035290   -0.9815967   -0.1431369   -0.1264114
  -0.0050891   -0.0205086   -0.0050697   -0.5797664   -0.0860006   -0.8102314
  -0.0057249   -0.0203510   -0.0029758   -0.9812393   -0.1779809    0.0741091
  -0.0053898   -0.0206682   -0.0021908   -0.6740713   -0.3314175    0.6601442
  -0.0055376   -0.0208804   -0.0024897   -0.8240670   -0.3133206    0.4719574
  -0.0043905   -0.0215926   -0.0017322   -0.5914571   -0.5319868    0.6059443
  -0.0041258   -0.0213224   -0.0011574   -0.7051644   -0.4207634    0.5707025
  -0.0041324   -0.0207680   -0.0009429   -0.5285485   -0.3906277    0.7536886
  -0.0056612   -0.0209542   -0.0028940   -0.9238012   -0.2933021    0.2460999
  -0.0043646   -0.0195438   -0.0052459    0.0859892    0.0829220   -0.9928393
  -0.0040912   -0.0190933   -0.0051257    0.3463034    0.1331946   -0.9286189
  -0.0048822   -0.0208918   -0.0051652   -0.1624337   -0.1463047   -0.9758126
  -0.0046328   -0.0205890   -0.0052519   -0.1120338   -0.0770589   -0.9907120
  -0.0025061   -0.0192627   -0.0041479    0.6331406    0.1709320   -0.7549273
  -0.0034002   -0.0199111   -0.0049263    0.4832578    0.1145446   -0.8679524
  -0.0022954   -0.0188075   -0.0038297    0.5975703    0.1784437   -0.7817081
  -0.0011222   -0.0172677   -0.0026470    0.6958006    0.1971078   -0.6906592
  -0.0012229   -0.0182369   -0.0028953    0.5945597    0.2210126   -0.7730797
  -0.0007116   -0.0164353   -0.0020269    0.8036525    0.1315717   -0.5803720
  -0.0000758   -0.0157933   -0.0009594    0.8734272    0.0609752   -0.4831220
  -0.0005954   -0.0165307   -0.0018074    0.8776833    0.0973055   -0.4692587
  -0.0004537   -0.0148998   -0.0017445    0.9388388   -0.0366051   -0.3424060
  -0.0001927   -0.0151243   -0.0012138    0.8523315    0.0272364   -0.5222922
   0.0000737   -0.0051347    0.0024665    0.1055570    0.5777855    0.8093341
   0.0012905   -0.0064414    0.0024215    0.3469100    0.0235680    0.9376023
   0.0005044   -0.0056131    0.0025744    0.1856727    0.2674607    0.9455107
   0.0007951   -0.0058420    0.0025470    0.2677872    0.1953204    0.9434723
   0.0003869   -0.0052539    0.0024548    0.2797516    0.6727533    0.6849395
   0.0001354   -0.0048995    0.0013257    0.4559396    0.8878940    0.0613458
   0.0006503   -0.0051830    0.0017976    0.3262245    0.9354207    0.1362561
   0.0003586   -0.0041581   -0.0005808    0.1745197    0.7185543    0.6732181
   0.0004961   -0.0046345   -0.0001415    0.2274259    0.8343246    0.5021752
   0.0007034   -0.0039053   -0.0008758    0.1643010    0.6861918    0.7086226
   0.0009158   -0.0053188    0.0014475    0.2549238    0.9649951    0.0616302
   0.0011724   -0.0052793    0.0007858    0.0729660    0.9389087    0.3363427
   0.0019572   -0.0047658   -0.0022257    0.7168571    0.2096427   -0.6649555
   0.0017737   -0.0044073   -0.0022710    0.6662958    0.5034998   -0.5500344
   0.0015862   -0.0038924   -0.0018669    0.5536374    0.8248196   -0.1147095
   0.0020337   -0.0042870   -0.0017472    0.6776955    0.6750279   -0.2916609
   0.0025840   -0.0048314   -0.0006398    0.3319262    0.9195756    0.2102514
   0.0012283   -0.0044713   -0.0005205    0.0833215    0.7927056    0.6038835
   0.0025493   -0.0047846   -0.0009695    0.6101713    0.7778467   -0.1504841
  -0.0003095   -0.0142171   -0.0016522    0.9799465   -0.0594745   -0.1901778
   0.0000111   -0.0140666   -0.0011852    0.8094470   -0.1302537   -0.5725641
   0.0019367   -0.0107821   -0.0009730    0.8064191   -0.2158035   -0.5505607
   0.0022992   -0.0097301   -0.0009891    0.7461998   -0.1018419   -0.6578861
   0.0027574   -0.0063540   -0.0014042    0.7358311    0.0156847   -0.6769834
   0.0031555   -0.0066380   -0.0008008    0.8516727   -0.0218225   -0.5236196
   0.0027133   -0.0087847   -0.0007170    0.8144204   -0.0712062   -0.5758898
   0.0003300   -0.0141107   -0.0007889    0.6830554   -0.3127380   -0.6600229
   0.0005304   -0.0140645   -0.0006115    0.7460205   -0.3331853   -0.5765769
   0.0007574   -0.0138883   -0.0004157    0.8646702   -0.3173452   -0.3894066
   0.0012809   -0.0129835   -0.0002822    0.8986845   -0.3486111   -0.2661513
   0.0017384   -0.0119651   -0.0004183    0.9683786   -0.2025505   -0.1456580
   0.0015348   -0.0122434   -0.0006786    0.8454125   -0.2989737   -0.4425973
   0.0018360   -0.0115516    0.0000124    0.9706884   -0.2353272   -0.0488388
   0.0022033   -0.0077405    0.0021044    0.3755943    0.0550892    0.9251454
   0.0019830   -0.0065508    0.0021005    0.3865889    0.0896538    0.9178841
   0.0015033   -0.0063966    0.0023131    0.4285987    0.0805461    0.8998975
  -0.0019752   -0.0186335    0.0008962   -0.3218849    0.1196047    0.9391937
  -0.0017115   -0.0186755    0.0009693   -0.0644454    0.1093955    0.9919070
  -0.0010189   -0.0194171    0.0008935    0.2422170    0.0182203    0.9700510
  -0.0008153   -0.0171657    0.0006859    0.2051991    0.0532594    0.9772701
  -0.0003110   -0.0189823    0.0006187    0.5130558    0.0798245    0.8546355
  -0.0004144   -0.0178196    0.0005974    0.2413339    0.0588696    0.9686549
  -0.0005926   -0.0172177    0.0006370    0.4326213    0.0163532    0.9014274
  -0.0005427   -0.0170858    0.0006301    0.2279961   -0.0024813    0.9736589
   0.0004615   -0.0145949    0.0002380    0.9831721   -0.1631265    0.0822334
  -0.0002622   -0.0167301    0.0005691    0.5306962    0.0444421    0.8463962
   0.0001426   -0.0173201   -0.0002308    0.9798921    0.0760086    0.1844835
   0.0001811   -0.0162008   -0.0002425    0.9627597    0.1053073   -0.2490064
   0.0002220   -0.0155183   -0.0002341    0.9908253   -0.0410382   -0.1287679
   0.0012370   -0.0130569   -0.0000221    0.9338647   -0.3125359    0.1738333
   0.0005009   -0.0144255   -0.0003266    0.8839259   -0.2474350   -0.3968009
   0.0014950   -0.0125440   -0.0001092    0.9612498   -0.2573995    0.0987130
   0.0025175   -0.0100870    0.0001102    0.9500209   -0.2898371    0.1159949
   0.0019794   -0.0102281    0.0011176    0.8550110   -0.3038872    0.4202484
   0.0031178   -0.0083039    0.0011658    0.9265967   -0.2037310    0.3160889
   0.0030936   -0.0086585    0.0004461    0.9789308   -0.2041905    0.0008068
   0.0026477   -0.0078147    0.0019115    0.6174839   -0.0064958    0.7865567
   0.0032362   -0.0077995    0.0012508    0.9099519   -0.0727803    0.4082775
  -0.0033395   -0.0207742    0.0000912   -0.6641307   -0.2414337    0.7075593
  -0.0035130   -0.0214738   -0.0003605   -0.7001034   -0.3585177    0.6175114
  -0.0038253   -0.0210013   -0.0006042   -0.7526458   -0.3085040    0.5816782
  -0.0039702   -0.0209077   -0.0007920    0.9557359   -0.1277728    0.2650339
  -0.0039702   -0.0209077   -0.0007920    0.7541971   -0.3253466    0.5703826
  -0.0032855   -0.0202630    0.0002211   -0.6574832   -0.1020117    0.7465316
  -0.0022805   -0.0196119    0.0008754   -0.3714478   -0.0303960    0.9279562
  -0.0019184   -0.0191786    0.0009694   -0.1488398    0.0307066    0.9883844
  -0.0027067   -0.0205432    0.0006223   -0.5074978   -0.1273712    0.8521869
  -0.0053611   -0.0205300   -0.0047186   -0.8623739   -0.0884583   -0.4984841
  -0.0054664   -0.0211255   -0.0044917   -0.9075953   -0.2217461   -0.3565100
  -0.0056017   -0.0210427   -0.0040232   -0.9636872   -0.1980435   -0.1791251
  -0.0056364   -0.0213689   -0.0034477   -0.9438257   -0.3299395   -0.0182501
  -0.0056769   -0.0211270   -0.0031972   -0.9577008   -0.2804287    0.0645676
  -0.0050691   -0.0210889   -0.0050278    0.9459850   -0.0599830   -0.3186133
  -0.0050691   -0.0210889   -0.0050278    0.7457237   -0.1793998   -0.6416478
  -0.0052350   -0.0210822   -0.0048800   -0.7653409   -0.1879250   -0.6155790
  -0.0053380   -0.0215555   -0.0025805   -0.5998546   -0.5497128    0.5813694
  -0.0054727   -0.0215911   -0.0028285   -0.8089320   -0.4914885    0.3225960
  -0.0033716   -0.0222134   -0.0007962   -0.6259273   -0.6539303    0.4249590
  -0.0043037   -0.0218843   -0.0019392   -0.4403429   -0.7724136    0.4576847
  -0.0048779   -0.0218689   -0.0024443   -0.4347681   -0.6993017    0.5674098
  -0.0038108   -0.0215107   -0.0008107   -0.7278786   -0.4407794    0.5252678
  -0.0039702   -0.0209077   -0.0007920    0.3621373   -0.4636697    0.8086204
  -0.0038070   -0.0203033   -0.0051185    0.3890099    0.0234266   -0.9209357
  -0.0041123   -0.0207526   -0.0052094    0.2182079   -0.0971811   -0.9710516
  -0.0048589   -0.0211209   -0.0051352   -0.2235145   -0.2368312   -0.9454905
  -0.0043396   -0.0212682   -0.0051455    0.1243898   -0.2625128   -0.9568773
  -0.0050691   -0.0210889   -0.0050278    0.2902608   -0.3367118   -0.8957532
  -0.0013812   -0.0204300   -0.0031493    0.5769178   -0.0569080   -0.8148174
  -0.0021969   -0.0206111   -0.0036677    0.6581299   -0.1957447   -0.7270138
  -0.0025735   -0.0197731   -0.0042625    0.7055551    0.0730211   -0.7048829
  -0.0026960   -0.0202860   -0.0043156    0.6859620   -0.0686911   -0.7243878
  -0.0033291   -0.0205169   -0.0048465    0.6083460   -0.1225006   -0.7841612
  -0.0011354   -0.0199680   -0.0030423    0.5464616    0.0080473   -0.8374455
  -0.0005658   -0.0196856   -0.0026329    0.6530912    0.1616678   -0.7398212
  -0.0009977   -0.0178725   -0.0026269    0.7151698    0.2704551   -0.6445046
  -0.0005384   -0.0176459   -0.0019017    0.8428996    0.2526283   -0.4750782
  -0.0006396   -0.0170414   -0.0019482    0.8877134    0.1536180   -0.4340119
  -0.0005275   -0.0191747   -0.0024850    0.7045266    0.2795232   -0.6523106
  -0.0005993   -0.0165613   -0.0018143    0.8569536    0.1437292   -0.4949469
  -0.0004592   -0.0166253   -0.0016100    0.8290608    0.1262239   -0.5447254
  -0.0000426   -0.0163997   -0.0008370    0.9049844    0.0902137   -0.4157700
  -0.0003373   -0.0167209   -0.0013969    0.8608595    0.1183036   -0.4948991
  -0.0000051   -0.0146735   -0.0010073    0.8362835   -0.0152108   -0.5480862
  -0.0005261   -0.0171359   -0.0017254    0.9553052    0.0689253   -0.2874740
  -0.0005261   -0.0171359   -0.0017254    0.9749518    0.0614291   -0.2137648
   0.0009878   -0.0056171    0.0024137    0.3937763    0.4438809    0.8049286
   0.0006924   -0.0054104    0.0024377    0.3056791    0.6702987    0.6762100
   0.0011379   -0.0053825    0.0019452    0.2858111    0.9092847    0.3025119
   0.0008196   -0.0044878   -0.0004516    0.0983212    0.7199598    0.6870159
   0.0011425   -0.0047765   -0.0001513   -0.0122338    0.8366558    0.5475924
   0.0013759   -0.0054361    0.0012703   -0.0198688    0.9636292    0.2665032
   0.0017595   -0.0056452    0.0019183    0.2502781    0.8557125    0.4528985
   0.0016559   -0.0050674    0.0003194   -0.1086708    0.8969051    0.4286629
   0.0027019   -0.0057476   -0.0015016    0.7744783    0.1757151   -0.6077068
   0.0024035   -0.0050628   -0.0016814    0.7530645    0.4369217   -0.4919282
   0.0023204   -0.0049042    0.0000168    0.0613833    0.9115619    0.4065550
   0.0030441   -0.0051667   -0.0005119    0.6088223    0.7879310   -0.0921959
   0.0026770   -0.0049247   -0.0003932    0.3188577    0.9324301    0.1700114
   0.0029824   -0.0052500   -0.0008596    0.7426890    0.4639509   -0.4828692
   0.0023290   -0.0104216   -0.0005083    0.9184067   -0.2685078   -0.2905732
   0.0024326   -0.0098118   -0.0007838    0.8779248   -0.1486663   -0.4551333
   0.0033008   -0.0061920   -0.0005363    0.8920148    0.1338044   -0.4317476
   0.0030431   -0.0084639   -0.0001968    0.9455901   -0.1078853   -0.3069531
   0.0033376   -0.0068292   -0.0003052    0.9546799    0.0137638   -0.2973161
   0.0025459   -0.0100045   -0.0002110    0.9622894   -0.2228161   -0.1560515
   0.0025594   -0.0066336    0.0018051    0.5093107    0.2934068    0.8090210
   0.0021551   -0.0062947    0.0020018    0.5042791    0.2623806    0.8227144
   0.0028281   -0.0070202    0.0017439    0.5450466    0.2178671    0.8096037
   0.0017082   -0.0061121    0.0021882    0.4388324    0.3178739    0.8404655
  -0.0005470   -0.0195068    0.0007258    0.3662654   -0.0218343    0.9302542
  -0.0017601   -0.0197953    0.0009920    0.0278609   -0.0403215    0.9987983
  -0.0009619   -0.0199709    0.0007983    0.2855108   -0.0823644    0.9548297
  -0.0001468   -0.0193806    0.0004850    0.6409211    0.0946340    0.7617509
  -0.0004336   -0.0206239    0.0005769    0.4454347   -0.0350178    0.8946294
  -0.0000067   -0.0184108    0.0002740    0.8800630    0.1519228    0.4498983
   0.0000092   -0.0178492    0.0002648    0.8898541    0.1407602    0.4339888
   0.0000038   -0.0181237   -0.0007606    0.9246279    0.1948926   -0.3272309
   0.0001379   -0.0177505   -0.0002175    0.9904956    0.1341589    0.0303291
  -0.0001113   -0.0169115   -0.0009505    0.8966571    0.1140889   -0.4277730
  -0.0001175   -0.0181539   -0.0010215    0.8788718    0.1979893   -0.4340329
   0.0032324   -0.0081160    0.0003713    0.9955836   -0.0906985   -0.0242286
   0.0031645   -0.0072760    0.0014619    0.7943219    0.1429178    0.5904467
   0.0033408   -0.0073810    0.0010305    0.9711042    0.0496090    0.2334428
  -0.0029705   -0.0216234    0.0001304   -0.5460240   -0.4138897    0.7283908
  -0.0027762   -0.0210548    0.0005097   -0.4478817   -0.2642116    0.8541629
  -0.0038223   -0.0211180   -0.0006513   -0.6180334   -0.4159323    0.6671095
  -0.0032921   -0.0220428   -0.0004360   -0.6275576   -0.5616490    0.5391862
  -0.0021708   -0.0202154    0.0009125   -0.2368663   -0.1353047    0.9620743
  -0.0052291   -0.0211539   -0.0048714   -0.5898935   -0.3619722   -0.7218045
  -0.0052806   -0.0216208   -0.0046015   -0.6815856   -0.4677448   -0.5627218
  -0.0054125   -0.0215502   -0.0044262   -0.8160170   -0.4446275   -0.3693543
  -0.0055343   -0.0216452   -0.0039379   -0.8605188   -0.4712026   -0.1935858
  -0.0055158   -0.0217720   -0.0036198   -0.7327541   -0.6802661   -0.0175892
  -0.0054826   -0.0218262   -0.0032912   -0.7313823   -0.6683480    0.1356129
  -0.0051494   -0.0220648   -0.0029838   -0.4495798   -0.8242669    0.3441832
  -0.0033728   -0.0225009   -0.0016750   -0.4131198   -0.9047933    0.1033495
  -0.0029410   -0.0226918   -0.0006885   -0.4385947   -0.8348845    0.3325696
  -0.0031987   -0.0222991   -0.0006371   -0.4397368   -0.6625060    0.6063970
  -0.0031985   -0.0223012   -0.0006381   -0.6398359   -0.5409956    0.5458331
  -0.0035468   -0.0224189   -0.0018343   -0.4003385   -0.8946013    0.1985386
  -0.0039612   -0.0223603   -0.0025035   -0.1503490   -0.9780499    0.1442690
  -0.0045839   -0.0221030   -0.0024774   -0.2770533   -0.8569748    0.4345523
  -0.0036859   -0.0209305   -0.0049847    0.5396539   -0.1742241   -0.8236624
  -0.0038809   -0.0208449   -0.0051190    0.4355456   -0.1817200   -0.8816336
  -0.0040544   -0.0213911   -0.0049982    0.4086954   -0.3255295   -0.8526421
  -0.0044809   -0.0215133   -0.0050777    0.0610231   -0.4202084   -0.9053734
  -0.0048024   -0.0214350   -0.0050718   -0.2544089   -0.3988474   -0.8810203
  -0.0041640   -0.0218320   -0.0047815    0.3895795   -0.5793868   -0.7159181
  -0.0049795   -0.0215836   -0.0049273   -0.4908326   -0.4585452   -0.7408236
  -0.0008798   -0.0213193   -0.0025023    0.5309000   -0.3135737   -0.7872844
  -0.0007999   -0.0206155   -0.0027158    0.5693738   -0.1431866   -0.8095128
  -0.0016983   -0.0219199   -0.0025753    0.4712785   -0.5083099   -0.7207757
  -0.0021734   -0.0212253   -0.0033248    0.5645984   -0.4029023   -0.7203460
  -0.0023848   -0.0211641   -0.0035158    0.6567122   -0.4009643   -0.6387149
  -0.0031046   -0.0208905   -0.0044669    0.6902954   -0.2630429   -0.6740183
  -0.0037604   -0.0215106   -0.0047306    0.6317891   -0.3884302   -0.6707940
  -0.0004857   -0.0202905   -0.0025626    0.6810594    0.0149900   -0.7320747
   0.0000309   -0.0200624   -0.0019016    0.8516078    0.2532483   -0.4589439
  -0.0003824   -0.0195118   -0.0023883    0.7701067    0.2570881   -0.5838162
  -0.0003965   -0.0188649   -0.0021310    0.8142825    0.3305414   -0.4771650
  -0.0005261   -0.0171359   -0.0017254    0.9628676    0.1163141   -0.2436328
  -0.0004182   -0.0175415   -0.0016121    0.8666850    0.1951677   -0.4590934
  -0.0002068   -0.0189354   -0.0016621    0.8770500    0.3240475   -0.3546497
  -0.0003930   -0.0172315   -0.0015248    0.9016800    0.1321432   -0.4117176
   0.0016019   -0.0056993    0.0020761    0.3983095    0.6311047    0.6656248
   0.0021677   -0.0051499    0.0004837    0.0190225    0.9095118    0.4152425
   0.0022216   -0.0057535    0.0017427    0.4477939    0.5292940    0.7206445
   0.0023747   -0.0057219    0.0015818    0.5053226    0.5981843    0.6219522
   0.0025206   -0.0055096    0.0011101    0.3248379    0.8260798    0.4605134
   0.0028533   -0.0056642   -0.0012548    0.8035215    0.2445435   -0.5427261
   0.0026961   -0.0050591    0.0000625    0.2093200    0.9130095    0.3501412
   0.0031997   -0.0053400   -0.0003657    0.7818318    0.6120124   -0.1190794
   0.0031329   -0.0054493   -0.0007175    0.7997984    0.4177000   -0.4311022
   0.0029460   -0.0051466   -0.0000073    0.4418551    0.8697167    0.2199023
   0.0032582   -0.0057692   -0.0005921    0.8522943    0.2544579   -0.4569963
   0.0033334   -0.0056191   -0.0002347    0.9145744    0.3724904   -0.1574945
   0.0034161   -0.0061473   -0.0001389    0.9615945    0.1787288   -0.2083076
   0.0033322   -0.0075362    0.0002096    0.9873128   -0.0339287   -0.1551200
   0.0034727   -0.0064523    0.0002203    0.9873620    0.1450572   -0.0638330
   0.0030648   -0.0063657    0.0013350    0.6251962    0.4411718    0.6438145
  -0.0006967   -0.0206314    0.0006385    0.2635554   -0.1042017    0.9589998
  -0.0016846   -0.0203613    0.0009306    0.0945347   -0.1636804    0.9819735
  -0.0012732   -0.0209872    0.0007311    0.2365919   -0.1565201    0.9589190
   0.0000049   -0.0202879    0.0003615    0.6502358    0.0896031    0.7544301
   0.0001643   -0.0195579    0.0001775    0.8506637    0.2002556    0.4860751
  -0.0006122   -0.0216649    0.0004601    0.3919808   -0.1537559    0.9070337
  -0.0002513   -0.0208214    0.0004515    0.5147033   -0.0832304    0.8533189
   0.0001527   -0.0188254   -0.0004180    0.9660153    0.2553166   -0.0403462
  -0.0000390   -0.0191117   -0.0012082    0.9153493    0.3015572   -0.2668314
   0.0034147   -0.0071587    0.0007909    0.9899841    0.0676350    0.1239236
   0.0032527   -0.0066706    0.0012192    0.8572598    0.2317973    0.4597560
  -0.0025543   -0.0214569    0.0004953   -0.3084578   -0.3768453    0.8734079
  -0.0029281   -0.0221309   -0.0001071   -0.5350350   -0.5500170    0.6412634
  -0.0024698   -0.0224735    0.0000201   -0.3692482   -0.5931068    0.7154580
  -0.0021654   -0.0207533    0.0008140   -0.1704106   -0.2432412    0.9548790
  -0.0030262   -0.0223926   -0.0004805    0.2205252   -0.7779880    0.5883055
  -0.0051568   -0.0219501   -0.0044778   -0.6120789   -0.6516776   -0.4479685
  -0.0048464   -0.0218665   -0.0047969   -0.1826620   -0.6450280   -0.7420064
  -0.0051496   -0.0221307   -0.0041672   -0.5486719   -0.8084125   -0.2131393
  -0.0051948   -0.0220701   -0.0033208   -0.4532695   -0.8862435    0.0954947
  -0.0049510   -0.0223117   -0.0036861   -0.2398545   -0.9687252    0.0635708
  -0.0047073   -0.0222715   -0.0031736   -0.2321052   -0.9440254    0.2343998
  -0.0028851   -0.0227004   -0.0015276   -0.2255129   -0.9723213   -0.0611169
  -0.0028371   -0.0224859   -0.0003425   -0.3262803   -0.7472663    0.5789079
  -0.0027648   -0.0227647   -0.0005281   -0.4023264   -0.8033408    0.4390638
  -0.0030262   -0.0223926   -0.0004805    0.9469598   -0.2444051    0.2086462
  -0.0030262   -0.0223926   -0.0004805    0.7483554   -0.4687375    0.4693074
  -0.0026849   -0.0228741   -0.0010455   -0.2269352   -0.9729932   -0.0422453
  -0.0042349   -0.0223296   -0.0033422    0.1689205   -0.9838376   -0.0594089
  -0.0034906   -0.0224256   -0.0026728    0.1707965   -0.9570410   -0.2343100
  -0.0020772   -0.0227700   -0.0016926    0.1059669   -0.9148334   -0.3896806
  -0.0039705   -0.0220370   -0.0043038    0.4900503   -0.7865652   -0.3757204
  -0.0045267   -0.0221702   -0.0044987    0.2310929   -0.8318665   -0.5045732
  -0.0037831   -0.0218382   -0.0044409    0.6341276   -0.6068452   -0.4791880
  -0.0011957   -0.0218377   -0.0023393    0.4587100   -0.4876773   -0.7428028
  -0.0005679   -0.0215644   -0.0021729    0.5678467   -0.3612775   -0.7396139
  -0.0001623   -0.0210864   -0.0020660    0.7144895   -0.1655403   -0.6797802
  -0.0023720   -0.0218852   -0.0029609    0.5182813   -0.5153608   -0.6824864
  -0.0024462   -0.0222723   -0.0026354    0.3595540   -0.7133902   -0.6014942
  -0.0015554   -0.0225882   -0.0018272    0.3203455   -0.6992896   -0.6390406
  -0.0013651   -0.0223744   -0.0019623    0.3719838   -0.5865613   -0.7194261
  -0.0031730   -0.0218747   -0.0035982    0.5743595   -0.5877899   -0.5697493
  -0.0026182   -0.0219630   -0.0030984    0.4797146   -0.6560911   -0.5825962
  -0.0030195   -0.0214122   -0.0039849    0.6843609   -0.5059279   -0.5250592
  -0.0033731   -0.0217013   -0.0040802    0.6464831   -0.5898150   -0.4839193
   0.0000868   -0.0206687   -0.0018051    0.9157980    0.0967411   -0.3898142
   0.0001155   -0.0200949   -0.0016230    0.9395497    0.2689457   -0.2119305
   0.0028009   -0.0051391    0.0001591    0.2279736    0.8915736    0.3913114
   0.0029693   -0.0054669    0.0006196    0.5683766    0.6816297    0.4607918
   0.0032511   -0.0055208    0.0002811    0.7451523    0.6317858    0.2135294
