NORM_ASCII
1914 3824
  -0.0042299   -0.0220443    0.0020614   -0.1130416   -0.2519555    0.9611139
  -0.0052580   -0.0227034    0.0016473   -0.4471474   -0.1245610    0.8857448
  -0.0051563   -0.0222119    0.0017395   -0.4214381   -0.1341493    0.8968801
  -0.0041928   -0.0219176    0.0020830   -0.2047729   -0.1072857    0.9729120
  -0.0048250   -0.0197104    0.0020771   -0.3461411   -0.1221949    0.9301907
  -0.0051981   -0.0216878    0.0017691   -0.4353849   -0.1248422    0.8915461
  -0.0032053   -0.0221287    0.0021591    0.0560070   -0.1802102    0.9820323
  -0.0068366   -0.0238231    0.0000584   -0.8986169   -0.0638829    0.4340583
  -0.0065992   -0.0228614    0.0004567   -0.7917292   -0.1097175    0.6009384
  -0.0023954   -0.0294465    0.0005204    0.9716973   -0.0589702    0.2287506
  -0.0023954   -0.0294465    0.0005204    0.9815427   -0.0464757    0.1855097
  -0.0022707   -0.0289593    0.0005916    0.8309666   -0.1228800    0.5425817
  -0.0071779   -0.0230979   -0.0018684   -0.9988149   -0.0188486    0.0448724
  -0.0069906   -0.0215590   -0.0021806   -0.9997363   -0.0138059    0.0183486
  -0.0072384   -0.0235333   -0.0028893   -0.9983063   -0.0150197   -0.0562039
  -0.0065466   -0.0218379    0.0004985   -0.8819121   -0.0873776    0.4632453
  -0.0067362   -0.0207721   -0.0002501   -0.9639635   -0.0633577    0.2583800
  -0.0067938   -0.0201297   -0.0009256   -0.9926432   -0.0500727    0.1102370
  -0.0073361   -0.0250468   -0.0032123   -0.9580454   -0.0602187   -0.2802192
  -0.0068008   -0.0256199   -0.0040242   -0.4687570   -0.0717368   -0.8804094
  -0.0071272   -0.0250599   -0.0036648   -0.8687290   -0.0600426   -0.4916349
  -0.0070114   -0.0255881   -0.0038699   -0.7245962   -0.1019571   -0.6815902
  -0.0067323   -0.0276976   -0.0042208   -0.3963990    0.1318028   -0.9085680
  -0.0065697   -0.0266984   -0.0041373   -0.3299381    0.0415388   -0.9430882
  -0.0070423   -0.0305584   -0.0049480   -0.5743336    0.3065876   -0.7590421
  -0.0068110   -0.0309816   -0.0053748   -0.5245063    0.4779828   -0.7045748
  -0.0069313   -0.0312032   -0.0054500   -0.7243937    0.3184815   -0.6114110
  -0.0067539   -0.0298263   -0.0047732   -0.2537874    0.2824854   -0.9250913
  -0.0020703   -0.0294677   -0.0001504    0.9930757    0.0571200    0.1026548
  -0.0021125   -0.0299565   -0.0004462    0.9786578    0.1152254   -0.1701527
  -0.0021130   -0.0309742   -0.0007332    0.9527662    0.1997286   -0.2287904
  -0.0023258   -0.0303793   -0.0011884    0.8813357    0.1994032   -0.4283523
  -0.0023007   -0.0317441   -0.0014326    0.8113054    0.2788791   -0.5138191
  -0.0021846   -0.0300462   -0.0008053    0.9579757    0.1932974   -0.2119403
  -0.0020717   -0.0289675    0.0001325    0.9848998   -0.0402789    0.1683746
  -0.0022559   -0.0294620    0.0003182    0.8932961   -0.1237543    0.4320961
  -0.0069288   -0.0317018   -0.0057320   -0.7297451    0.2040941   -0.6525471
  -0.0074324   -0.0346928   -0.0059928   -0.8772010   -0.0287813   -0.4792598
  -0.0072284   -0.0342044   -0.0061649   -0.8320667    0.0900632   -0.5473149
  -0.0070602   -0.0342268   -0.0063480   -0.5684544    0.0628909   -0.8203075
  -0.0069602   -0.0337321   -0.0062937   -0.6200790    0.1167141   -0.7758091
  -0.0067000   -0.0322392   -0.0061577   -0.6200673    0.1161449   -0.7759039
  -0.0024592   -0.0357307   -0.0038090    0.5867805    0.1295797   -0.7993108
  -0.0026654   -0.0357072   -0.0039482    0.4634043    0.0926726   -0.8812878
  -0.0022735   -0.0349018   -0.0034637    0.6058635    0.3520124   -0.7134540
  -0.0026403   -0.0353147   -0.0039038    0.5243216    0.2000065   -0.8276982
  -0.0030666   -0.0352088   -0.0041495    0.5026925    0.1934836   -0.8425345
  -0.0016958   -0.0344789   -0.0024381    0.6399811    0.5550143   -0.5313976
  -0.0016023   -0.0342634   -0.0020843    0.5987772    0.5820031   -0.5502165
  -0.0017878   -0.0334180   -0.0016376    0.5952492    0.5796221   -0.5565219
  -0.0018938   -0.0343821   -0.0025738    0.5487174    0.6112304   -0.5703566
  -0.0020911   -0.0349073   -0.0032861    0.5947166    0.4952811   -0.6332526
  -0.0021148   -0.0324838   -0.0014113    0.7579483    0.3629351   -0.5420263
  -0.0024269   -0.0338935   -0.0025840    0.5245315    0.6032126   -0.6008338
  -0.0025995   -0.0328539   -0.0021164    0.6908054    0.3634983   -0.6250255
  -0.0024564   -0.0325343   -0.0018134    0.6929302    0.3302081   -0.6409449
  -0.0042728   -0.0357774   -0.0047304    0.5558635   -0.1587980   -0.8159650
  -0.0042545   -0.0349017   -0.0050230    0.7465477   -0.1042169   -0.6571189
  -0.0035109   -0.0351019   -0.0043692    0.5420493    0.0560347   -0.8384764
  -0.0071241   -0.0347309   -0.0063778   -0.4739597   -0.0783251   -0.8770561
  -0.0068960   -0.0347715   -0.0064794   -0.4761471   -0.0812310   -0.8756058
  -0.0073052   -0.0347043   -0.0062035   -0.7899784   -0.0499117   -0.6110997
  -0.0056308   -0.0350240   -0.0066008    0.4593343   -0.2059323   -0.8640624
  -0.0058649   -0.0349693   -0.0066927    0.1969243   -0.1565935   -0.9678323
  -0.0060400   -0.0344097   -0.0067668   -0.0629917   -0.0040180   -0.9980060
  -0.0062849   -0.0343632   -0.0067132   -0.3208305    0.0431050   -0.9461553
  -0.0050856   -0.0341204   -0.0063213    0.7069350    0.1158860   -0.6977202
  -0.0057597   -0.0344700   -0.0067442    0.2405432    0.0154456   -0.9705155
  -0.0054782   -0.0340177   -0.0066169    0.4034065    0.1566494   -0.9015121
  -0.0044802   -0.0344781   -0.0054970    0.8079367    0.0227616   -0.5888296
  -0.0056926   -0.0227030    0.0013916   -0.5272423   -0.1274619    0.8401006
  -0.0062539   -0.0224477    0.0009282   -0.7206413   -0.1226131    0.6823798
  -0.0015646   -0.0260201    0.0009898    0.7761961   -0.1479630    0.6128839
  -0.0014525   -0.0255271    0.0010525    0.7848602   -0.1313295    0.6055964
  -0.0013558   -0.0250333    0.0011047    0.7627434   -0.0948749    0.6397040
  -0.0012893   -0.0219718    0.0016631    0.5257157   -0.0858341    0.8463188
  -0.0012369   -0.0230044    0.0014285    0.6137608   -0.0738417    0.7860312
  -0.0024034   -0.0218669    0.0020980    0.1809479   -0.1034434    0.9780375
  -0.0012547   -0.0204406    0.0019433    0.5534570   -0.1136305    0.8250900
  -0.0012736   -0.0245330    0.0011471    0.7610711   -0.0608771    0.6458055
  -0.0011397   -0.0235286    0.0012106    0.7488762   -0.0563890    0.6603065
  -0.0017046   -0.0270022    0.0006247    0.9610605   -0.1727316    0.2157001
  -0.0014599   -0.0260247    0.0007639    0.9412405   -0.1532673    0.3009575
  -0.0021469   -0.0289700    0.0003785    0.9170070   -0.1046862    0.3848883
  -0.0018568   -0.0274845    0.0005350    0.9549840   -0.1499373    0.2559774
  -0.0039658   -0.0219679    0.0021364   -0.1665825   -0.1814474    0.9691889
  -0.0036618   -0.0220318    0.0021463   -0.0329366   -0.2780647    0.9599975
  -0.0054685   -0.0225626    0.0015387   -0.4729857   -0.1316387    0.8711807
  -0.0055128   -0.0200574    0.0016748   -0.5627909   -0.1278371    0.8166542
  -0.0043762   -0.0203299    0.0021836   -0.1872182   -0.1317462    0.9734435
  -0.0051270   -0.0191206    0.0019753   -0.4002048   -0.1407382    0.9055544
  -0.0042953   -0.0188024    0.0023809   -0.2852120   -0.1154631    0.9514843
  -0.0033703   -0.0215808    0.0022356    0.0423258   -0.0967294    0.9944104
  -0.0070632   -0.0225179   -0.0030946   -0.9861768    0.0036203   -0.1656572
  -0.0069224   -0.0215137   -0.0030260   -0.9884225   -0.0026011   -0.1517040
  -0.0069328   -0.0210531   -0.0021550   -0.9992431   -0.0368950    0.0123312
  -0.0070316   -0.0235235   -0.0036405   -0.9373803   -0.0419035   -0.3457778
  -0.0061604   -0.0214370    0.0010443   -0.7640651   -0.0992126    0.6374649
  -0.0065552   -0.0207892    0.0003736   -0.9300195   -0.0675845    0.3612425
  -0.0062551   -0.0203701    0.0009131   -0.8207654   -0.0810757    0.5654829
  -0.0066714   -0.0186076   -0.0007909   -0.9851888   -0.0602678    0.1605327
  -0.0067854   -0.0195886   -0.0012729   -0.9963400   -0.0534607    0.0666969
  -0.0071145   -0.0245467   -0.0035999   -0.8931056   -0.0618838   -0.4455702
  -0.0063194   -0.0257151   -0.0041146   -0.0157893   -0.0022744   -0.9998728
  -0.0069911   -0.0250724   -0.0038695   -0.7350081   -0.0653878   -0.6748982
  -0.0067778   -0.0245869   -0.0040354   -0.5488829   -0.0807597   -0.8319888
  -0.0065429   -0.0251482   -0.0041156   -0.1996152   -0.0901806   -0.9757158
  -0.0063777   -0.0287865   -0.0045473   -0.0992102    0.2313349   -0.9678024
  -0.0064183   -0.0277559   -0.0043046   -0.0946666    0.1615714   -0.9823100
  -0.0064208   -0.0267272   -0.0041750   -0.0385312    0.0974331   -0.9944959
  -0.0066161   -0.0302640   -0.0049657   -0.3068864    0.3957407   -0.8655692
  -0.0063420   -0.0303155   -0.0050314   -0.1102394    0.4732155   -0.8740220
  -0.0066874   -0.0311227   -0.0055847   -0.4550984    0.5730788   -0.6815175
  -0.0064522   -0.0308785   -0.0054330   -0.2092971    0.6548495   -0.7262003
  -0.0067512   -0.0312275   -0.0056248   -0.5967731    0.4124634   -0.6882847
  -0.0061474   -0.0288325   -0.0045643    0.1329313    0.2448535   -0.9604041
  -0.0058727   -0.0294034   -0.0046388    0.2193206    0.2881617   -0.9321273
  -0.0061016   -0.0298597   -0.0048435    0.0680575    0.3799790   -0.9224880
  -0.0020548   -0.0283975   -0.0006552    0.9683801    0.0568754   -0.2429098
  -0.0023786   -0.0293265   -0.0012513    0.8794187    0.1475881   -0.4525932
  -0.0023466   -0.0288171   -0.0012065    0.8903089    0.0679801   -0.4502541
  -0.0024619   -0.0323865   -0.0017750    0.7691171    0.2389954   -0.5927395
  -0.0017409   -0.0269525    0.0000058    0.9622849    0.0031568   -0.2720253
  -0.0016858   -0.0269859    0.0003402    0.9989451   -0.0450868    0.0087145
  -0.0065578   -0.0317558   -0.0060745   -0.5019026    0.3105018   -0.8072685
  -0.0065680   -0.0312995   -0.0057965   -0.4514387    0.4630041   -0.7627780
  -0.0064776   -0.0338150   -0.0065602   -0.3629246    0.1438930   -0.9206414
  -0.0068353   -0.0332432   -0.0062527   -0.4422239    0.0843957   -0.8929252
  -0.0065623   -0.0327744   -0.0063478   -0.4004776    0.0802847   -0.9127826
  -0.0064815   -0.0322736   -0.0063063   -0.4128599    0.2096332   -0.8863412
  -0.0024889   -0.0347287   -0.0035584    0.5318918    0.5459101   -0.6473588
  -0.0026618   -0.0348012   -0.0037664    0.5265904    0.3907675   -0.7549857
  -0.0022886   -0.0348048   -0.0034216    0.5388162    0.5851903   -0.6059946
  -0.0036801   -0.0345409   -0.0044510    0.6232572    0.2315686   -0.7469447
  -0.0036914   -0.0342698   -0.0043786    0.6620553    0.3241727   -0.6757180
  -0.0035014   -0.0344421   -0.0042465    0.5701612    0.4067122   -0.7137936
  -0.0026272   -0.0343241   -0.0032721    0.5643510    0.6068037   -0.5597296
  -0.0026997   -0.0341151   -0.0031225    0.5385680    0.6684432   -0.5129603
  -0.0026993   -0.0333228   -0.0025129    0.6048431    0.4370769   -0.6656790
  -0.0029341   -0.0337602   -0.0029927    0.5770878    0.5722429   -0.5826730
  -0.0029514   -0.0326032   -0.0024412    0.6934092    0.2441891   -0.6779052
  -0.0031133   -0.0327082   -0.0026720    0.6375935    0.3323812   -0.6949800
  -0.0026211   -0.0318276   -0.0018725    0.7403623    0.2132414   -0.6374886
  -0.0038562   -0.0344921   -0.0046293    0.7645822    0.1386415   -0.6294383
  -0.0060135   -0.0339000   -0.0067002   -0.1001940    0.1706953   -0.9802164
  -0.0044410   -0.0341164   -0.0054800    0.7972405    0.1475219   -0.5853587
  -0.0048964   -0.0336589   -0.0060566    0.6932383    0.2591182   -0.6725165
  -0.0054876   -0.0329937   -0.0063915    0.4469451    0.2768068   -0.8506575
  -0.0057319   -0.0339603   -0.0066793    0.1458784    0.1621238   -0.9759280
  -0.0057235   -0.0334498   -0.0065860    0.0614375    0.2378647   -0.9693533
  -0.0057982   -0.0210205    0.0014477   -0.6425862   -0.1026457    0.7593068
  -0.0013281   -0.0255379    0.0008398    0.9464066   -0.1333271    0.2941741
  -0.0012162   -0.0250468    0.0009023    0.8840568   -0.0977613    0.4570407
  -0.0011244   -0.0204623    0.0018518    0.5922299   -0.1260228    0.7958530
  -0.0009682   -0.0225321    0.0013001    0.7241407   -0.0752934    0.6855298
  -0.0034418   -0.0210485    0.0022686   -0.0044249   -0.0794645    0.9968279
  -0.0031959   -0.0200714    0.0024084    0.0101735   -0.1545579    0.9879314
  -0.0025070   -0.0207250    0.0022954    0.2256918   -0.1472687    0.9630032
  -0.0011525   -0.0199485    0.0019990    0.9212010   -0.0522684    0.3855604
  -0.0013846   -0.0199099    0.0021388    0.4080215   -0.1375423    0.9025523
  -0.0011525   -0.0199485    0.0019990    0.8681584   -0.0834855    0.4892148
  -0.0011252   -0.0245513    0.0009506    0.8841546   -0.0572183    0.4636774
  -0.0009061   -0.0230476    0.0010586    0.8786715   -0.0522940    0.4745543
  -0.0015484   -0.0265008    0.0004200    0.9875912   -0.1561087   -0.0171393
  -0.0016989   -0.0269914    0.0004529    0.9903620   -0.1245632   -0.0605567
  -0.0014038   -0.0260180    0.0005047    0.9917786   -0.1266181    0.0185231
  -0.0036577   -0.0215201    0.0022231   -0.0649217   -0.1019055    0.9926734
  -0.0061602   -0.0193566    0.0009903   -0.8142013   -0.1046817    0.5710675
  -0.0059924   -0.0188934    0.0012795   -0.7392271   -0.1277148    0.6612353
  -0.0056600   -0.0184653    0.0016001   -0.6761722   -0.1086622    0.7286863
  -0.0052182   -0.0185839    0.0019936   -0.4729524   -0.1327471    0.8710305
  -0.0032695   -0.0195433    0.0025090   -0.0460504   -0.1377589    0.9893947
  -0.0044943   -0.0182401    0.0023421   -0.2922358   -0.1384483    0.9462718
  -0.0038951   -0.0183742    0.0024875   -0.1518439   -0.1137687    0.9818351
  -0.0065124   -0.0205154   -0.0036664   -0.9198948    0.0325398   -0.3908129
  -0.0069841   -0.0230164   -0.0036216   -0.9299312    0.0028157   -0.3677228
  -0.0067893   -0.0195579   -0.0017069   -0.9987379   -0.0455558    0.0211483
  -0.0067434   -0.0190421   -0.0017834   -0.9937360   -0.0356042   -0.1059297
  -0.0067053   -0.0205074   -0.0032030   -0.9573959    0.0208514   -0.2880248
  -0.0069539   -0.0240418   -0.0038714   -0.7831288   -0.0706179   -0.6178369
  -0.0069202   -0.0235322   -0.0038621   -0.8266145   -0.0214335   -0.5623602
  -0.0064165   -0.0192695    0.0004842   -0.9289029   -0.0807135    0.3614205
  -0.0066985   -0.0185742   -0.0011903   -0.9970389   -0.0516245    0.0569935
  -0.0065714   -0.0176106   -0.0005181   -0.9891542   -0.0692336    0.1295404
  -0.0060548   -0.0257730   -0.0040682    0.1056852    0.0540912   -0.9929274
  -0.0059992   -0.0252662   -0.0040447    0.2636014    0.0087484   -0.9645920
  -0.0061533   -0.0247075   -0.0041493    0.1221054   -0.0792135   -0.9893510
  -0.0069040   -0.0245700   -0.0039135   -0.6570538   -0.0707527   -0.7505160
  -0.0065193   -0.0246317   -0.0041573   -0.3185470   -0.1029901   -0.9422955
  -0.0065317   -0.0241097   -0.0041793   -0.3734371   -0.0806065   -0.9241468
  -0.0067627   -0.0240715   -0.0040388   -0.6312414   -0.0759081   -0.7718629
  -0.0063297   -0.0241478   -0.0042220   -0.0504545   -0.0902447   -0.9946408
  -0.0059168   -0.0278628   -0.0042614    0.0981916    0.2245808   -0.9694957
  -0.0056922   -0.0274010   -0.0041226    0.2036085    0.1421261   -0.9686814
  -0.0062239   -0.0306985   -0.0052842    0.0683909    0.6120443   -0.7878607
  -0.0062640   -0.0303322   -0.0050239    0.0749240    0.4763165   -0.8760759
  -0.0063312   -0.0310421   -0.0056440   -0.1361942    0.6798742   -0.7205707
  -0.0066015   -0.0312508   -0.0057372   -0.4523990    0.5580135   -0.6956695
  -0.0061159   -0.0309826   -0.0055010    0.2091560    0.6938266   -0.6890997
  -0.0054741   -0.0284756   -0.0042446    0.3138807    0.2250257   -0.9224112
  -0.0054123   -0.0289999   -0.0043374    0.3850800    0.2193582   -0.8964348
  -0.0056475   -0.0279215   -0.0042163    0.2636268    0.2272678   -0.9374701
  -0.0058229   -0.0304308   -0.0049240    0.4154692    0.3569826   -0.8366294
  -0.0052164   -0.0295641   -0.0042950    0.5304343    0.2081462   -0.8217753
  -0.0060057   -0.0306126   -0.0051396    0.2966913    0.5347124   -0.7912376
  -0.0021156   -0.0278481   -0.0008987    0.8885747    0.0615348   -0.4545859
  -0.0026175   -0.0287284   -0.0016838    0.8448823    0.0704508   -0.5302929
  -0.0026174   -0.0302856   -0.0016836    0.8223080    0.1267112   -0.5547557
  -0.0025385   -0.0297894   -0.0015722    0.8423712    0.1067608   -0.5282167
  -0.0026539   -0.0292359   -0.0017353    0.9430237    0.0692296   -0.3254438
  -0.0019342   -0.0268754   -0.0005174    0.9259446    0.0412785   -0.3753968
  -0.0016372   -0.0264588    0.0000627    0.9380229   -0.0676778   -0.3399012
  -0.0062612   -0.0318105   -0.0061704   -0.1999054    0.3807018   -0.9028311
  -0.0064573   -0.0315572   -0.0060122   -0.2508363    0.4864297   -0.8369393
  -0.0065377   -0.0312621   -0.0057771   -0.3006598    0.5699056   -0.7647296
  -0.0062248   -0.0313376   -0.0058615    0.0645600    0.5676245   -0.8207524
  -0.0058548   -0.0329118   -0.0064617   -0.0822434    0.1733181   -0.9814259
  -0.0063268   -0.0323020   -0.0063571   -0.1528811    0.1997381   -0.9678492
  -0.0033427   -0.0341268   -0.0039679    0.6136985    0.4422401   -0.6540625
  -0.0038688   -0.0339807   -0.0045055    0.9119107    0.1691130   -0.3739247
  -0.0037001   -0.0340274   -0.0043156    0.7579950    0.3591744   -0.5444605
  -0.0028952   -0.0339938   -0.0032572    0.5814882    0.6673135   -0.4653646
  -0.0029846   -0.0341716   -0.0036092    0.6020006    0.5620511   -0.5671806
  -0.0029205   -0.0332646   -0.0026999    0.5939474    0.4153017   -0.6890218
  -0.0033932   -0.0334593   -0.0033093    0.5719444    0.5928824   -0.5668951
  -0.0035008   -0.0318962   -0.0028287    0.6574562    0.1657061   -0.7350462
  -0.0034358   -0.0310775   -0.0027549    0.6695276    0.1451859   -0.7284599
  -0.0029415   -0.0312224   -0.0021706    0.7607484    0.1564352   -0.6299126
  -0.0036758   -0.0328635   -0.0032182    0.6039418    0.4387315   -0.6654089
  -0.0040698   -0.0324559   -0.0034494    0.6685141    0.3013484   -0.6799103
  -0.0040034   -0.0339355   -0.0047450    0.8710737    0.2642927   -0.4139808
  -0.0044344   -0.0332860   -0.0053179    0.7914629    0.3036699   -0.5304442
  -0.0047176   -0.0332022   -0.0056895    0.7381460    0.3380016   -0.5838625
  -0.0053052   -0.0325318   -0.0061174    0.5867908    0.3971940   -0.7056299
  -0.0047839   -0.0326779   -0.0055726    0.7196946    0.4226393   -0.5508318
  -0.0051170   -0.0326548   -0.0059723    0.6583497    0.4170255   -0.6266302
  -0.0057365   -0.0329366   -0.0064612    0.1821810    0.2589642   -0.9485503
  -0.0055135   -0.0324631   -0.0062440    0.4268964    0.3926134   -0.8146252
  -0.0013761   -0.0258175    0.0002215    0.9611805   -0.1343124   -0.2410233
  -0.0011364   -0.0250476    0.0006594    0.9790382   -0.1175799    0.1663104
  -0.0005377   -0.0200426    0.0015248    0.8769114   -0.0817350    0.4736515
  -0.0009062   -0.0199895    0.0018690    0.5854686   -0.1454446    0.7975415
  -0.0006550   -0.0215519    0.0011886    0.8807452   -0.0830598    0.4662499
  -0.0022778   -0.0197446    0.0024239    0.1987454   -0.1367295    0.9704665
  -0.0012910   -0.0194132    0.0021889    0.5441092   -0.1044914    0.8324822
  -0.0011525   -0.0199485    0.0019990    0.9087088   -0.0602776    0.4130556
  -0.0010386   -0.0194561    0.0020629    0.6219172   -0.1082879    0.7755596
  -0.0009571   -0.0240536    0.0007538    0.9744898   -0.0462252    0.2196197
  -0.0006514   -0.0225509    0.0006237    0.9895443   -0.0472009    0.1362869
  -0.0014237   -0.0259973    0.0002547    0.9555209   -0.1606417   -0.2473338
  -0.0060253   -0.0173252    0.0012049   -0.8124844   -0.0962524    0.5749822
  -0.0063442   -0.0182525    0.0005884   -0.9334179   -0.0999791    0.3445798
  -0.0056655   -0.0169122    0.0016554   -0.7181848   -0.1231156    0.6848746
  -0.0044451   -0.0172222    0.0024804   -0.2873253   -0.1187101    0.9504484
  -0.0046523   -0.0166577    0.0024546   -0.4062853   -0.1314965    0.9042350
  -0.0026412   -0.0191596    0.0025596    0.0288475   -0.1079639    0.9937362
  -0.0039830   -0.0178424    0.0025676   -0.1858258   -0.1508940    0.9709273
  -0.0060799   -0.0185262   -0.0037241   -0.8459092    0.0457769   -0.5313587
  -0.0065359   -0.0200101   -0.0033986   -0.9184016    0.0409625   -0.3935233
  -0.0064763   -0.0210246   -0.0039257   -0.7773397    0.0287320   -0.6284246
  -0.0063491   -0.0174950   -0.0028191   -0.9423842   -0.0212262   -0.3338584
  -0.0066521   -0.0180364   -0.0015938   -0.9992464   -0.0323010   -0.0215245
  -0.0064582   -0.0174925   -0.0025219   -0.9767720   -0.0376262   -0.2109521
  -0.0067482   -0.0235539   -0.0040426   -0.6555522   -0.0370177   -0.7542420
  -0.0065104   -0.0171214   -0.0002734   -0.9807707   -0.0853908    0.1754913
  -0.0064549   -0.0160181   -0.0013713   -0.9977482   -0.0586680   -0.0325059
  -0.0065032   -0.0165784   -0.0006180   -0.9953365   -0.0725343    0.0635929
  -0.0050601   -0.0254827   -0.0037473    0.2582656    0.0694527   -0.9635742
  -0.0057280   -0.0237594   -0.0041308    0.4977259   -0.0743036   -0.8641458
  -0.0051066   -0.0239166   -0.0037357    0.3739668    0.0044937   -0.9274312
  -0.0059458   -0.0237071   -0.0042475    0.1791299   -0.0903504   -0.9796680
  -0.0061008   -0.0241986   -0.0041839    0.0029312   -0.0975129   -0.9952299
  -0.0065267   -0.0235911   -0.0041893   -0.4422687   -0.0531511   -0.8953063
  -0.0062296   -0.0236466   -0.0042650   -0.1147478   -0.0645857   -0.9912929
  -0.0047058   -0.0276318   -0.0037517    0.3868541    0.1498922   -0.9098770
  -0.0060090   -0.0312724   -0.0057180    0.4154402    0.5912010   -0.6912964
  -0.0058113   -0.0313750   -0.0055824    0.5351491    0.5814159   -0.6128384
  -0.0047759   -0.0291578   -0.0039639    0.6003067    0.1016795   -0.7932800
  -0.0055943   -0.0306669   -0.0048618    0.5473655    0.4248791   -0.7210192
  -0.0052101   -0.0309737   -0.0045955    0.6866415    0.3262849   -0.6496627
  -0.0046900   -0.0307335   -0.0039553    0.6783653    0.1701387   -0.7147541
  -0.0046504   -0.0302263   -0.0039228    0.6383170    0.1129584   -0.7614406
  -0.0028775   -0.0281175   -0.0022114    0.8042770    0.0251008   -0.5937243
  -0.0029077   -0.0275830   -0.0023611    0.7242368    0.0554073   -0.6873217
  -0.0022810   -0.0256934   -0.0015504    0.8870659    0.0192249   -0.4612423
  -0.0021395   -0.0257389   -0.0013207    0.8728988    0.0008956   -0.4879005
  -0.0029947   -0.0265197   -0.0024601    0.7551261    0.0777760   -0.6509496
  -0.0019820   -0.0262641   -0.0007677    0.9140685   -0.0029493   -0.4055491
  -0.0026631   -0.0287129   -0.0017551    0.9045161    0.0641128   -0.4215924
  -0.0026405   -0.0297583   -0.0017127    0.8907561    0.0957655   -0.4442775
  -0.0026837   -0.0297437   -0.0017965    0.8400443    0.1093870   -0.5313756
  -0.0026539   -0.0292359   -0.0017353    0.9794575    0.0499997   -0.1953537
  -0.0026539   -0.0292359   -0.0017353    0.9922249    0.0299152   -0.1208088
  -0.0016491   -0.0257667   -0.0002601    0.8410098   -0.0927606   -0.5330084
  -0.0015229   -0.0259555   -0.0000375    0.8701020   -0.1035247   -0.4818768
  -0.0061179   -0.0316332   -0.0060785    0.0574484    0.5442466   -0.8369560
  -0.0060306   -0.0321057   -0.0063044    0.0524651    0.3810175   -0.9230780
  -0.0059030   -0.0315735   -0.0059357    0.3423421    0.6603701   -0.6683661
  -0.0061827   -0.0313313   -0.0058333    0.3352749    0.5003468   -0.7982755
  -0.0057429   -0.0324255   -0.0063465    0.2071303    0.3264233   -0.9222499
  -0.0031820   -0.0340692   -0.0037447    0.5524748    0.6254913   -0.5509375
  -0.0035722   -0.0338169   -0.0040137    0.6412937    0.6059492   -0.4707100
  -0.0038688   -0.0339807   -0.0045055    0.9798263    0.1281675   -0.1533413
  -0.0038688   -0.0339807   -0.0045055    0.9719969    0.1652223   -0.1671036
  -0.0039542   -0.0334912   -0.0042788    0.7813400    0.4889908   -0.3878089
  -0.0035334   -0.0335955   -0.0035784    0.5846616    0.6168560   -0.5269341
  -0.0043804   -0.0318528   -0.0037181    0.7390175    0.1774513   -0.6498955
  -0.0036564   -0.0315360   -0.0029725    0.6840269    0.1168699   -0.7200338
  -0.0036282   -0.0311492   -0.0029340    0.6655005    0.1306092   -0.7348812
  -0.0030260   -0.0301594   -0.0022582    0.7276557    0.1135210   -0.6764837
  -0.0037857   -0.0332297   -0.0035791    0.6324054    0.5683048   -0.5263963
  -0.0040014   -0.0329733   -0.0036562    0.6513343    0.4648993   -0.5996935
  -0.0041709   -0.0329247   -0.0038440    0.7365818    0.4133650   -0.5353285
  -0.0042406   -0.0322977   -0.0036125    0.7651207    0.3356029   -0.5495097
  -0.0040380   -0.0336182   -0.0046286    0.8046255    0.4603406   -0.3750523
  -0.0044661   -0.0330711   -0.0052273    0.8025787    0.4841641   -0.3485004
  -0.0053960   -0.0320271   -0.0058798    0.5495541    0.5850123   -0.5964486
  -0.0052027   -0.0321692   -0.0057460    0.6427600    0.5611293   -0.5215300
  -0.0050119   -0.0323338   -0.0056136    0.6601733    0.5796013   -0.4777380
  -0.0048227   -0.0325136   -0.0054815    0.7374644    0.5562946   -0.3829916
  -0.0055951   -0.0319585   -0.0060200    0.4434845    0.5256168   -0.7259810
  -0.0011626   -0.0250009    0.0000777    0.9139207   -0.1166649   -0.3887651
  -0.0011163   -0.0250317    0.0003757    0.9942419   -0.0877438   -0.0615149
  -0.0014348   -0.0254498   -0.0001243    0.8169390   -0.1651941   -0.5525592
  -0.0006204   -0.0195267    0.0017526    0.7297723   -0.1029706    0.6758916
  -0.0004752   -0.0205562    0.0012837    0.8205409   -0.0918764    0.5641555
  -0.0004261   -0.0202909    0.0013097    0.8674934   -0.1098353    0.4851715
  -0.0005377   -0.0200426    0.0015248    0.9560263   -0.0725451    0.2841670
  -0.0005377   -0.0200426    0.0015248    0.9775668   -0.0438732    0.2060056
  -0.0005230   -0.0218137    0.0006910    0.9709820   -0.0903542    0.2214271
  -0.0004381   -0.0210656    0.0010252    0.9394968   -0.0999335    0.3276570
  -0.0019364   -0.0187824    0.0024966    0.2395924   -0.1248577    0.9628115
  -0.0011561   -0.0194357    0.0021107    0.4454299   -0.1274325    0.8862015
  -0.0007203   -0.0179770    0.0022193    0.4993197   -0.1675383    0.8500652
  -0.0008235   -0.0235330    0.0003297    0.9900417   -0.0521673   -0.1307519
  -0.0008375   -0.0235225    0.0002272    0.9803963   -0.0496164   -0.1906862
  -0.0005270   -0.0220416    0.0003975    0.9972754   -0.0669650   -0.0309437
  -0.0061209   -0.0167726    0.0010129   -0.8717301   -0.1010484    0.4794537
  -0.0064468   -0.0161930   -0.0001747   -0.9783467   -0.0758394    0.1925774
  -0.0063258   -0.0166902    0.0004375   -0.9477058   -0.0896482    0.3062955
  -0.0057449   -0.0153384    0.0016506   -0.7483581   -0.1304897    0.6503327
  -0.0050160   -0.0155361    0.0023268   -0.5851628   -0.1554413    0.7958784
  -0.0059159   -0.0158007    0.0013596   -0.8039587   -0.1391619    0.5781734
  -0.0060683   -0.0157548    0.0011461   -0.8859784   -0.1244089    0.4467267
  -0.0034684   -0.0169237    0.0027367   -0.0868026   -0.1133324    0.9897581
  -0.0047542   -0.0145704    0.0025887   -0.4422611   -0.1470254    0.8847535
  -0.0037331   -0.0137785    0.0030703   -0.2087320   -0.1673034    0.9635562
  -0.0060168   -0.0180219   -0.0036947   -0.8333961    0.0087632   -0.5526067
  -0.0061458   -0.0200477   -0.0040252   -0.6076719    0.0740659   -0.7907270
  -0.0059145   -0.0185479   -0.0039088   -0.6405939    0.0406985   -0.7668005
  -0.0063585   -0.0215534   -0.0041294   -0.6128396    0.0250103   -0.7898114
  -0.0065158   -0.0230753   -0.0041738   -0.5039794   -0.0211413   -0.8634569
  -0.0062506   -0.0164829   -0.0027544   -0.9492634   -0.0092757   -0.3143453
  -0.0062561   -0.0169833   -0.0029925   -0.9274810   -0.0061779   -0.3738192
  -0.0059627   -0.0175148   -0.0036715   -0.8502685   -0.0200203   -0.5259683
  -0.0063504   -0.0159821   -0.0021919   -0.9843602   -0.0365177   -0.1723413
  -0.0064715   -0.0160707   -0.0005599   -0.9959927   -0.0706559    0.0548288
  -0.0064418   -0.0155425   -0.0007816   -0.9956999   -0.0427439    0.0821874
  -0.0063991   -0.0150250   -0.0008963   -0.9949094   -0.0941937    0.0358156
  -0.0063450   -0.0144862   -0.0013374   -0.9914349   -0.0920648   -0.0926333
  -0.0044077   -0.0245934   -0.0035616    0.4197736    0.0451711   -0.9065041
  -0.0047370   -0.0229626   -0.0036340    0.2846325    0.0190104   -0.9584482
  -0.0049062   -0.0224355   -0.0037234    0.5621137   -0.0496927   -0.8255657
  -0.0056347   -0.0232577   -0.0041644    0.4746136   -0.0685006   -0.8775247
  -0.0053693   -0.0228539   -0.0040237    0.6483748   -0.1102876   -0.7532906
  -0.0057782   -0.0227014   -0.0042855    0.2311614   -0.0422960   -0.9719956
  -0.0059698   -0.0221393   -0.0043348   -0.0836266   -0.0252195   -0.9961780
  -0.0061911   -0.0226159   -0.0042856   -0.2815109   -0.0449364   -0.9585053
  -0.0045120   -0.0281940   -0.0037059    0.5376180    0.1044923   -0.8366889
  -0.0040081   -0.0272832   -0.0033634    0.5343898    0.1076426   -0.8383559
  -0.0044350   -0.0270543   -0.0035829    0.4873543    0.0926725   -0.8682728
  -0.0057987   -0.0314265   -0.0056117    0.5660402    0.6351336   -0.5255510
  -0.0054479   -0.0315239   -0.0052533    0.6234231    0.5955372   -0.5066351
  -0.0028849   -0.0286380   -0.0021658    0.7294466    0.0474038   -0.6823932
  -0.0046890   -0.0312446   -0.0040762    0.7533926    0.2640066   -0.6022459
  -0.0049890   -0.0316638   -0.0046158    0.7772414    0.4534527   -0.4362069
  -0.0043642   -0.0313390   -0.0036792    0.6638574    0.1119251   -0.7394364
  -0.0027813   -0.0291910   -0.0019854    0.8771011    0.0742639   -0.4745297
  -0.0035940   -0.0268761   -0.0029940    0.6165063    0.0896289   -0.7822319
  -0.0022033   -0.0250929   -0.0015401    0.9356264   -0.0138042   -0.3527219
  -0.0027658   -0.0257836   -0.0021971    0.7459694    0.0619246   -0.6630950
  -0.0027389   -0.0255537   -0.0021890    0.7501573    0.0030439   -0.6612524
  -0.0021358   -0.0246850   -0.0015549    0.9071103   -0.0220726   -0.4203137
  -0.0020203   -0.0257817   -0.0010583    0.9016320   -0.0419374   -0.4304660
  -0.0017879   -0.0242714   -0.0010868    0.8466102    0.0002948   -0.5322134
  -0.0035697   -0.0248031   -0.0030479    0.6131110    0.0424259   -0.7888568
  -0.0017139   -0.0253628   -0.0005279    0.8401121   -0.0773981   -0.5368624
  -0.0058164   -0.0319061   -0.0061312    0.3151566    0.5279952   -0.7886047
  -0.0055967   -0.0319528   -0.0060165    0.4756750    0.6555834   -0.5864671
  -0.0041704   -0.0329285   -0.0038457    0.6855846    0.5503393   -0.4765506
  -0.0043081   -0.0328812   -0.0040806    0.7383562    0.5459843   -0.3958930
  -0.0041410   -0.0332889   -0.0044098    0.7235368    0.6257793   -0.2913672
  -0.0045864   -0.0323001   -0.0041417    0.7916165    0.3586758   -0.4946665
  -0.0044394   -0.0328400   -0.0043254    0.7788498    0.5331047   -0.3304425
  -0.0009827   -0.0239958    0.0000215    0.9268329   -0.0506355   -0.3720442
  -0.0011991   -0.0244543   -0.0002026    0.7670482   -0.0571036   -0.6390432
  -0.0004181   -0.0195521    0.0015926    0.7710149   -0.1161103    0.6261425
  -0.0002389   -0.0200760    0.0011335    0.9056583   -0.1321075    0.4029029
  -0.0003673   -0.0200638    0.0013432    0.7973736   -0.1516425    0.5841231
  -0.0004173   -0.0215498    0.0004585    0.9969177   -0.0780018   -0.0084155
  -0.0004501   -0.0215555    0.0006373    0.9794771   -0.0840131    0.1832112
  -0.0003159   -0.0210555    0.0005137    0.9968742   -0.0753700   -0.0236897
  -0.0001993   -0.0205659    0.0005793    0.9911493   -0.0940852    0.0936537
  -0.0016386   -0.0183264    0.0025201    0.3438081   -0.1422467    0.9282036
  -0.0018695   -0.0167418    0.0028205    0.1177435   -0.1514784    0.9814228
  -0.0015488   -0.0178285    0.0025675    0.2955420   -0.1629885    0.9413234
  -0.0000205   -0.0184811    0.0015355    0.7604988   -0.1572987    0.6299990
   0.0002463   -0.0176216    0.0016922    0.7274148   -0.2236307    0.6487349
   0.0000081   -0.0170832    0.0021114    0.5410146   -0.2092485    0.8145663
  -0.0012003   -0.0173850    0.0025987    0.3453355   -0.2072740    0.9153037
  -0.0009667   -0.0169165    0.0026385    0.4304464   -0.1757737    0.8853358
  -0.0008234   -0.0229896   -0.0000041    0.9307774   -0.0326559   -0.3641249
  -0.0006398   -0.0225278    0.0002681    0.9543062   -0.0500401   -0.2946110
  -0.0005476   -0.0220262    0.0002367    0.9555545   -0.0662676   -0.2872703
  -0.0061676   -0.0151955    0.0008772   -0.9584987   -0.1147995    0.2609624
  -0.0051662   -0.0144668    0.0023213   -0.6455333   -0.1421457    0.7503875
  -0.0060095   -0.0147468    0.0012684   -0.8366817   -0.1234097    0.5336046
  -0.0027466   -0.0155358    0.0030166   -0.0366056   -0.1420433    0.9891834
  -0.0045756   -0.0135846    0.0027954   -0.4173278   -0.1520492    0.8959456
  -0.0024312   -0.0150885    0.0030927   -0.0148217   -0.1559211    0.9876583
  -0.0024250   -0.0145779    0.0031889   -0.0315786   -0.2084357    0.9775261
  -0.0026421   -0.0129960    0.0034868   -0.1490169   -0.1866212    0.9710646
  -0.0037402   -0.0132637    0.0031575   -0.2611570   -0.1717749    0.9498897
  -0.0058556   -0.0180423   -0.0038824   -0.6518750    0.0174548   -0.7581255
  -0.0060016   -0.0205829   -0.0042112   -0.4365869    0.0515820   -0.8981822
  -0.0057401   -0.0201162   -0.0042536   -0.3393883    0.0588764   -0.9388020
  -0.0055732   -0.0196327   -0.0042445   -0.3381856    0.0613873   -0.9390751
  -0.0055089   -0.0191288   -0.0042144   -0.3694017    0.0498985   -0.9279292
  -0.0061748   -0.0220989   -0.0042882   -0.3571196    0.0013367   -0.9340577
  -0.0059076   -0.0170099   -0.0036477   -0.8713417    0.0019145   -0.4906730
  -0.0056075   -0.0144653   -0.0038087   -0.8499455   -0.0802470   -0.5207235
  -0.0061696   -0.0149553   -0.0025575   -0.9668084   -0.0570451   -0.2490530
  -0.0058061   -0.0175356   -0.0038624   -0.5912631   -0.0152113   -0.8063353
  -0.0063850   -0.0143369   -0.0007748   -0.9931701   -0.1136242   -0.0265083
  -0.0063857   -0.0140326   -0.0002644   -0.9855419   -0.1502314    0.0783433
  -0.0061844   -0.0144437   -0.0024172   -0.9605749   -0.1230828   -0.2492920
  -0.0063346   -0.0129291   -0.0013709   -0.9866710   -0.1267917   -0.1020010
  -0.0041954   -0.0267232   -0.0034200    0.5232649    0.1016764   -0.8460826
  -0.0035151   -0.0243530   -0.0030347    0.5641189    0.0121852   -0.8256037
  -0.0040143   -0.0231295   -0.0033893    0.3247976   -0.0047673   -0.9457715
  -0.0036346   -0.0237409   -0.0031790    0.5274048   -0.0028395   -0.8496094
  -0.0043695   -0.0204416   -0.0036518    0.4405747   -0.0115287   -0.8976419
  -0.0052440   -0.0223064   -0.0040944    0.6049838   -0.0878084   -0.7913813
  -0.0050858   -0.0212984   -0.0041178    0.6079227   -0.0250220   -0.7936018
  -0.0056883   -0.0227233   -0.0042417    0.3504046   -0.0399708   -0.9357451
  -0.0055442   -0.0227561   -0.0041935    0.4355787   -0.0782698   -0.8967413
  -0.0057837   -0.0221793   -0.0043199    0.1966563   -0.0190481   -0.9802874
  -0.0059085   -0.0216328   -0.0043196   -0.1172656    0.0257283   -0.9927673
  -0.0019707   -0.0242109   -0.0014069    0.8561316   -0.0356975   -0.5155234
  -0.0026880   -0.0239928   -0.0023873    0.6901742    0.0070883   -0.7236086
  -0.0024423   -0.0245912   -0.0019785    0.8726314   -0.0058036   -0.4883448
  -0.0019800   -0.0236788   -0.0015755    0.8070809   -0.0321654   -0.5895641
  -0.0016294   -0.0248609   -0.0005484    0.8253515   -0.0428254   -0.5629929
  -0.0017065   -0.0237676   -0.0011020    0.8829962   -0.0479497   -0.4669246
  -0.0016333   -0.0237969   -0.0008940    0.8478302   -0.0037542   -0.5302545
  -0.0013632   -0.0233538   -0.0006273    0.7866455   -0.0201290   -0.6170767
  -0.0010541   -0.0234459   -0.0002063    0.7733681   -0.0390032   -0.6327563
  -0.0013037   -0.0238653   -0.0003741    0.7364857   -0.0476054   -0.6747759
  -0.0000922   -0.0200734    0.0006386    0.9920380   -0.0939435    0.0838767
  -0.0001053   -0.0198928    0.0009218    0.9750845   -0.1190422    0.1871873
  -0.0000130   -0.0190944    0.0012597    0.9105284   -0.1488668    0.3857158
  -0.0004526   -0.0215247    0.0002007    0.9719030   -0.0406279   -0.2318491
  -0.0001043   -0.0200553    0.0004405    0.9811258   -0.0814913   -0.1753608
  -0.0003617   -0.0209645    0.0001839    0.9951458   -0.0556373   -0.0811742
  -0.0009890   -0.0158915    0.0028937    0.3040847   -0.1784686    0.9357785
  -0.0012044   -0.0153377    0.0030281    0.1307446   -0.1549335    0.9792351
   0.0002584   -0.0184693    0.0011291    0.8787701   -0.2123254    0.4274120
   0.0001985   -0.0171106    0.0019436    0.9136675   -0.1068129    0.3921770
   0.0006491   -0.0176612    0.0010741    0.9330439   -0.2698552    0.2379230
   0.0003055   -0.0174043    0.0017264    0.8169373   -0.2256524    0.5307489
   0.0001028   -0.0167153    0.0021657    0.7122031   -0.1819674    0.6779783
  -0.0000793   -0.0155467    0.0026742    0.4768380   -0.2277610    0.8489702
  -0.0002709   -0.0155141    0.0027732    0.4750358   -0.2097669    0.8545986
  -0.0012827   -0.0228500   -0.0006412    0.8290044   -0.0600509   -0.5560086
  -0.0007159   -0.0223013   -0.0000194    0.9826568   -0.0447808   -0.1799454
  -0.0006575   -0.0219838   -0.0000397    0.9135386   -0.0465752   -0.4040768
  -0.0061341   -0.0146944    0.0010151   -0.9249848   -0.1466708    0.3505578
  -0.0060353   -0.0142108    0.0012371   -0.8298396   -0.1593692    0.5347594
  -0.0049698   -0.0114170    0.0026637   -0.5672273   -0.0804841    0.8196191
  -0.0053017   -0.0133621    0.0023017   -0.6823978   -0.1339295    0.7186070
  -0.0053245   -0.0139079    0.0022226   -0.7212090   -0.1975378    0.6639551
  -0.0043825   -0.0120819    0.0030043   -0.4237369   -0.0656757    0.9034012
  -0.0040496   -0.0126792    0.0031257   -0.3092610   -0.1355971    0.9412603
  -0.0008832   -0.0148907    0.0030957    0.1780205   -0.2171886    0.9597592
  -0.0012021   -0.0133008    0.0035728    0.0647114   -0.2444985    0.9674879
  -0.0028505   -0.0119247    0.0036155   -0.3020973   -0.0979132    0.9482353
  -0.0019224   -0.0110992    0.0039214   -0.1172618   -0.1519737    0.9814039
  -0.0017435   -0.0121652    0.0037726   -0.0524492   -0.1860414    0.9811410
  -0.0026505   -0.0114529    0.0037194   -0.2491325   -0.1258450    0.9602583
  -0.0054380   -0.0186269   -0.0041800   -0.3708499    0.0362764   -0.9279840
  -0.0056886   -0.0206427   -0.0042958   -0.1354406   -0.0168443   -0.9906423
  -0.0056429   -0.0201349   -0.0042783   -0.2064969    0.0407294   -0.9775992
  -0.0053526   -0.0196755   -0.0042843   -0.0156672    0.0521473   -0.9985165
  -0.0052983   -0.0191686   -0.0042587    0.0037884    0.0552188   -0.9984671
  -0.0052532   -0.0186633   -0.0042208   -0.0629295    0.0549561   -0.9965037
  -0.0054358   -0.0145142   -0.0039886   -0.7554593   -0.1008580   -0.6473862
  -0.0055238   -0.0165457   -0.0039948   -0.5498115   -0.0747192   -0.8319401
  -0.0059328   -0.0139259   -0.0031514   -0.9211838   -0.1497434   -0.3591619
  -0.0057261   -0.0134161   -0.0036190   -0.8758806   -0.1493349   -0.4588380
  -0.0053829   -0.0181221   -0.0041558   -0.3596944    0.0368469   -0.9323423
  -0.0050027   -0.0166367   -0.0042357   -0.1567290   -0.0780983   -0.9845490
  -0.0051287   -0.0176521   -0.0041944   -0.1452403   -0.0078120   -0.9893656
  -0.0047288   -0.0156470   -0.0043668   -0.1592028   -0.1632910   -0.9736480
  -0.0063518   -0.0124097   -0.0013179   -0.9775203   -0.1948088   -0.0806446
  -0.0062381   -0.0130989    0.0007753   -0.9417091   -0.1475795    0.3023313
  -0.0063868   -0.0130109   -0.0000521   -0.9823534   -0.1561754    0.1029124
  -0.0064039   -0.0124539   -0.0005397   -0.9879600   -0.1546217    0.0052219
  -0.0060144   -0.0134058   -0.0029114   -0.9560557   -0.1383173   -0.2585067
  -0.0036974   -0.0226804   -0.0033144    0.5126323   -0.0190412   -0.8583971
  -0.0035468   -0.0201090   -0.0034511    0.3145210   -0.0611491   -0.9472789
  -0.0027362   -0.0229480   -0.0025476    0.6645205    0.0176431   -0.7470617
  -0.0050179   -0.0207940   -0.0041130    0.5688955    0.0274468   -0.8219517
  -0.0047700   -0.0203403   -0.0039369    0.5626172    0.0231537   -0.8263933
  -0.0042690   -0.0197680   -0.0036608    0.3827033   -0.0321723   -0.9233110
  -0.0052893   -0.0212467   -0.0042551    0.2977028   -0.0314057   -0.9541419
  -0.0023047   -0.0235824   -0.0019721    0.8270792   -0.0026456   -0.5620792
  -0.0023611   -0.0239833   -0.0019720    0.9038644   -0.0096633   -0.4277098
  -0.0016160   -0.0232658   -0.0011312    0.9198254   -0.0599211   -0.3877250
  -0.0021392   -0.0236307   -0.0017784    0.7504302   -0.0187316   -0.6606842
  -0.0015915   -0.0222146   -0.0013966    0.7900473   -0.0370736   -0.6119238
  -0.0014763   -0.0233179   -0.0008010    0.8611050   -0.0709599   -0.5034509
   0.0000020   -0.0195561    0.0003872    0.9882308   -0.0730156   -0.1344197
   0.0001454   -0.0190889    0.0007203    0.9883526   -0.1519815    0.0078012
   0.0002911   -0.0186112    0.0008582    0.9728808   -0.2201163    0.0710754
  -0.0008749   -0.0213883   -0.0004906    0.8465104   -0.0489039   -0.5301212
  -0.0002752   -0.0205194    0.0001487    0.9411911   -0.0680737   -0.3309460
  -0.0001320   -0.0200407    0.0003142    0.9606181   -0.0801616   -0.2660581
  -0.0008658   -0.0154039    0.0029638    0.3481498   -0.1164232    0.9301814
  -0.0008653   -0.0154041    0.0029635    0.3599671   -0.1594648    0.9192359
  -0.0008654   -0.0154022    0.0029639    0.2697554   -0.1457803    0.9518299
   0.0001985   -0.0171106    0.0019436    0.9310836   -0.1290292    0.3412256
   0.0001985   -0.0171106    0.0019436    0.9722684   -0.0745019    0.2216837
   0.0004558   -0.0181288    0.0009098    0.9676832   -0.2455297   -0.0574837
   0.0008774   -0.0172467    0.0009203    0.9471189   -0.3040810    0.1024721
   0.0008333   -0.0171888    0.0011858    0.8587086   -0.2765266    0.4314540
   0.0009218   -0.0171553    0.0004271    0.9256974   -0.3238916   -0.1953935
   0.0004073   -0.0171419    0.0017881    0.7016701   -0.2669745    0.6605934
   0.0003690   -0.0166340    0.0020457    0.6749841   -0.2264904    0.7022098
   0.0006247   -0.0151601    0.0024760    0.5267042   -0.2547140    0.8109892
  -0.0001299   -0.0150301    0.0028553    0.8363016   -0.1410518    0.5298150
   0.0002424   -0.0148008    0.0028029    0.4314397   -0.2440809    0.8684954
  -0.0005222   -0.0149579    0.0029991    0.2480356   -0.2189579    0.9436820
  -0.0004013   -0.0149813    0.0029682    0.3107183   -0.2344202    0.9211413
  -0.0001299   -0.0150301    0.0028553    0.8971173   -0.1056566    0.4289723
  -0.0011876   -0.0223484   -0.0006768    0.8493671   -0.0661122   -0.5236457
  -0.0058175   -0.0132541    0.0017413   -0.8130380   -0.1424250    0.5645213
  -0.0053789   -0.0118263    0.0022861   -0.7286875   -0.0790231    0.6802719
  -0.0050958   -0.0108631    0.0025162   -0.6788756    0.0042813    0.7342408
  -0.0046316   -0.0104598    0.0028118   -0.5505135    0.0214309    0.8345511
  -0.0055336   -0.0117784    0.0020766   -0.7516606   -0.0873344    0.6537423
  -0.0056152   -0.0127930    0.0019865   -0.7884231   -0.1089850    0.6054018
  -0.0039201   -0.0101136    0.0031793   -0.4158923    0.0080091    0.9093786
  -0.0002361   -0.0145029    0.0030670    0.4063134   -0.2362277    0.8826697
  -0.0003401   -0.0131357    0.0035547    0.2867224   -0.2430253    0.9266763
  -0.0006285   -0.0129063    0.0036516    0.1501550   -0.2070014    0.9667491
  -0.0010004   -0.0123207    0.0037987    0.0194452   -0.1862956    0.9823013
  -0.0036885   -0.0101701    0.0032741   -0.3931670   -0.0066942    0.9194427
  -0.0014242   -0.0112051    0.0039624   -0.0492662   -0.1466603    0.9879593
  -0.0020780   -0.0105505    0.0039591   -0.1733944   -0.0694116    0.9824034
  -0.0011324   -0.0117785    0.0038769   -0.0277408   -0.1712094    0.9848440
  -0.0024179   -0.0104740    0.0038685   -0.3200453   -0.0307387    0.9469034
  -0.0051972   -0.0181566   -0.0041985   -0.0345803    0.0243809   -0.9991045
  -0.0054705   -0.0206870   -0.0043205    0.0605454   -0.0422195   -0.9972722
  -0.0054037   -0.0201825   -0.0043143    0.0484380    0.0323365   -0.9983026
  -0.0051009   -0.0197329   -0.0042187    0.3619970    0.0492153   -0.9308792
  -0.0049936   -0.0187210   -0.0041675    0.2686828    0.0486351   -0.9620001
  -0.0052701   -0.0150308   -0.0041603   -0.5773190   -0.1257233   -0.8067815
  -0.0053287   -0.0128853   -0.0042556   -0.7851843   -0.1906557   -0.5891825
  -0.0051216   -0.0155766   -0.0042229   -0.4224511   -0.1322621   -0.8966838
  -0.0061257   -0.0123575   -0.0027284   -0.9484055   -0.2155900   -0.2324823
  -0.0055968   -0.0127992   -0.0038449   -0.8436747   -0.2087281   -0.4946166
  -0.0059000   -0.0118335   -0.0034805   -0.8793620   -0.1915932   -0.4359065
  -0.0062427   -0.0107684   -0.0028486   -0.9209072   -0.2463288   -0.3020795
  -0.0048507   -0.0177124   -0.0041682    0.2231135   -0.0532624   -0.9733363
  -0.0045969   -0.0161996   -0.0042708    0.1599996   -0.0954247   -0.9824939
  -0.0049374   -0.0182135   -0.0041506    0.2152086   -0.0045998   -0.9765573
  -0.0047922   -0.0151101   -0.0044305   -0.4177522   -0.1356611   -0.8983759
  -0.0044239   -0.0151833   -0.0044776    0.1405403   -0.2655921   -0.9537868
  -0.0038356   -0.0164168   -0.0040500    0.1925592   -0.1650609   -0.9673034
  -0.0044163   -0.0146564   -0.0046201   -0.1569812   -0.2288488   -0.9607212
  -0.0065623   -0.0095549   -0.0022050   -0.9681856   -0.2465706   -0.0426563
  -0.0065219   -0.0098338   -0.0005362   -0.9783003   -0.1703675    0.1179127
  -0.0064246   -0.0115065   -0.0005783   -0.9844093   -0.1757218   -0.0077546
  -0.0063304   -0.0113074   -0.0023001   -0.9521869   -0.2527810   -0.1715862
  -0.0064007   -0.0119752    0.0000434   -0.9732619   -0.1364382    0.1847860
  -0.0061570   -0.0126139    0.0010326   -0.9114714   -0.1267463    0.3913506
  -0.0064078   -0.0119957   -0.0002576   -0.9856497   -0.1580018    0.0594153
  -0.0026140   -0.0224446   -0.0024786    0.6878991   -0.0176867   -0.7255908
  -0.0025839   -0.0219266   -0.0025596    0.6569181   -0.0396768   -0.7529172
  -0.0033502   -0.0202740   -0.0033265    0.5473246   -0.0418735   -0.8358722
  -0.0029439   -0.0181556   -0.0034847    0.5083516   -0.1003277   -0.8552853
  -0.0034866   -0.0175016   -0.0037872    0.2545420   -0.1499349   -0.9553679
  -0.0044149   -0.0191927   -0.0037739    0.3710448   -0.0620853   -0.9265372
  -0.0051552   -0.0202378   -0.0042434    0.3850838    0.0245805   -0.9225542
  -0.0047711   -0.0187734   -0.0040579    0.4891382    0.0202865   -0.8719703
  -0.0012600   -0.0207307   -0.0013161    0.7524713   -0.0299475   -0.6579438
  -0.0014533   -0.0222599   -0.0011621    0.9223538   -0.0625433   -0.3812504
  -0.0015117   -0.0225717   -0.0011406    0.9790751   -0.0385074   -0.1998225
  -0.0012689   -0.0212548   -0.0012245    0.8136174   -0.0525917   -0.5790172
   0.0000133   -0.0190151    0.0000362    0.9153488   -0.1101753   -0.3872957
   0.0004648   -0.0181004    0.0004558    0.9479249   -0.2102234   -0.2392581
   0.0006820   -0.0176291    0.0005022    0.9440718   -0.2861251   -0.1638930
  -0.0009990   -0.0213454   -0.0007466    0.9323525   -0.0630057   -0.3560183
  -0.0008900   -0.0206950   -0.0007715    0.9482537   -0.0660870   -0.3105599
  -0.0007739   -0.0203572   -0.0007025    0.8698065   -0.0429252   -0.4915222
   0.0011017   -0.0167167    0.0010573    0.9157507   -0.3029691    0.2638378
   0.0007445   -0.0165607    0.0017032    0.7784750   -0.2615601    0.5705812
   0.0004410   -0.0174083   -0.0002590    0.7779176   -0.2315552   -0.5841459
   0.0011585   -0.0161255   -0.0001533    0.7173405   -0.3245155   -0.6165325
  -0.0001087   -0.0184289   -0.0005564    0.8295012   -0.1861365   -0.5265747
   0.0015457   -0.0155599   -0.0001577    0.7567030   -0.3630076   -0.5437150
   0.0013778   -0.0162468    0.0009342    0.9283394   -0.3510813    0.1221795
   0.0014128   -0.0161511    0.0003617    0.8973197   -0.3957893   -0.1953667
   0.0009295   -0.0155050    0.0020965    0.6800551   -0.2911151    0.6728871
   0.0008260   -0.0151792    0.0023153    0.5928837   -0.2703268    0.7585594
