NORM_ASCII
1111 2218
   0.0038956   -0.0141532    0.0016456    0.5145554    0.3569141    0.7796442
   0.0037021   -0.0156447    0.0002411    0.6477773   -0.2265112   -0.7273770
   0.0036882   -0.0148131   -0.0000338    0.5331923   -0.1437236   -0.8336963
   0.0033965   -0.0152813   -0.0000463    0.3729653   -0.2333000   -0.8980356
   0.0010357   -0.0173863    0.0015075   -0.3510804   -0.9329022   -0.0802245
   0.0007934   -0.0171603    0.0013698   -0.5743884   -0.7869662   -0.2253046
   0.0007849   -0.0168997    0.0008616   -0.4749097   -0.6888138   -0.5477192
   0.0011480   -0.0171319    0.0008170   -0.3802816   -0.7661051   -0.5181399
   0.0016441   -0.0167375    0.0003475   -0.0160944   -0.4893055   -0.8719639
   0.0013899   -0.0163561    0.0001724   -0.0832936   -0.4175706   -0.9048187
   0.0019747   -0.0162933    0.0001132    0.0388783   -0.4277203   -0.9030747
   0.0022800   -0.0157374   -0.0001234    0.0858774   -0.3519304   -0.9320783
   0.0030392   -0.0150404   -0.0002453    0.2399442   -0.2241695   -0.9445501
   0.0013318   -0.0167675    0.0004067   -0.2147582   -0.5575897   -0.8018558
   0.0007540   -0.0171066    0.0018391   -0.5686118   -0.7299662    0.3792492
   0.0009038   -0.0173078    0.0016806   -0.5280661   -0.8393338    0.1290932
   0.0007442   -0.0170975    0.0018337   -0.6440842   -0.7382724    0.2002734
   0.0004476   -0.0166896    0.0019056   -0.6872690   -0.5885520    0.4257556
   0.0002019   -0.0153967    0.0020753   -0.5449922   -0.0075521    0.8384071
   0.0000481   -0.0158672    0.0019056   -0.6498052   -0.2956658    0.7002392
   0.0001043   -0.0163196    0.0017085   -0.7041417   -0.5427509    0.4578274
   0.0013983   -0.0139305    0.0022880   -0.1825035    0.0364325    0.9825300
   0.0013980   -0.0138981    0.0022863   -0.1351372    0.0658384    0.9886371
   0.0001692   -0.0149774    0.0019770   -0.5628506    0.0527293    0.8248751
  -0.0003185   -0.0133797    0.0012989   -0.6784842    0.0364031    0.7337125
   0.0003770   -0.0132281    0.0018951   -0.6555421   -0.0837316    0.7505022
   0.0003600   -0.0119630    0.0019011   -0.4108735   -0.0628859    0.9095209
   0.0039780   -0.0137364    0.0014248    0.5262479    0.4023891    0.7490970
   0.0024861   -0.0133866    0.0021547    0.2543561    0.1161326    0.9601126
   0.0028117   -0.0133645    0.0020246    0.4584468    0.2185054    0.8614418
   0.0038486   -0.0133270    0.0013389    0.5297916    0.3551191    0.7702021
   0.0018385   -0.0132675    0.0022454    0.0846510    0.0789518    0.9932778
   0.0040012   -0.0143187    0.0001688    0.7910464   -0.0580658   -0.6089942
   0.0042154   -0.0137518    0.0010585    0.9311234    0.2783459    0.2356538
   0.0039418   -0.0129082    0.0011238    0.7438877    0.3802626    0.5495739
   0.0042044   -0.0138428    0.0003178    0.8950781   -0.0278094   -0.4450415
   0.0042915   -0.0137981    0.0006081    0.9938230    0.0892402   -0.0659694
   0.0042256   -0.0129462    0.0005364    0.9353282    0.3068769    0.1760334
   0.0036417   -0.0141049   -0.0002140    0.5798901   -0.0836523   -0.8103887
   0.0034340   -0.0141072   -0.0003236    0.3348556   -0.1202529   -0.9345646
   0.0004034   -0.0167523    0.0013928   -0.6437773   -0.7624800   -0.0646140
   0.0001935   -0.0163907    0.0010199   -0.6593430   -0.7054906   -0.2599037
   0.0003998   -0.0165250    0.0008885   -0.5599070   -0.7056935   -0.4341668
   0.0010469   -0.0163822    0.0002771   -0.3035204   -0.5156010   -0.8012684
   0.0005936   -0.0164008    0.0005491   -0.4141029   -0.5893665   -0.6936612
   0.0002343   -0.0160163    0.0005329   -0.5153058   -0.5919115   -0.6197586
   0.0019128   -0.0158890   -0.0000643    0.0056293   -0.3855641   -0.9226639
   0.0008744   -0.0151510   -0.0001518   -0.2677416   -0.3566952   -0.8950324
   0.0017165   -0.0155581   -0.0001821   -0.0660421   -0.3344451   -0.9400983
   0.0011866   -0.0151257   -0.0002344   -0.1378833   -0.2601452   -0.9556739
   0.0020954   -0.0154542   -0.0002330    0.0257693   -0.2760341   -0.9608023
   0.0027484   -0.0145310   -0.0004097    0.1222930   -0.1793687   -0.9761513
   0.0003711   -0.0167321    0.0016210   -0.6754672   -0.7144363    0.1825512
  -0.0000871   -0.0154606    0.0018164   -0.7007153   -0.1180052    0.7036141
   0.0000966   -0.0163088    0.0017039   -0.7498940   -0.5256230    0.4017206
  -0.0000528   -0.0158951    0.0017848   -0.7433855   -0.3478678    0.5712846
   0.0001017   -0.0163207    0.0016999   -0.7445233   -0.6154207    0.2587321
   0.0015063   -0.0130546    0.0022495    0.0266073    0.0656848    0.9974856
   0.0013603   -0.0122114    0.0021933    0.0163042    0.1016516    0.9946864
   0.0009336   -0.0114022    0.0021103   -0.1144095    0.0417606    0.9925555
  -0.0001949   -0.0150530    0.0017032   -0.6914603   -0.0697948    0.7190350
  -0.0004380   -0.0142532    0.0013634   -0.7424153   -0.0055048    0.6699173
  -0.0006157   -0.0138751    0.0010719   -0.8298974   -0.0356289    0.5567773
  -0.0006576   -0.0130397    0.0008399   -0.8140448    0.0767724    0.5757058
  -0.0003687   -0.0121284    0.0009313   -0.8815760    0.0136981    0.4718433
  -0.0001666   -0.0129236    0.0013335   -0.7371410    0.0126718    0.6756202
  -0.0002070   -0.0125056    0.0012463   -0.7941774   -0.0820531    0.6021208
   0.0000999   -0.0115444    0.0017222   -0.6729556   -0.1281691    0.7284940
  -0.0001168   -0.0120452    0.0013741   -0.8102697   -0.1287733    0.5717346
   0.0004755   -0.0114715    0.0019778   -0.4012886   -0.0632440    0.9137656
   0.0021454   -0.0121296    0.0021118    0.1914030    0.1524022    0.9696074
   0.0019928   -0.0125719    0.0021911    0.1190821    0.1060136    0.9872085
   0.0033097   -0.0129332    0.0015298    0.5745230    0.2979092    0.7623473
   0.0028114   -0.0112364    0.0016859    0.6031137    0.2325040    0.7630176
   0.0023640   -0.0112571    0.0019432    0.3390322    0.1964361    0.9200381
   0.0037422   -0.0129157    0.0012649    0.5399535    0.3586886    0.7614412
   0.0038080   -0.0138236   -0.0001386    0.7038351   -0.0419736   -0.7091223
   0.0039612   -0.0125038    0.0008701    0.7864886    0.4057776    0.4655967
   0.0038263   -0.0124971    0.0010448    0.6101667    0.4152918    0.6747068
   0.0042644   -0.0133995    0.0003302    0.9687688    0.1367332   -0.2068598
   0.0042576   -0.0134033    0.0003097    0.8461751    0.0555724   -0.5299995
   0.0042154   -0.0129766    0.0002860    0.9308469    0.2615451   -0.2551826
   0.0040607   -0.0125141    0.0006769    0.8364214    0.4428363    0.3229476
   0.0041273   -0.0125323    0.0004665    0.8832344    0.4627872    0.0756637
   0.0037866   -0.0135208   -0.0002141    0.5920927   -0.0339781   -0.8051532
   0.0032666   -0.0127534   -0.0005482    0.2150631    0.0056940   -0.9765836
   0.0026567   -0.0141177   -0.0004871    0.0819541   -0.1427470   -0.9863604
   0.0029081   -0.0136601   -0.0005345    0.0761549   -0.0873962   -0.9932584
   0.0000676   -0.0163553    0.0014444   -0.7477757   -0.6615294    0.0566601
   0.0000746   -0.0160095    0.0006946   -0.6564735   -0.6009464   -0.4559671
  -0.0001345   -0.0159529    0.0010742   -0.7749479   -0.5878462   -0.2321478
  -0.0001746   -0.0159656    0.0012998   -0.8252702   -0.5647237    0.0040235
   0.0002504   -0.0156057    0.0002774   -0.3926050   -0.4639360   -0.7941188
  -0.0002758   -0.0148064    0.0002112   -0.5380169   -0.4225319   -0.7293865
   0.0006949   -0.0145185   -0.0002739   -0.2134839   -0.2348749   -0.9482924
   0.0018283   -0.0146380   -0.0004093   -0.0603120   -0.1524375   -0.9864711
   0.0015607   -0.0142362   -0.0004132   -0.0929128   -0.1300935   -0.9871387
  -0.0002721   -0.0155122    0.0015566   -0.8459316   -0.3082651    0.4351693
  -0.0001527   -0.0159331    0.0015561   -0.8216188   -0.4971227    0.2789471
   0.0017104   -0.0108898    0.0020254    0.1469466    0.1363288    0.9797046
   0.0010540   -0.0105286    0.0020439   -0.0499698    0.0805705    0.9954956
   0.0003361   -0.0106296    0.0018925   -0.4085434   -0.0161605    0.9125958
  -0.0003516   -0.0150916    0.0015287   -0.7895993   -0.1538821    0.5940145
  -0.0004989   -0.0147005    0.0013199   -0.8484030   -0.1637999    0.5033706
  -0.0005385   -0.0147128    0.0012514   -0.8817069   -0.1657094    0.4417390
  -0.0006614   -0.0134634    0.0009344   -0.8734567   -0.0455428    0.4847672
  -0.0006532   -0.0143250    0.0009761   -0.9332507   -0.1797772    0.3110036
  -0.0007189   -0.0139172    0.0008169   -0.9293869   -0.1649007    0.3302237
  -0.0007774   -0.0130808    0.0006107   -0.9513922    0.0197490    0.3073481
  -0.0006393   -0.0126198    0.0006634   -0.9171306    0.1854507    0.3528166
  -0.0006417   -0.0126251    0.0006623   -0.9383636    0.1717940    0.2999343
  -0.0004369   -0.0117924    0.0004882   -0.9959986   -0.0566942    0.0690833
  -0.0003470   -0.0112483    0.0010140   -0.9095099   -0.1874245    0.3710308
  -0.0005391   -0.0122058    0.0004522   -0.9826105    0.1720506    0.0698222
  -0.0000344   -0.0107048    0.0016283   -0.6155539   -0.0909600    0.7828280
  -0.0002008   -0.0107427    0.0014680   -0.7802956   -0.1769254    0.5998635
   0.0031336   -0.0115722    0.0013781    0.7271003    0.2562648    0.6369094
   0.0034423   -0.0125073    0.0013352    0.5845878    0.3034919    0.7524293
   0.0030519   -0.0103882    0.0012836    0.7886374    0.2283785    0.5708716
   0.0023026   -0.0104124    0.0018082    0.3502488    0.1894357    0.9173004
   0.0027103   -0.0103919    0.0015959    0.5466753    0.2058282    0.8116532
   0.0033602   -0.0112565    0.0009914    0.8122238    0.3344448    0.4779531
   0.0035766   -0.0116780    0.0008776    0.7681950    0.4729527    0.4314999
   0.0040816   -0.0130252    0.0000162    0.8041419    0.1251695   -0.5811096
   0.0041259   -0.0125619    0.0002129    0.8864888    0.3290987   -0.3253177
   0.0041182   -0.0125383    0.0002159    0.8687435    0.4764718   -0.1351268
   0.0039594   -0.0121354    0.0003156    0.8397540    0.5384660   -0.0697682
   0.0037348   -0.0117092    0.0004700    0.8732929    0.4858747    0.0358514
   0.0036887   -0.0126817   -0.0003617    0.4709535    0.0496834   -0.8807578
   0.0038726   -0.0126450   -0.0002281    0.6919528    0.1624786   -0.7034217
   0.0026196   -0.0128289   -0.0005625   -0.0819543   -0.0459517   -0.9955762
   0.0034002   -0.0122961   -0.0004863    0.3174974    0.1231713   -0.9402256
   0.0026422   -0.0123944   -0.0005779   -0.0517777   -0.0656114   -0.9965010
   0.0028301   -0.0119407   -0.0005973    0.1351490   -0.0008023   -0.9908250
   0.0032831   -0.0118730   -0.0004577    0.3559458    0.2181020   -0.9086991
   0.0028729   -0.0110619   -0.0005462    0.5316338    0.1709344   -0.8295462
   0.0023562   -0.0137232   -0.0005259   -0.0743706   -0.0569752   -0.9956017
   0.0026053   -0.0135536   -0.0005387   -0.0781878   -0.0324500   -0.9964104
  -0.0004522   -0.0151818    0.0008730   -0.8046166   -0.5371469   -0.2531113
  -0.0003346   -0.0155627    0.0011980   -0.8820838   -0.4623663    0.0902532
  -0.0005527   -0.0147978    0.0005573   -0.8311650   -0.4544164   -0.3204223
  -0.0005245   -0.0143891    0.0003083   -0.7627719   -0.3533888   -0.5415675
   0.0003065   -0.0141222   -0.0002497   -0.2658186   -0.2565151   -0.9292688
  -0.0006017   -0.0139713    0.0002493   -0.8374818   -0.3390425   -0.4285725
  -0.0005233   -0.0135556    0.0000264   -0.6074799   -0.2560916   -0.7519211
  -0.0000947   -0.0139589   -0.0001234   -0.4141312   -0.2815116   -0.8655903
   0.0014253   -0.0133945   -0.0005046   -0.0578461   -0.0792310   -0.9951765
   0.0018089   -0.0137782   -0.0004567   -0.0455185   -0.0448255   -0.9979573
  -0.0004236   -0.0151181    0.0013779   -0.8736242   -0.3111692    0.3741051
   0.0015720   -0.0101330    0.0019689    0.1525572    0.1312352    0.9795426
   0.0006018   -0.0092995    0.0018713   -0.2127990    0.0559173    0.9754947
   0.0006995   -0.0084245    0.0018394   -0.1300997    0.0639039    0.9894394
   0.0011145   -0.0096647    0.0019536    0.0797622    0.1153519    0.9901171
   0.0003011   -0.0089131    0.0017656   -0.2242810    0.0635773    0.9724484
   0.0000753   -0.0089490    0.0016940   -0.4231772   -0.0490104    0.9047204
  -0.0000980   -0.0102833    0.0015768   -0.6290595   -0.0886050    0.7722909
  -0.0001617   -0.0098638    0.0015248   -0.6510033   -0.1239835    0.7488811
  -0.0004572   -0.0151335    0.0012767   -0.8812373   -0.3299096    0.3384973
  -0.0006029   -0.0147481    0.0010210   -0.9316463   -0.3398865    0.1285005
  -0.0008134   -0.0135203    0.0006105   -0.9778543   -0.1660532    0.1273868
  -0.0007777   -0.0130845    0.0006105   -0.9613339   -0.0585413    0.2690911
  -0.0006704   -0.0143376    0.0008910   -0.9511191   -0.2269537    0.2094384
  -0.0007558   -0.0139408    0.0006591   -0.9617028   -0.2731308    0.0229638
  -0.0007775   -0.0130808    0.0006097   -0.9920582    0.0237763    0.1235121
  -0.0007221   -0.0126595    0.0003752   -0.9739421    0.2217642    0.0475116
  -0.0007247   -0.0126689    0.0003825   -0.9731116    0.1583550    0.1672647
  -0.0004440   -0.0113249    0.0004642   -0.9632582   -0.2661217    0.0362326
  -0.0004002   -0.0113471    0.0002421   -0.9664052   -0.1920594   -0.1708043
  -0.0004171   -0.0117802    0.0002520   -0.9822318   -0.0089677   -0.1874575
  -0.0004198   -0.0108305    0.0009481   -0.8914059   -0.2571851    0.3731641
  -0.0006279   -0.0124900    0.0001714   -0.9297637    0.2067032   -0.3046526
  -0.0004787   -0.0121013    0.0002333   -0.9511970    0.1642901   -0.2612143
  -0.0003276   -0.0099017    0.0013636   -0.7399243   -0.1602537    0.6533229
   0.0032031   -0.0099900    0.0008537    0.9494589    0.2337492    0.2094974
   0.0031243   -0.0099735    0.0010576    0.8676394    0.2277091    0.4419846
   0.0028279   -0.0095355    0.0013747    0.7370188    0.2167940    0.6401591
   0.0023655   -0.0091274    0.0016054    0.4020478    0.1900930    0.8956686
   0.0017823   -0.0087416    0.0017735    0.2584148    0.1507686    0.9541963
   0.0025676   -0.0086901    0.0014471    0.4827131    0.2056448    0.8512921
   0.0036009   -0.0114972    0.0006363    0.8522878    0.4231106    0.3075434
   0.0033928   -0.0109115    0.0007474    0.8909886    0.3584979    0.2786012
   0.0032938   -0.0104278    0.0007269    0.9337736    0.3071756    0.1836029
   0.0039242   -0.0121821   -0.0000423    0.8133922    0.4172181   -0.4053667
   0.0037385   -0.0117665   -0.0000179    0.7607677    0.5479896   -0.3477642
   0.0036293   -0.0114786    0.0001581    0.8201346    0.4573270   -0.3438476
   0.0033732   -0.0104777    0.0002258    0.9369141    0.3478181   -0.0348505
   0.0034538   -0.0109028    0.0002227    0.8862435    0.3390229   -0.3156515
   0.0036046   -0.0122607   -0.0003833    0.4905953    0.2167104   -0.8440100
   0.0037667   -0.0121781   -0.0002316    0.6015377    0.3583482   -0.7139601
   0.0018278   -0.0129061   -0.0004365   -0.0574493   -0.0134102   -0.9982584
   0.0020344   -0.0124537   -0.0004843   -0.0334166   -0.1455358   -0.9887885
   0.0024859   -0.0115515   -0.0006372    0.0737345   -0.1181545   -0.9902539
   0.0026662   -0.0110992   -0.0006459    0.4230555   -0.0194758   -0.9058945
   0.0033209   -0.0114092   -0.0002514    0.6519242    0.4448356   -0.6140979
   0.0033599   -0.0109474   -0.0000469    0.7594830    0.2952712   -0.5796555
   0.0032834   -0.0105252   -0.0000792    0.8603741    0.2231120   -0.4582329
   0.0031015   -0.0101467   -0.0003641    0.8178917    0.0880286   -0.5685985
   0.0029604   -0.0103968   -0.0004879    0.6251561    0.0304606   -0.7799052
  -0.0006944   -0.0143618    0.0007098   -0.9471646   -0.3189707   -0.0337192
  -0.0006358   -0.0143808    0.0004953   -0.8879510   -0.3366481   -0.3133865
  -0.0007105   -0.0139612    0.0004376   -0.8937062   -0.3272164   -0.3069507
   0.0001744   -0.0135203   -0.0003456   -0.3326615   -0.1672477   -0.9280973
  -0.0006717   -0.0135772    0.0001953   -0.8962192   -0.3228648   -0.3042193
  -0.0007829   -0.0135441    0.0003815   -0.9022658   -0.2642679   -0.3407034
  -0.0006763   -0.0135460    0.0001915   -0.9177638   -0.2657531   -0.2951016
  -0.0006728   -0.0135540    0.0001888   -0.7442141   -0.2566847   -0.6166509
  -0.0002486   -0.0131161   -0.0001870   -0.4655586   -0.1525547   -0.8717696
  -0.0005513   -0.0131285   -0.0000069   -0.6504569   -0.1187926   -0.7501960
  -0.0007033   -0.0131268    0.0001591   -0.8393483   -0.1481018   -0.5230299
   0.0003486   -0.0126390   -0.0004116   -0.2069581   -0.0456978   -0.9772820
   0.0009485   -0.0125809   -0.0004932   -0.0747485   -0.0974300   -0.9924314
   0.0003712   -0.0089042    0.0017746   -0.2007022    0.0796463    0.9764093
   0.0013859   -0.0079196    0.0017748    0.0913178    0.0964111    0.9911438
  -0.0000014   -0.0085266    0.0016621   -0.3112633   -0.0322932    0.9497749
   0.0004290   -0.0080305    0.0017671   -0.1083166    0.0298508    0.9936682
  -0.0004733   -0.0081778    0.0014036   -0.6149365   -0.1920567    0.7648316
  -0.0003416   -0.0090316    0.0014038   -0.7343814   -0.1849399    0.6530553
  -0.0007991   -0.0131151    0.0003543   -0.9842623   -0.0734158   -0.1607416
  -0.0007257   -0.0126703    0.0003739   -0.9941775    0.0679092   -0.0836626
  -0.0006861   -0.0126918    0.0001494   -0.9043020    0.0525185   -0.4236504
  -0.0007442   -0.0096055    0.0006106   -0.8970606   -0.3462125    0.2746255
  -0.0007792   -0.0096582    0.0002152   -0.9128653   -0.4001381   -0.0810339
  -0.0004116   -0.0109453   -0.0000275   -0.8787414   -0.3390247   -0.3359700
  -0.0003429   -0.0113657    0.0000269   -0.8924318   -0.1875685   -0.4103456
  -0.0003728   -0.0120099    0.0000390   -0.8661387    0.0484383   -0.4974509
  -0.0006272   -0.0090999    0.0011082   -0.7849230   -0.2311772    0.5748504
  -0.0005052   -0.0125098   -0.0000092   -0.7337942    0.0618260   -0.6765527
  -0.0004434   -0.0122458    0.0000119   -0.7919592    0.1534299   -0.5909821
   0.0032306   -0.0092247   -0.0000324    0.9783984    0.1575967   -0.1337906
   0.0032315   -0.0083922   -0.0003289    0.9891643    0.0068593   -0.1466522
   0.0033084   -0.0100580    0.0001736    0.9584380    0.2370447   -0.1587651
   0.0031166   -0.0087102    0.0007526    0.9414978    0.1120678    0.3178406
   0.0030274   -0.0082638    0.0009325    0.8149165    0.1430776    0.5616404
   0.0027047   -0.0081583    0.0012499    0.5823110    0.1533918    0.7983639
   0.0017065   -0.0074614    0.0016716    0.3077912    0.0807602    0.9480202
   0.0033800   -0.0109393    0.0000031    0.8566848    0.3398036   -0.3881039
   0.0033686   -0.0104818    0.0002031    0.9186737    0.2753770   -0.2832069
   0.0019158   -0.0111670   -0.0007595    0.0944619   -0.2530848   -0.9628214
   0.0011753   -0.0121299   -0.0005714   -0.0700594   -0.1923818   -0.9788161
   0.0013784   -0.0112619   -0.0007618   -0.0122104   -0.2396321   -0.9707870
   0.0023975   -0.0107149   -0.0008004    0.3004574   -0.1543194   -0.9412284
   0.0027438   -0.0098056   -0.0007947    0.6242312   -0.0677202   -0.7782991
   0.0029428   -0.0101851   -0.0005361    0.7124642    0.0200780   -0.7014212
   0.0032172   -0.0096718   -0.0001376    0.9364234    0.1177686   -0.3305173
   0.0031538   -0.0092686   -0.0003272    0.8795063    0.0562891   -0.4725465
  -0.0003450   -0.0126899   -0.0001630   -0.5598379   -0.0381253   -0.8277246
  -0.0001195   -0.0126789   -0.0002908   -0.4223712   -0.0356056   -0.9057234
   0.0005520   -0.0121866   -0.0004501   -0.2567848   -0.0880515   -0.9624492
   0.0000822   -0.0117903   -0.0003060   -0.3671777   -0.0728443   -0.9272940
   0.0008088   -0.0117391   -0.0005784   -0.2532338   -0.2050865   -0.9454164
   0.0013707   -0.0070588    0.0017296    0.1202671   -0.0043764    0.9927319
   0.0001023   -0.0067704    0.0017371   -0.1688205   -0.0784804    0.9825174
  -0.0002829   -0.0081415    0.0015273   -0.4411276   -0.1136312    0.8902216
  -0.0009653   -0.0087602    0.0006480   -0.8069530   -0.3573800    0.4702195
  -0.0013424   -0.0074870    0.0007727   -0.6534839   -0.3831890    0.6527825
  -0.0008523   -0.0073708    0.0012674   -0.5262456   -0.2562653    0.8107981
  -0.0004925   -0.0071287    0.0014879   -0.3744489   -0.1889029    0.9078016
  -0.0009807   -0.0089936    0.0003262   -0.8783840   -0.4556828    0.1442035
  -0.0005022   -0.0097254   -0.0006207   -0.7673704   -0.4366588   -0.4695443
  -0.0009388   -0.0090667   -0.0001410   -0.8590267   -0.4741189   -0.1930919
  -0.0002983   -0.0109560   -0.0002135   -0.7285368   -0.3697635   -0.5766361
  -0.0002239   -0.0113735   -0.0001562   -0.7177448   -0.2544307   -0.6481569
  -0.0002059   -0.0118028   -0.0001281   -0.7203376   -0.0750034   -0.6895566
  -0.0002724   -0.0122449   -0.0001442   -0.6170570    0.0378568   -0.7860073
   0.0033124   -0.0079313   -0.0001873    0.9897396   -0.0292826   -0.1398499
   0.0032772   -0.0083079    0.0003274    0.9892144    0.0669988    0.1302539
   0.0029627   -0.0089124   -0.0007972    0.8591312   -0.0948555   -0.5028876
   0.0031714   -0.0082479   -0.0007159    0.9632156   -0.1089004   -0.2456754
   0.0031343   -0.0082753    0.0007431    0.9043140    0.1753404    0.3891939
   0.0028751   -0.0073998    0.0010610    0.6997180    0.0655536    0.7114053
   0.0031520   -0.0073647    0.0007129    0.8348076    0.0621932    0.5470177
   0.0022795   -0.0074176    0.0014859    0.4828197    0.0491327    0.8743404
   0.0018685   -0.0057997    0.0016916    0.3239419   -0.0337753    0.9454739
   0.0012399   -0.0100235   -0.0011658   -0.0570084   -0.3347700   -0.9405738
   0.0013373   -0.0093101   -0.0013914    0.0527377   -0.3105177   -0.9491035
   0.0021398   -0.0099141   -0.0011183    0.3387842   -0.2267464   -0.9131327
   0.0012533   -0.0108556   -0.0008766   -0.0625504   -0.3094167   -0.9488671
   0.0010828   -0.0113761   -0.0006977   -0.1429461   -0.2476249   -0.9582527
   0.0027179   -0.0093885   -0.0009037    0.6480106   -0.1894303   -0.7376981
  -0.0000069   -0.0117969   -0.0002697   -0.5165875   -0.1187444   -0.8479606
  -0.0000404   -0.0113709   -0.0003057   -0.4979782   -0.3049766   -0.8117925
   0.0002831   -0.0109398   -0.0006460   -0.2570833   -0.3543108   -0.8990952
   0.0003478   -0.0058020    0.0018739   -0.0685337   -0.1427991    0.9873761
   0.0011044   -0.0062143    0.0017986    0.1880928   -0.1078002    0.9762173
  -0.0003534   -0.0068398    0.0016009   -0.2627061   -0.1684560    0.9500569
  -0.0014248   -0.0076425    0.0005257   -0.7863878   -0.4838487    0.3840374
  -0.0011346   -0.0070145    0.0011443   -0.5476915   -0.3606191    0.7549755
  -0.0017902   -0.0066754    0.0007403   -0.6110592   -0.4825057    0.6275309
  -0.0009663   -0.0069479    0.0012911   -0.4476042   -0.2720821    0.8518344
  -0.0009560   -0.0062350    0.0014509   -0.3125491   -0.2352579    0.9203080
  -0.0013932   -0.0079989    0.0001748   -0.8509693   -0.5132496    0.1114720
  -0.0012172   -0.0084410   -0.0000686   -0.8510254   -0.5138561   -0.1082017
  -0.0005256   -0.0093274   -0.0008963   -0.7244143   -0.5276688   -0.4436097
   0.0000145   -0.0108182   -0.0005467   -0.4695170   -0.4252888   -0.7737462
   0.0033464   -0.0078945    0.0000998    0.9995894   -0.0236124    0.0162319
   0.0034325   -0.0074459    0.0001258    0.9894572   -0.0546679    0.1341116
   0.0033511   -0.0074780   -0.0004080    0.9887054   -0.0704090   -0.1323032
   0.0032029   -0.0082844    0.0005334    0.9418785    0.1514730    0.2998679
   0.0032891   -0.0080642    0.0003233    0.9776457    0.0277072    0.2084255
   0.0029185   -0.0085396   -0.0010831    0.8324829   -0.1918758   -0.5197653
   0.0030956   -0.0080658   -0.0010935    0.8752854   -0.1862638   -0.4462972
   0.0031627   -0.0076409   -0.0012392    0.8147585   -0.1717355   -0.5537828
   0.0032813   -0.0073938   -0.0011873    0.8781907   -0.1605332   -0.4505666
   0.0033298   -0.0075663   -0.0007723    0.9846692   -0.1268282   -0.1197542
   0.0034193   -0.0071350   -0.0006334    0.9748208   -0.2227553   -0.0102206
   0.0032614   -0.0074184    0.0005269    0.9096662    0.0171683    0.4149851
   0.0027155   -0.0068525    0.0011992    0.4980616   -0.0059083    0.8671215
   0.0030952   -0.0058217    0.0011087    0.5909061   -0.1100759    0.7991954
   0.0031128   -0.0065209    0.0009019    0.7672186   -0.0729024    0.6372290
   0.0034558   -0.0069817    0.0003643    0.8562157   -0.0937565    0.5080398
   0.0021666   -0.0056806    0.0015976    0.4208922   -0.1144790    0.8998579
   0.0024503   -0.0047258    0.0017059    0.3807551   -0.1760912    0.9077541
   0.0007421   -0.0097102   -0.0011960   -0.1229992   -0.3829551   -0.9155417
   0.0013268   -0.0087609   -0.0015701   -0.0888199   -0.3016012   -0.9492880
   0.0016010   -0.0083130   -0.0017197    0.0865719   -0.2520243   -0.9638408
   0.0017908   -0.0082873   -0.0016890    0.1789694   -0.2476106   -0.9521864
   0.0023398   -0.0090458   -0.0013038    0.4185157   -0.2704567   -0.8670050
   0.0027619   -0.0085589   -0.0012654    0.6091995   -0.2530476   -0.7515603
   0.0000790   -0.0097110   -0.0010533   -0.2682923   -0.4630860   -0.8447311
   0.0007560   -0.0053682    0.0019529    0.0903302   -0.1783923    0.9798044
   0.0002156   -0.0054301    0.0019451   -0.0624968   -0.2515861    0.9658150
   0.0018178   -0.0048820    0.0018712    0.3251526   -0.1918054    0.9260057
   0.0014613   -0.0048491    0.0019763    0.2173818   -0.1835222    0.9586786
  -0.0015792   -0.0075830    0.0001954   -0.8203042   -0.5273495    0.2213675
  -0.0017497   -0.0071519    0.0003331   -0.7267788   -0.5839824    0.3616035
  -0.0015783   -0.0062534    0.0011233   -0.4470510   -0.3900881    0.8049700
  -0.0020505   -0.0064695    0.0006374   -0.4496699   -0.6149852    0.6477578
  -0.0013754   -0.0056320    0.0014498   -0.2052976   -0.4549575    0.8665256
  -0.0012946   -0.0080816   -0.0006176   -0.7929231   -0.5977663   -0.1181037
  -0.0016159   -0.0075521   -0.0000714   -0.7882788   -0.6097929    0.0822753
  -0.0006936   -0.0088946   -0.0010038   -0.6620198   -0.5625902   -0.4951990
  -0.0007326   -0.0085303   -0.0012864   -0.5406181   -0.5086359   -0.6700907
  -0.0000112   -0.0101286   -0.0008365   -0.4042072   -0.4636563   -0.7884411
  -0.0009920   -0.0085189   -0.0009315   -0.7263875   -0.5639343   -0.3928604
   0.0036198   -0.0067057    0.0001929    0.9593923   -0.1984008    0.2005082
   0.0029504   -0.0081052   -0.0012860    0.7520717   -0.2004437   -0.6278618
   0.0031304   -0.0072357   -0.0014415    0.6860445   -0.1257750   -0.7166056
   0.0027822   -0.0077277   -0.0015913    0.5507229   -0.1356905   -0.8235851
   0.0032840   -0.0066232   -0.0014654    0.6364565   -0.1298190   -0.7603092
   0.0034167   -0.0071549   -0.0010505    0.9631020   -0.1800553   -0.2000364
   0.0033726   -0.0071726   -0.0011487    0.8475948   -0.1923393   -0.4945591
   0.0034391   -0.0070597   -0.0011185    0.8796181   -0.2830209   -0.3823234
   0.0035178   -0.0069947   -0.0008336    0.9294989   -0.3685019   -0.0154329
   0.0036720   -0.0066392   -0.0007677    0.9408971   -0.3383204    0.0158737
   0.0037168   -0.0065575   -0.0000089    0.9247429   -0.3575937    0.1302973
   0.0027806   -0.0060853    0.0012552    0.4805620   -0.0591552    0.8749633
   0.0032418   -0.0059977    0.0009475    0.5865090   -0.1947917    0.7861700
   0.0033874   -0.0055836    0.0010063    0.5004754   -0.2170120    0.8381110
   0.0025618   -0.0056554    0.0014366    0.4588125   -0.1360333    0.8780581
   0.0034811   -0.0047008    0.0012638    0.5563228   -0.0450718    0.8297430
   0.0034354   -0.0065237    0.0005800    0.7379483   -0.2185672    0.6384832
   0.0017285   -0.0043765    0.0020484    0.2739985   -0.1864298    0.9434876
   0.0024374   -0.0040557    0.0019163    0.4009331   -0.1618752    0.9016923
   0.0029595   -0.0042850    0.0016274    0.5304329   -0.0683524    0.8449668
   0.0029024   -0.0041693    0.0016740    0.4675224   -0.1110475    0.8769785
   0.0003858   -0.0096848   -0.0011386   -0.1143080   -0.4170701   -0.9016575
   0.0012877   -0.0079257   -0.0018066   -0.0044947   -0.2137023   -0.9768885
   0.0004289   -0.0090178   -0.0013910   -0.0646786   -0.3363010   -0.9395309
   0.0007018   -0.0086528   -0.0015092   -0.0610860   -0.2728155   -0.9601251
   0.0008313   -0.0079677   -0.0017167   -0.1171261   -0.2820959   -0.9522097
   0.0023540   -0.0077990   -0.0017686    0.2907062   -0.2333964   -0.9279095
  -0.0005079   -0.0085208   -0.0014209   -0.3071703   -0.3832857   -0.8710560
  -0.0001792   -0.0089090   -0.0013573   -0.1737899   -0.4188055   -0.8912907
   0.0008046   -0.0040236    0.0022589    0.1411591   -0.1882769    0.9719187
   0.0003591   -0.0036274    0.0023710    0.0264407   -0.0873728    0.9958247
  -0.0004160   -0.0050879    0.0019325   -0.0733952   -0.3341970    0.9396412
  -0.0020249   -0.0070174   -0.0000641   -0.5859943   -0.7920662    0.1710027
  -0.0019712   -0.0057816    0.0011282   -0.2941622   -0.4775938    0.8278724
  -0.0024890   -0.0063238    0.0003997   -0.3752489   -0.7634513    0.5256714
  -0.0027693   -0.0059263    0.0006866   -0.3803078   -0.6680024    0.6396396
  -0.0022200   -0.0061413    0.0007797   -0.2042049   -0.5874366    0.7830827
  -0.0019809   -0.0057617    0.0011359   -0.1722025   -0.5617588    0.8091807
  -0.0022097   -0.0053504    0.0013397   -0.1962729   -0.4773788    0.8564966
  -0.0012604   -0.0047318    0.0019638   -0.0192932   -0.4804534    0.8768080
  -0.0018096   -0.0048109    0.0018226   -0.2769589   -0.4629844    0.8419853
  -0.0019097   -0.0050619    0.0016356   -0.2730989   -0.5024952    0.8203143
  -0.0015082   -0.0076871   -0.0007473   -0.7778100   -0.6237611   -0.0770305
  -0.0011646   -0.0081176   -0.0010399   -0.7003045   -0.6288134   -0.3378865
  -0.0012707   -0.0080434   -0.0008528   -0.7300081   -0.6675114   -0.1466859
  -0.0008805   -0.0085273   -0.0011183   -0.6631487   -0.5300325   -0.5284877
  -0.0008656   -0.0081223   -0.0013742   -0.5372066   -0.4183323   -0.7323982
  -0.0010165   -0.0081417   -0.0012068   -0.6332809   -0.5066107   -0.5850649
   0.0039601   -0.0055965    0.0005704    0.8459827   -0.2445301    0.4738336
   0.0029199   -0.0069693   -0.0016426    0.4896692   -0.0835790   -0.8678932
   0.0025420   -0.0073453   -0.0017884    0.4226223   -0.0763938   -0.9030805
   0.0024849   -0.0069242   -0.0018498    0.3891818   -0.0435263   -0.9201320
   0.0026090   -0.0060509   -0.0019209    0.3579904   -0.0912552   -0.9292553
   0.0027829   -0.0055982   -0.0019202    0.3769082   -0.0618342   -0.9241843
   0.0034679   -0.0064609   -0.0013754    0.6798897   -0.1739069   -0.7123948
   0.0032102   -0.0055268   -0.0017414    0.5303307   -0.0254794   -0.8474079
   0.0036627   -0.0066889   -0.0010165    0.9110433   -0.2862573   -0.2967439
   0.0037398   -0.0065020   -0.0004915    0.9087615   -0.4170828   -0.0139442
   0.0039743   -0.0061635   -0.0005421    0.9063123   -0.4192021   -0.0535509
   0.0039019   -0.0062159   -0.0009109    0.9374552   -0.2526566   -0.2394627
   0.0040834   -0.0060213   -0.0003311    0.9341836   -0.3504078   -0.0671969
   0.0041500   -0.0058743   -0.0000560    0.9603342   -0.2513352    0.1207842
   0.0041930   -0.0055750    0.0002000    0.9125333   -0.2085271    0.3518513
   0.0036955   -0.0054509    0.0009168    0.5680521   -0.2270095    0.7910648
   0.0038341   -0.0049939    0.0009704    0.6887295   -0.0657847    0.7220277
   0.0038720   -0.0046898    0.0009771    0.7231283    0.1104233    0.6818300
   0.0036958   -0.0042617    0.0011119    0.6604687    0.2415012    0.7109559
   0.0031165   -0.0038442    0.0015268    0.6996806    0.2034024    0.6848902
   0.0034404   -0.0038453    0.0012052    0.6257800    0.3393405    0.7023158
   0.0032695   -0.0038462    0.0013614    0.6775406    0.3127726    0.6656667
   0.0039675   -0.0051353    0.0008006    0.8018388   -0.0917075    0.5904611
   0.0013224   -0.0035266    0.0022899    0.1780709   -0.0584533    0.9822800
   0.0016751   -0.0034925    0.0022283    0.2263234   -0.0037367    0.9740451
   0.0022607   -0.0036808    0.0020530    0.3695208   -0.0759205    0.9261158
   0.0020053   -0.0034642    0.0021551    0.2987057    0.0252474    0.9540113
   0.0027343   -0.0038508    0.0018179    0.4960839   -0.0203016    0.8680372
   0.0029522   -0.0038443    0.0016862    0.6198761    0.0757638    0.7810336
   0.0023203   -0.0073795   -0.0018652    0.1410008   -0.1667824   -0.9758598
   0.0010586   -0.0075249   -0.0018621   -0.0285112   -0.2396230   -0.9704473
  -0.0001663   -0.0086317   -0.0014757   -0.1433327   -0.3266117   -0.9342272
   0.0001307   -0.0084635   -0.0015603   -0.0381513   -0.2684662   -0.9625333
   0.0004532   -0.0080052   -0.0016683    0.0297676   -0.1982977   -0.9796897
   0.0006377   -0.0074432   -0.0018415   -0.1441738   -0.3207120   -0.9361398
   0.0000492   -0.0076255   -0.0017331   -0.1220398   -0.2103033   -0.9699891
  -0.0007561   -0.0077003   -0.0015810   -0.3192702   -0.2885423   -0.9026682
   0.0009340   -0.0035660    0.0023273    0.1236946   -0.0585173    0.9905934
  -0.0006962   -0.0037568    0.0023157   -0.0535617   -0.0999790    0.9935468
  -0.0002693   -0.0032700    0.0023475   -0.0480664    0.1125475    0.9924831
   0.0005524   -0.0032320    0.0023632    0.0010009    0.0683598    0.9976602
  -0.0000275   -0.0029435    0.0022909   -0.0554839    0.1728007    0.9833928
  -0.0006562   -0.0046531    0.0020330    0.0163080   -0.3637093    0.9313698
  -0.0009453   -0.0037891    0.0022801   -0.0312731   -0.1606327    0.9865187
  -0.0018518   -0.0071631   -0.0007051   -0.5919123   -0.8049260   -0.0416410
  -0.0017529   -0.0072705   -0.0006483   -0.7193716   -0.6922355   -0.0575711
  -0.0023546   -0.0067998   -0.0004937   -0.5202966   -0.8370170   -0.1693928
  -0.0021895   -0.0068874   -0.0006492   -0.2962730   -0.9466475   -0.1268103
  -0.0024868   -0.0067195   -0.0003208   -0.5498156   -0.8311018    0.0835023
  -0.0024033   -0.0066838   -0.0000320   -0.4528024   -0.7994337    0.3948109
  -0.0021829   -0.0058011    0.0010311   -0.1417028   -0.5968445    0.7897449
  -0.0022904   -0.0058369    0.0009757   -0.1499061   -0.5552368    0.8180711
  -0.0027036   -0.0062850    0.0002846   -0.4439424   -0.7628638    0.4700573
  -0.0023945   -0.0058515    0.0009441   -0.1520044   -0.6751711    0.7218301
  -0.0030207   -0.0057712    0.0005875   -0.6210648   -0.6229734    0.4755866
  -0.0029468   -0.0054922    0.0008608   -0.6006287   -0.4066314    0.6884012
  -0.0027459   -0.0056278    0.0009725   -0.4126452   -0.5746679    0.7067395
  -0.0023359   -0.0055822    0.0011869   -0.1217926   -0.5647456    0.8162285
  -0.0024303   -0.0053847    0.0012611   -0.3127899   -0.3888900    0.8665605
  -0.0025304   -0.0050882    0.0013091   -0.4006952   -0.3856913    0.8310750
  -0.0014878   -0.0045122    0.0020806    0.0884200   -0.4208926    0.9027909
  -0.0011395   -0.0046450    0.0020239    0.0403784   -0.4225571    0.9054364
  -0.0019692   -0.0043850    0.0019150   -0.5536433   -0.2734627    0.7865731
  -0.0021156   -0.0044918    0.0017484   -0.5220076   -0.3714749    0.7677985
  -0.0017776   -0.0043487    0.0020374   -0.3649592   -0.2866021    0.8858126
  -0.0020032   -0.0048489    0.0017027   -0.4494812   -0.3581354    0.8183554
  -0.0014718   -0.0077099   -0.0009735   -0.7439567   -0.6149569   -0.2614506
  -0.0015547   -0.0075442   -0.0010243   -0.7387044   -0.6353175   -0.2251388
  -0.0017263   -0.0072956   -0.0008793   -0.6994194   -0.7108673   -0.0740280
  -0.0013687   -0.0077228   -0.0011647   -0.6102282   -0.5349287   -0.5843567
  -0.0009882   -0.0077121   -0.0014567   -0.4666262   -0.3838073   -0.7968387
   0.0041946   -0.0051530    0.0004289    0.9226852    0.0249780    0.3847443
   0.0019754   -0.0065747   -0.0020524    0.1757107   -0.1199706   -0.9771043
   0.0021434   -0.0059691   -0.0020957    0.2450741   -0.1121421   -0.9629968
   0.0019876   -0.0057210   -0.0021888    0.1437616   -0.0834970   -0.9860836
   0.0022749   -0.0052470   -0.0021248    0.1986801    0.1876818   -0.9619261
   0.0029306   -0.0051419   -0.0018790    0.3396976    0.1430070   -0.9295991
   0.0038008   -0.0062500   -0.0011026    0.8092535   -0.1486393   -0.5683442
   0.0036381   -0.0062107   -0.0012965    0.6904013   -0.0466709   -0.7219196
   0.0037446   -0.0054097   -0.0012750    0.7007357    0.0739585   -0.7095771
   0.0033334   -0.0050689   -0.0016636    0.5896250    0.1444789   -0.7946497
   0.0039295   -0.0057922   -0.0010331    0.8296380    0.0052231   -0.5582772
   0.0041629   -0.0057542   -0.0005468    0.9451188   -0.0905298   -0.3139344
   0.0042217   -0.0056669   -0.0002735    0.9886751   -0.1265006   -0.0807407
   0.0043238   -0.0051888    0.0000060    0.9936502    0.0038129    0.1124487
   0.0040069   -0.0046965    0.0008025    0.8493296    0.1357535    0.5101080
   0.0039687   -0.0042715    0.0007637    0.8093585    0.3529463    0.4694333
   0.0037511   -0.0038498    0.0008768    0.7424542    0.4704376    0.4769174
   0.0031723   -0.0034325    0.0012921    0.7089080    0.5167744    0.4799934
   0.0029166   -0.0034197    0.0016491    0.7060102    0.3567011    0.6118121
   0.0033169   -0.0034350    0.0011224    0.6178319    0.5488948    0.5630260
   0.0034648   -0.0034379    0.0009544    0.6332636    0.6029716    0.4851828
   0.0041923   -0.0047225    0.0004088    0.9195883    0.2106359    0.3316473
   0.0014296   -0.0030838    0.0022549    0.1902545    0.2146366    0.9579845
   0.0011177   -0.0031139    0.0023138    0.1519842    0.1587432    0.9755518
   0.0017526   -0.0030565    0.0021795    0.2194916    0.2857369    0.9328333
   0.0025460   -0.0034264    0.0019463    0.4957053    0.1595255    0.8537141
   0.0022590   -0.0030162    0.0020234    0.3724034    0.3717949    0.8503436
   0.0027547   -0.0034183    0.0018099    0.5941633    0.2439099    0.7664711
   0.0018262   -0.0070158   -0.0019715    0.0001138   -0.2632780   -0.9647200
   0.0014409   -0.0070544   -0.0019215    0.0100314   -0.2674546   -0.9635183
   0.0005312   -0.0063237   -0.0021923    0.0104855   -0.2167645   -0.9761676
   0.0003023   -0.0067661   -0.0020477   -0.1593138   -0.3993333   -0.9028577
   0.0002355   -0.0071818   -0.0018189   -0.0831668   -0.2620605   -0.9614612
   0.0003086   -0.0074335   -0.0017694   -0.0553925   -0.2218498   -0.9735062
   0.0002939   -0.0071775   -0.0018386   -0.2424256   -0.3881025   -0.8891605
  -0.0008259   -0.0072816   -0.0016359   -0.2414412   -0.2199935   -0.9451503
   0.0008158   -0.0031427    0.0023574    0.0744316    0.1342657    0.9881461
  -0.0010312   -0.0033680    0.0022618   -0.1961496    0.1528141    0.9685934
  -0.0005300   -0.0033015    0.0023290   -0.1217511    0.1357393    0.9832352
  -0.0005622   -0.0028841    0.0022297   -0.1756180    0.3583933    0.9169038
   0.0004958   -0.0027550    0.0022806   -0.0293779    0.3606892    0.9322233
  -0.0009583   -0.0044632    0.0021116    0.1071685   -0.3032654    0.9468606
  -0.0010580   -0.0042479    0.0021865    0.2318878   -0.2552701    0.9386507
  -0.0011558   -0.0039516    0.0022317   -0.0480230   -0.1728479    0.9837771
  -0.0014493   -0.0038554    0.0022171   -0.1667153   -0.0747424    0.9831681
  -0.0012800   -0.0034004    0.0022257   -0.2155328    0.1345924    0.9671765
  -0.0020999   -0.0069000   -0.0008476    0.4518800   -0.8854628   -0.1084441
  -0.0022261   -0.0068567   -0.0006697   -0.5422850   -0.8044739   -0.2423814
  -0.0026871   -0.0064851   -0.0004367   -0.6752379   -0.7135433   -0.1868415
  -0.0023644   -0.0065295   -0.0010031   -0.5514386   -0.6971677   -0.4581186
  -0.0020999   -0.0069000   -0.0008476    0.7566659   -0.6229967   -0.1983225
  -0.0027803   -0.0063637    0.0000014   -0.6408278   -0.7532954    0.1479383
  -0.0025344   -0.0056470    0.0010849   -0.2215498   -0.5814501    0.7828355
  -0.0029333   -0.0061410    0.0001571   -0.6558823   -0.6973793    0.2889298
  -0.0031739   -0.0055617    0.0004977   -0.8515140   -0.4477421    0.2728570
  -0.0031032   -0.0058108    0.0002995   -0.7877339   -0.5752899    0.2202655
  -0.0031171   -0.0055368    0.0006517   -0.7741990   -0.3692287    0.5140877
  -0.0026291   -0.0054204    0.0011496   -0.4505518   -0.3682335    0.8132695
  -0.0027465   -0.0049972    0.0011785   -0.6039347   -0.2277829    0.7637918
  -0.0031224   -0.0050925    0.0007506   -0.8282227   -0.1483900    0.5403958
  -0.0025717   -0.0049599    0.0013261   -0.5502657   -0.2247144    0.8041835
  -0.0013144   -0.0042797    0.0021620    0.8418015   -0.1895127    0.5054257
  -0.0015662   -0.0043119    0.0021301    0.0092961   -0.2334304    0.9723291
  -0.0013144   -0.0042797    0.0021620    0.9477423   -0.0876213    0.3067686
  -0.0021371   -0.0044228    0.0017573   -0.6192443   -0.2345625    0.7493443
  -0.0018739   -0.0039250    0.0020351   -0.5984926   -0.0459951    0.7998069
  -0.0022504   -0.0040150    0.0016566   -0.7502665    0.0223068    0.6607591
  -0.0023046   -0.0044624    0.0015982   -0.6296560   -0.2205722    0.7449035
  -0.0016732   -0.0038894    0.0021434   -0.3742028   -0.0515367    0.9259137
  -0.0024779   -0.0044999    0.0014481   -0.6521957   -0.0822109    0.7535795
  -0.0014331   -0.0075542   -0.0012061   -0.6039748   -0.5724538   -0.5545368
  -0.0016896   -0.0073185   -0.0011053   -0.6621958   -0.6368622   -0.3948459
  -0.0019612   -0.0070251   -0.0010151   -0.4246887   -0.8739562   -0.2363052
  -0.0018344   -0.0070703   -0.0011924   -0.5823042   -0.6744719   -0.4538826
  -0.0013319   -0.0073137   -0.0014093   -0.4134865   -0.4412022   -0.7964732
  -0.0013671   -0.0064828   -0.0016875   -0.2566958   -0.3402926   -0.9046039
   0.0043044   -0.0047613   -0.0000229    0.9716313    0.2345561    0.0302667
   0.0017159   -0.0066875   -0.0020438    0.0549152   -0.2025185   -0.9777375
   0.0007231   -0.0054412   -0.0022535   -0.0169395    0.0109993   -0.9997960
   0.0020352   -0.0052530   -0.0021839    0.1141769    0.0681288   -0.9911216
   0.0004932   -0.0056989   -0.0022394   -0.0358387   -0.0589513   -0.9976173
  -0.0000266   -0.0059572   -0.0022100   -0.1043042   -0.1213068   -0.9871197
   0.0015763   -0.0032240   -0.0017752    0.1095091    0.3320263   -0.9368918
   0.0020711   -0.0039364   -0.0018499    0.2569147    0.3434582   -0.9033445
   0.0027664   -0.0039962   -0.0016063    0.2395474    0.3974226   -0.8858173
   0.0016406   -0.0048157   -0.0021648    0.0996897    0.2712059   -0.9573449
   0.0012674   -0.0039331   -0.0019076    0.0609517    0.2294253   -0.9714159
   0.0014092   -0.0034937   -0.0018517    0.0053937    0.1664332   -0.9860380
   0.0032328   -0.0046468   -0.0016600    0.4076091    0.2933968   -0.8647388
   0.0041190   -0.0048743   -0.0007922    0.8105711    0.1335225   -0.5702160
   0.0035807   -0.0045700   -0.0013620    0.6072988    0.2791174   -0.7438290
   0.0042709   -0.0052508   -0.0004620    0.9482843    0.0472542   -0.3138851
   0.0043177   -0.0052200   -0.0002421    0.9859691    0.0947744   -0.1374144
   0.0040602   -0.0042843    0.0005665    0.8718262    0.3799025    0.3091815
   0.0038948   -0.0038796    0.0004825    0.8023774    0.5614534    0.2023872
   0.0035787   -0.0034487    0.0007686    0.7067584    0.6411470    0.2990370
   0.0030940   -0.0030655    0.0009887    0.5633395    0.7232240    0.3994943
   0.0029683   -0.0030376    0.0011674    0.5319028    0.8211903    0.2067024
   0.0029650   -0.0030357    0.0011761    0.6571679    0.7214472    0.2182755
   0.0027764   -0.0030124    0.0015575    0.6785419    0.6041306    0.4178601
   0.0026456   -0.0030065    0.0017343    0.6076517    0.5458920    0.5768547
   0.0032152   -0.0030719    0.0008067    0.4867316    0.8083818    0.3310758
   0.0033407   -0.0031092    0.0006283    0.5035106    0.8427112    0.1905649
   0.0042302   -0.0043419   -0.0000801    0.8982989    0.4295894    0.0922611
   0.0017652   -0.0026400    0.0020129    0.1812318    0.4459325    0.8765268
   0.0014171   -0.0026676    0.0021259    0.1780809    0.3959451    0.9008411
   0.0010894   -0.0026948    0.0022086    0.1066084    0.3526842    0.9296497
   0.0021207   -0.0027558    0.0019392    0.3069136    0.5815452    0.7533984
   0.0017910   -0.0026376    0.0020062    0.2317883    0.5338493    0.8131907
   0.0024745   -0.0030074    0.0018904    0.5328668    0.5146689    0.6716910
   0.0025231   -0.0030080    0.0018411    0.5353090    0.5058580    0.6764258
   0.0022359   -0.0026183    0.0017476    0.4340633    0.6925189    0.5762001
   0.0000233   -0.0063758   -0.0021371   -0.1674037   -0.2927492   -0.9414212
  -0.0008209   -0.0029159    0.0022083   -0.2029594    0.3028814    0.9311661
  -0.0010552   -0.0029492    0.0021507   -0.3535574    0.3571704    0.8645383
  -0.0012765   -0.0029854    0.0020724   -0.4132375    0.3939117    0.8210166
  -0.0012794   -0.0031359    0.0021311   -0.3313748    0.3352717    0.8819204
  -0.0006262   -0.0028919    0.0022190   -0.1697860    0.3119547    0.9348032
  -0.0002880   -0.0026005    0.0021385   -0.2102671    0.4649166    0.8600234
  -0.0007382   -0.0025042    0.0019366   -0.4003512    0.5634661    0.7226512
  -0.0008022   -0.0027471    0.0021196   -0.2983496    0.5320868    0.7923832
  -0.0005018   -0.0024709    0.0019912   -0.3187262    0.5865090    0.7445944
   0.0002523   -0.0023725    0.0020885   -0.1285980    0.5106664    0.8501073
   0.0011051   -0.0025471    0.0021328    0.0827843    0.5390005    0.8382274
   0.0005422   -0.0023428    0.0020627    0.0042431    0.6036397    0.7972460
   0.0008694   -0.0023126    0.0019981    0.0748615    0.6353829    0.7685599
  -0.0013144   -0.0042797    0.0021620    0.6891274   -0.1230913    0.7141092
  -0.0015081   -0.0034343    0.0021582   -0.3706673    0.1813964    0.9108793
  -0.0020999   -0.0069000   -0.0008476    0.4201853   -0.8470645   -0.3254628
  -0.0028993   -0.0060908   -0.0005657   -0.7492339   -0.5388925   -0.3850241
  -0.0029801   -0.0060759   -0.0003628   -0.7889202   -0.5886952   -0.1761899
  -0.0022373   -0.0065234   -0.0011825   -0.6507971   -0.5693509   -0.5022975
  -0.0025378   -0.0061149   -0.0011126   -0.7058782   -0.4114586   -0.5765741
  -0.0023817   -0.0061173   -0.0012763   -0.5974058   -0.4083637   -0.6901778
  -0.0030148   -0.0060533   -0.0001360   -0.7910144   -0.6117975   -0.0003609
  -0.0030200   -0.0060241    0.0001065   -0.7772393   -0.6210000    0.1012824
  -0.0032117   -0.0056287   -0.0000275   -0.9088178   -0.4152367    0.0403574
  -0.0032663   -0.0051468    0.0004309   -0.9533655   -0.1825229    0.2403738
  -0.0027987   -0.0045725    0.0011452   -0.6763134   -0.0184247    0.7363836
  -0.0029750   -0.0046157    0.0009639   -0.8191148    0.0311996    0.5727806
  -0.0028136   -0.0045755    0.0011322   -0.7078903    0.0138960    0.7061857
  -0.0031975   -0.0046042    0.0004437   -0.9638464    0.1062036    0.2443787
  -0.0030998   -0.0046565    0.0007436   -0.9079009    0.0822178    0.4110429
  -0.0020612   -0.0035463    0.0017581   -0.8217901    0.2098813    0.5297272
  -0.0019067   -0.0035075    0.0019364   -0.6837779    0.1802556    0.7070754
  -0.0017203   -0.0034709    0.0020667   -0.5132517    0.1856917    0.8379089
  -0.0023569   -0.0040418    0.0015296   -0.7564246    0.0583824    0.6514701
  -0.0023032   -0.0036217    0.0013656   -0.8592097    0.3023730    0.4127096
  -0.0023295   -0.0036649    0.0013534   -0.8269317    0.2468350    0.5052290
  -0.0026610   -0.0042277    0.0012029   -0.7250673    0.0859183    0.6832975
  -0.0026093   -0.0041085    0.0012251   -0.7780396    0.2054616    0.5936665
  -0.0015489   -0.0073223   -0.0012771   -0.4946159   -0.5246575   -0.6928850
  -0.0017256   -0.0069223   -0.0013877   -0.4672453   -0.5024040   -0.7275109
  -0.0020372   -0.0069195   -0.0010597   -0.6768703   -0.6727073   -0.2988502
  -0.0017631   -0.0069225   -0.0013544   -0.4910893   -0.5315962   -0.6900991
  -0.0019215   -0.0069268   -0.0012446   -0.5573933   -0.5755994   -0.5983294
  -0.0014926   -0.0069106   -0.0015114   -0.3310576   -0.4040563   -0.8527247
  -0.0017229   -0.0065080   -0.0015625   -0.3181645   -0.3610475   -0.8765934
  -0.0005960   -0.0060054   -0.0020624   -0.2517400   -0.2282805   -0.9404866
  -0.0017473   -0.0060926   -0.0016813   -0.3664999   -0.3041509   -0.8793009
   0.0042271   -0.0048324   -0.0005441    0.9254744    0.2250371   -0.3047220
   0.0042172   -0.0043738   -0.0003317    0.9029588    0.3723974   -0.2144427
