NORM_ASCII
1133 2262
   0.0032138   -0.0055792   -0.0022129    0.2302285    0.0804608   -0.9698046
   0.0029229   -0.0050616   -0.0022060    0.1507420    0.2186034   -0.9641003
   0.0017548   -0.0054987   -0.0024398    0.1994201    0.0602980   -0.9780571
   0.0038485   -0.0061311   -0.0019126    0.4994550   -0.0899694   -0.8616555
   0.0049197   -0.0062327   -0.0010539    0.7197457    0.0036697   -0.6942281
   0.0038134   -0.0209270    0.0012580    0.5573252    0.1100982   -0.8229623
   0.0037675   -0.0190152    0.0012103    0.6043551   -0.0698002   -0.7936516
   0.0034533   -0.0219522    0.0010449    0.2643447    0.0595128   -0.9625903
   0.0018035   -0.0213407    0.0005375    0.2543607    0.0354210   -0.9664605
   0.0036592   -0.0214612    0.0011106    0.3712167    0.1200176   -0.9207573
   0.0022777   -0.0188403    0.0005949    0.2875263   -0.0136564   -0.9576754
   0.0000438   -0.0187205    0.0003295   -0.2727427   -0.1722640   -0.9465392
   0.0008806   -0.0202762    0.0003659   -0.1159965   -0.1321040   -0.9844254
  -0.0006556   -0.0178169    0.0005445   -0.3848312   -0.1939093   -0.9023880
  -0.0007652   -0.0171774    0.0004702   -0.3505902   -0.2237403   -0.9094101
  -0.0013835   -0.0181841    0.0008873   -0.2553496   -0.2355423   -0.9377187
  -0.0003373   -0.0197293    0.0005817   -0.3176034   -0.1108622   -0.9417206
  -0.0013218   -0.0186953    0.0009242   -0.3756283   -0.1453447   -0.9153023
   0.0012365   -0.0208029    0.0004415    0.0637958   -0.0761604   -0.9950526
   0.0039551   -0.0188280    0.0013250    0.7947129   -0.0552310   -0.6044675
   0.0042260   -0.0174805    0.0016626    0.9875783    0.0420635   -0.1513929
   0.0043190   -0.0159278    0.0009989    0.9717679    0.0265702   -0.2344380
  -0.0029671   -0.0094107   -0.0009932   -0.0580308   -0.2652545   -0.9624305
  -0.0024594   -0.0100327   -0.0009141   -0.2723681   -0.3186652   -0.9078921
  -0.0030902   -0.0083765   -0.0012918   -0.2068534   -0.3117709   -0.9273675
  -0.0025652   -0.0071490   -0.0017928   -0.1757993   -0.3588789   -0.9166791
  -0.0020503   -0.0077176   -0.0017288   -0.2389160   -0.3797714   -0.8936962
  -0.0020543   -0.0058760   -0.0022730   -0.1469651   -0.1573912   -0.9765394
  -0.0014997   -0.0053479   -0.0024567   -0.2274709   -0.0938488   -0.9692520
  -0.0024585   -0.0067417   -0.0019922   -0.1714556   -0.3470053   -0.9220577
  -0.0008272   -0.0053705   -0.0025714   -0.1481308   -0.1619689   -0.9756143
  -0.0027714   -0.0098927   -0.0008478   -0.1168217   -0.2556988   -0.9596722
  -0.0028295   -0.0109509   -0.0006854   -0.0331591   -0.1882589   -0.9815595
  -0.0022901   -0.0114820   -0.0006639   -0.0990424   -0.2214344   -0.9701327
  -0.0021318   -0.0124863   -0.0004247   -0.0081452   -0.2367553   -0.9715352
  -0.0025043   -0.0155772    0.0003802   -0.2429867   -0.3106406   -0.9189450
  -0.0024594   -0.0135198   -0.0002574    0.0484038   -0.2460338   -0.9680519
  -0.0026198   -0.0145431    0.0000772   -0.2178800   -0.3560201   -0.9087233
  -0.0024400   -0.0130105   -0.0003493    0.1239651   -0.1770008   -0.9763726
  -0.0010336   -0.0171715    0.0005652   -0.2043530   -0.2354762   -0.9501531
  -0.0005411   -0.0048753   -0.0026365   -0.1588654    0.1008910   -0.9821317
   0.0010438   -0.0054571   -0.0025831    0.1581876   -0.0649843   -0.9852684
   0.0007911   -0.0054942   -0.0026021    0.1549420   -0.2220609   -0.9626432
   0.0000289   -0.0048971   -0.0026973   -0.0466555    0.1401732   -0.9890272
   0.0005364   -0.0049238   -0.0026571    0.1202983    0.1819047   -0.9759298
   0.0009953   -0.0059657   -0.0024708    0.7583782   -0.1302098   -0.6386767
   0.0042818   -0.0154832    0.0020172    0.9713708    0.0726584    0.2261849
   0.0046185   -0.0129378    0.0014166    0.9932335    0.0145161    0.1152233
   0.0045294   -0.0134508    0.0016277    0.9726984    0.0381865    0.2289097
   0.0052554   -0.0087624    0.0007247    0.9955666   -0.0274190   -0.0899738
   0.0054474   -0.0070773    0.0003039    0.9956382    0.0134938   -0.0923178
   0.0054068   -0.0068216   -0.0000788    0.9381965    0.0809299   -0.3365080
   0.0054473   -0.0068778    0.0008247    0.9890227    0.1269537    0.0756093
   0.0051766   -0.0062728   -0.0006043    0.8722035    0.0974048   -0.4793469
   0.0049464   -0.0104060    0.0010720    0.9937922    0.0007735    0.1112494
   0.0052433   -0.0088992    0.0009800    0.9985733   -0.0524146    0.0102000
   0.0047295   -0.0110650    0.0017283    0.9670800    0.0503298    0.2494458
   0.0036485   -0.0056091   -0.0020536    0.4128910    0.1216689   -0.9026171
   0.0028548   -0.0047735   -0.0021129    0.1390601    0.5186200   -0.8436205
   0.0019183   -0.0043692   -0.0019135    0.1271817    0.7737913   -0.6205416
   0.0012671   -0.0040027   -0.0017421    0.1737339    0.7694874   -0.6145776
   0.0016585   -0.0047171   -0.0023331    0.1729734    0.5111692   -0.8418944
   0.0026106   -0.0043078   -0.0017459    0.0202000    0.7886940   -0.6144541
   0.0035789   -0.0051049   -0.0019723    0.3129693    0.4128869   -0.8553214
   0.0014701   -0.0048849   -0.0024482    0.1904403    0.2200405   -0.9567208
   0.0044264   -0.0056730   -0.0015851    0.5526461    0.1015656   -0.8272041
   0.0046100   -0.0056903   -0.0014503    0.6282263    0.1536700   -0.7627039
   0.0047765   -0.0057075   -0.0012874    0.7608390    0.2094775   -0.6142012
   0.0051615   -0.0057666   -0.0006123    0.8950246    0.2681819   -0.3563838
   0.0040109   -0.0211400    0.0013829    0.6739685    0.2155132   -0.7066262
   0.0040919   -0.0189810    0.0015452    0.9119646    0.0491340   -0.4073162
   0.0041143   -0.0205011    0.0016063    0.8928694    0.1953245   -0.4057495
   0.0019301   -0.0223547    0.0005216    0.1741897    0.0679332   -0.9823660
   0.0034814   -0.0224571    0.0010319    0.2488450    0.0949467   -0.9638783
   0.0013912   -0.0213171    0.0004664    0.0361179   -0.0113853   -0.9992827
   0.0040569   -0.0214913    0.0013315    0.6717687    0.2422385   -0.7000337
   0.0041408   -0.0225016    0.0012595    0.6146207    0.1559331   -0.7732569
   0.0037451   -0.0229766    0.0010688    0.3459827    0.1016678   -0.9327162
   0.0003085   -0.0207621    0.0004625   -0.1749904   -0.0832536   -0.9810439
  -0.0019969   -0.0182297    0.0010234   -0.3037859   -0.3104014   -0.9007581
  -0.0022416   -0.0176386    0.0008655   -0.4203098   -0.3876304   -0.8204159
  -0.0020972   -0.0172325    0.0006896   -0.2421191   -0.3093957   -0.9195937
  -0.0007615   -0.0202260    0.0007643   -0.3964100   -0.0772190   -0.9148204
  -0.0010228   -0.0217357    0.0008785   -0.3702506   -0.0336897   -0.9283208
  -0.0015043   -0.0207167    0.0010924   -0.5361981   -0.0911431   -0.8391570
  -0.0017385   -0.0197036    0.0011986   -0.6128688   -0.1425691   -0.7772167
  -0.0017838   -0.0190957    0.0011644   -0.5503825   -0.2755475   -0.7881324
   0.0001435   -0.0222761    0.0005624   -0.1343996   -0.0511443   -0.9896065
   0.0042100   -0.0180052    0.0019981    0.9897934    0.1176706    0.0803907
   0.0041537   -0.0170028    0.0021824    0.9593183    0.1169873    0.2569482
  -0.0033594   -0.0104194   -0.0007226   -0.2229533   -0.2572635   -0.9402698
  -0.0032163   -0.0093971   -0.0010210   -0.1234037   -0.2569442   -0.9585151
  -0.0031899   -0.0119573   -0.0004667   -0.2175844   -0.2185879   -0.9512499
  -0.0034560   -0.0088762   -0.0010969   -0.2870202   -0.2514793   -0.9243255
  -0.0031293   -0.0073445   -0.0016183   -0.2597734   -0.3535148   -0.8986351
  -0.0039154   -0.0071831   -0.0013234   -0.4818294   -0.3170514   -0.8168959
  -0.0017636   -0.0051242   -0.0023616   -0.2857012   -0.0434522   -0.9573331
  -0.0023225   -0.0058268   -0.0022727   -0.0731181   -0.1489672   -0.9861351
  -0.0020718   -0.0051551   -0.0022909   -0.2261593    0.0776675   -0.9709891
  -0.0011557   -0.0047376   -0.0025107   -0.2197760    0.1343371   -0.9662567
  -0.0014649   -0.0047162   -0.0024415   -0.3303965    0.1172611   -0.9365298
  -0.0027704   -0.0058110   -0.0021951   -0.2283477   -0.1690611   -0.9587886
  -0.0029353   -0.0127376   -0.0003982   -0.1648302   -0.2396483   -0.9567652
  -0.0030006   -0.0140209    0.0000968   -0.7006467   -0.3889924   -0.5981464
  -0.0027470   -0.0155749    0.0005315   -0.6071278   -0.3623360   -0.7071835
  -0.0028298   -0.0139641   -0.0000590   -0.4805401   -0.3616307   -0.7989396
  -0.0003790   -0.0043863   -0.0024992   -0.1080476    0.4252801   -0.8985892
  -0.0006632   -0.0043813   -0.0024700   -0.1841877    0.4542995   -0.8716002
   0.0009654   -0.0047475   -0.0025014    0.1613469    0.4042652   -0.9002982
   0.0002740   -0.0048207   -0.0026687    0.0122824    0.3079942   -0.9513090
   0.0004140   -0.0044240   -0.0024900    0.0806709    0.4945811   -0.8653795
   0.0040097   -0.0155089    0.0026330    0.8454620    0.1084293    0.5229122
   0.0042326   -0.0144854    0.0022384    0.8903062    0.0762414    0.4489344
   0.0044012   -0.0119061    0.0023171    0.8986981    0.0128432    0.4383797
   0.0046256   -0.0115830    0.0019305    0.9432833    0.0233212    0.3311687
   0.0053334   -0.0079121    0.0012876    0.9771918    0.0539512    0.2053912
   0.0054697   -0.0068445    0.0002526    0.9866061    0.1274097   -0.1018588
   0.0054024   -0.0063207    0.0000068    0.9467847    0.2467784   -0.2066380
   0.0052719   -0.0061087   -0.0003377    0.9258592    0.2581484   -0.2759423
   0.0052854   -0.0069128    0.0015091    0.9047227    0.2134587    0.3686628
   0.0052882   -0.0063912    0.0012440    0.8966371    0.3550458    0.2645458
   0.0054339   -0.0063399    0.0002882    0.9525255    0.3016146    0.0415191
   0.0051072   -0.0090939    0.0014198    0.9737161   -0.0307899    0.2256743
   0.0047887   -0.0099501    0.0019932    0.9197268   -0.0208038    0.3920074
   0.0046422   -0.0104604    0.0021908    0.8752366    0.0576354    0.4802490
   0.0045238   -0.0109718    0.0023841    0.8375830    0.0496359    0.5440506
   0.0041685   -0.0051535   -0.0016313    0.4776218    0.3493730   -0.8061116
   0.0031140   -0.0043966   -0.0016943    0.1899346    0.8064773   -0.5599279
   0.0016759   -0.0039541   -0.0015453    0.1879544    0.8514135   -0.4896614
   0.0019430   -0.0038956   -0.0011187    0.1382323    0.9558043   -0.2594800
   0.0002818   -0.0036845   -0.0018901    0.1184818    0.7242815   -0.6792484
   0.0013189   -0.0036197   -0.0009861    0.3153575    0.9489551   -0.0058202
   0.0003522   -0.0034346   -0.0015878    0.1248871    0.7797892   -0.6134591
   0.0007363   -0.0033982   -0.0013498    0.3006973    0.8080351   -0.5066166
   0.0000914   -0.0037571   -0.0020079   -0.0067477    0.6532394   -0.7571213
   0.0025642   -0.0040569   -0.0012543    0.0924355    0.9440923   -0.3164576
   0.0036091   -0.0046230   -0.0016203    0.2807431    0.7028799   -0.6535619
   0.0037450   -0.0049600   -0.0018197    0.3738954    0.5573674   -0.7413122
   0.0045187   -0.0051206   -0.0013380    0.5484817    0.4698434   -0.6916755
   0.0047156   -0.0053181   -0.0012137    0.6697193    0.3607494   -0.6491039
   0.0048443   -0.0052236   -0.0009965    0.7471095    0.4246744   -0.5113502
   0.0053363   -0.0058265    0.0002226    0.9182381    0.3931981   -0.0472669
   0.0051387   -0.0054086   -0.0001657    0.8142451    0.5789573   -0.0425842
   0.0050599   -0.0053030   -0.0004771    0.8223592    0.5415880   -0.1743785
   0.0042031   -0.0210211    0.0017625    0.8875703    0.2403387   -0.3930091
   0.0041220   -0.0195453    0.0024815    0.9785818    0.1595795    0.1300463
   0.0042008   -0.0185101    0.0019974    0.9935080    0.1041445    0.0457799
   0.0042621   -0.0210417    0.0020606    0.9717897    0.2353500   -0.0153341
   0.0009074   -0.0233190    0.0005239   -0.0591369   -0.0385397   -0.9975056
   0.0016964   -0.0238580    0.0004959   -0.0185234    0.0249847   -0.9995162
   0.0033036   -0.0229483    0.0009198    0.3006916    0.1600461   -0.9401967
   0.0029333   -0.0234209    0.0006881    0.2314911    0.1655255   -0.9586517
   0.0024564   -0.0233935    0.0005973    0.1195815    0.0686659   -0.9904470
   0.0008928   -0.0223068    0.0005048   -0.0896757   -0.0382044   -0.9952380
   0.0043380   -0.0230246    0.0014049    0.7440632    0.2126412   -0.6333669
   0.0039195   -0.0234903    0.0010878    0.3845485    0.2120557   -0.8984180
   0.0000179   -0.0217645    0.0005672   -0.2579020   -0.0496874   -0.9648926
  -0.0022409   -0.0181608    0.0011327   -0.7044846   -0.4449492   -0.5529211
  -0.0026622   -0.0166098    0.0008560   -0.8219270   -0.3694177   -0.4335511
  -0.0017710   -0.0222273    0.0012037   -0.6448057   -0.0005966   -0.7643463
  -0.0019734   -0.0237269    0.0010930   -0.5263766    0.0570397   -0.8483361
  -0.0008698   -0.0227469    0.0007773   -0.2854483   -0.0122713   -0.9583156
  -0.0018758   -0.0207183    0.0013850   -0.7627806   -0.1614276   -0.6261844
  -0.0018560   -0.0212249    0.0014022   -0.8320009   -0.1082248   -0.5441156
  -0.0020198   -0.0202172    0.0015522   -0.8316759   -0.2107312   -0.5137194
  -0.0023146   -0.0186920    0.0016153   -0.8946102   -0.3213624   -0.3104816
  -0.0007881   -0.0237562    0.0007091   -0.1925316    0.0424039   -0.9803742
   0.0040624   -0.0175188    0.0024242    0.9388546    0.1344271    0.3169881
  -0.0036310   -0.0099009   -0.0007469   -0.5368576   -0.3085218   -0.7852377
  -0.0033403   -0.0119556   -0.0003960   -0.5108730   -0.3056401   -0.8034880
  -0.0036772   -0.0093841   -0.0008921   -0.5180058   -0.3253782   -0.7910746
  -0.0038456   -0.0088708   -0.0008959   -0.6812667   -0.3172600   -0.6597134
  -0.0041336   -0.0077898   -0.0009297   -0.7323420   -0.3292798   -0.5960285
  -0.0030675   -0.0058015   -0.0021181   -0.3201111   -0.1881708   -0.9285045
  -0.0034864   -0.0063028   -0.0018504   -0.4267751   -0.3002656   -0.8530554
  -0.0038112   -0.0066864   -0.0015250   -0.4574286   -0.3307614   -0.8254429
  -0.0042434   -0.0064000   -0.0012732   -0.6521933   -0.2987439   -0.6967037
  -0.0040896   -0.0063014   -0.0014402   -0.6012688   -0.2680022   -0.7527620
  -0.0023287   -0.0053199   -0.0022950   -0.2060447    0.0863743   -0.9747231
  -0.0012822   -0.0043075   -0.0023322   -0.3270000    0.3957126   -0.8581856
  -0.0022029   -0.0045502   -0.0021168   -0.3406915    0.3467626   -0.8738907
  -0.0033250   -0.0052908   -0.0020216   -0.4181869    0.0623489   -0.9062187
  -0.0033502   -0.0135198    0.0003981   -0.8656889   -0.4201224   -0.2721763
  -0.0030284   -0.0150990    0.0012022   -0.9275607   -0.3620095   -0.0926292
  -0.0028610   -0.0155823    0.0007223   -0.8960507   -0.3389119   -0.2867610
  -0.0034774   -0.0130028    0.0003139   -0.8673274   -0.3704105   -0.3324743
  -0.0033980   -0.0124725   -0.0001651   -0.7638725   -0.3887858   -0.5151160
  -0.0010276   -0.0037421   -0.0019184   -0.2556034    0.6746674   -0.6924527
   0.0035147   -0.0135105    0.0033517    0.7240583    0.1023936    0.6820961
   0.0038135   -0.0185568    0.0030644    0.8514256    0.1429940    0.5046060
   0.0033484   -0.0140187    0.0035152    0.6861014    0.0782306    0.7232875
   0.0031515   -0.0145231    0.0036594    0.6147740    0.0802024    0.7846149
   0.0031764   -0.0160402    0.0036898    0.6922338    0.1190627    0.7117839
   0.0031780   -0.0165472    0.0036961    0.6752648    0.1250444    0.7268985
   0.0031656   -0.0155354    0.0036781    0.6895099    0.1246763    0.7134647
   0.0042834   -0.0118472    0.0025048    0.8116654    0.0242779    0.5836179
   0.0051610   -0.0081716    0.0017057    0.9473570    0.0377064    0.3179511
   0.0050823   -0.0074333    0.0019111    0.8399783    0.1305856    0.5266724
   0.0047782   -0.0059081    0.0019688    0.8269112    0.3369758    0.4501835
   0.0051432   -0.0058747    0.0011491    0.8557899    0.4490204    0.2569131
   0.0050185   -0.0089435    0.0018865    0.9219644    0.0079332    0.3871933
   0.0047945   -0.0084524    0.0022656    0.7704070    0.0559026    0.6350968
   0.0049348   -0.0084479    0.0020911    0.9372351    0.0230282    0.3479369
   0.0037339   -0.0083646    0.0031750    0.6394985    0.0277600    0.7682910
   0.0038668   -0.0099699    0.0030120    0.6876885    0.0960352    0.7196262
   0.0040154   -0.0114833    0.0028580    0.6852251    0.0745394    0.7245071
   0.0038537   -0.0104741    0.0030090    0.6330450    0.0625323    0.7715852
   0.0031194   -0.0041398   -0.0009089    0.1110763    0.9910643   -0.0738488
   0.0035727   -0.0043161   -0.0011486    0.2546947    0.9076896   -0.3335118
   0.0020203   -0.0039546   -0.0008085    0.0999370    0.9542867    0.2816905
   0.0026395   -0.0040168   -0.0009467    0.0676810    0.9957237    0.0628771
  -0.0001500   -0.0033827   -0.0016387   -0.1172887    0.7618806   -0.6370097
   0.0020649   -0.0041155   -0.0005179    0.0842859    0.9082644    0.4098191
   0.0007716   -0.0033735   -0.0005438    0.3693342    0.8598083    0.3525932
   0.0014789   -0.0039453   -0.0003605    0.3421047    0.8692594    0.3568647
   0.0019857   -0.0041875   -0.0003048    0.1256056    0.9202608    0.3705985
   0.0006159   -0.0032304   -0.0011649    0.2246343    0.9182719   -0.3260616
   0.0006919   -0.0032233   -0.0008563    0.2753652    0.9549913    0.1102976
   0.0001118   -0.0031106   -0.0012173   -0.0492253    0.9172827   -0.3951825
   0.0039865   -0.0046557   -0.0013670    0.3604640    0.7954298   -0.4871932
   0.0045875   -0.0048336   -0.0010364    0.5443906    0.7038582   -0.4563141
   0.0047842   -0.0049981   -0.0009130    0.7300622    0.5700039   -0.3769679
   0.0051796   -0.0056188    0.0006461    0.7739109    0.6203543    0.1273672
   0.0047011   -0.0048833    0.0000800    0.6274466    0.7752835    0.0724306
   0.0048594   -0.0049619   -0.0006050    0.6428649    0.7557926   -0.1245081
   0.0043654   -0.0220457    0.0018734    0.9665616    0.2398684   -0.0906741
   0.0040744   -0.0205690    0.0027239    0.8830714    0.1547487    0.4429873
   0.0043193   -0.0220734    0.0023679    0.9092246    0.1774880    0.3765750
   0.0016526   -0.0243605    0.0004741   -0.0462423    0.0462967   -0.9978568
   0.0025039   -0.0238977    0.0005525    0.0547709    0.1057016   -0.9928884
   0.0008819   -0.0243277    0.0005180   -0.0758757    0.1124158   -0.9907601
   0.0031321   -0.0249321    0.0004616    0.1775631    0.2388265   -0.9546901
   0.0044198   -0.0235338    0.0013989    0.7286853    0.3015197   -0.6149013
   0.0045377   -0.0235597    0.0017338    0.9603704    0.2779890    0.0202692
   0.0040774   -0.0240003    0.0010260    0.3974484    0.2765326   -0.8749654
  -0.0025608   -0.0176875    0.0019059   -0.9342290   -0.3566698   -0.0016699
  -0.0025264   -0.0176467    0.0012118   -0.8771024   -0.4420734   -0.1877832
  -0.0029344   -0.0156070    0.0011995   -0.9492906   -0.3121212   -0.0377848
  -0.0026821   -0.0171453    0.0013716   -0.9413167   -0.3328633   -0.0559000
  -0.0019761   -0.0227322    0.0013429   -0.9389297   -0.0168872   -0.3436943
  -0.0016453   -0.0242311    0.0008364   -0.3965607    0.1214228   -0.9099429
  -0.0022187   -0.0242261    0.0012069   -0.8712862    0.0695880   -0.4858167
  -0.0020294   -0.0207289    0.0016688   -0.9156857   -0.1922090   -0.3529523
  -0.0021344   -0.0217562    0.0020193   -0.9879163   -0.1033105   -0.1155353
  -0.0021306   -0.0212503    0.0020165   -0.9794707   -0.1780112   -0.0945995
  -0.0022408   -0.0194308    0.0019298   -0.9566496   -0.2420783   -0.1619246
  -0.0022688   -0.0192341    0.0021722   -0.9515022   -0.2438009    0.1876290
  -0.0003752   -0.0246156    0.0005250   -0.1573684    0.1943525   -0.9682264
  -0.0009470   -0.0242527    0.0006891   -0.2270047    0.1730808   -0.9583903
  -0.0041780   -0.0094055   -0.0001569   -0.8433581   -0.3206018   -0.4312327
  -0.0037468   -0.0114476   -0.0001305   -0.8533658   -0.3376298   -0.3972064
  -0.0041744   -0.0083641   -0.0006879   -0.8151733   -0.3372532   -0.4709063
  -0.0042477   -0.0088955   -0.0002051   -0.8696941   -0.3520440   -0.3459729
  -0.0047769   -0.0068618   -0.0000310   -0.9445211   -0.2276860   -0.2367254
  -0.0045609   -0.0068313   -0.0006817   -0.8823034   -0.2969485   -0.3651880
  -0.0047754   -0.0073822    0.0002364   -0.9172890   -0.3268018   -0.2275554
  -0.0044202   -0.0063048   -0.0011226   -0.7958725   -0.2524270   -0.5503340
  -0.0037830   -0.0057887   -0.0017783   -0.5445634   -0.1469147   -0.8257523
  -0.0043166   -0.0057925   -0.0013249   -0.7479871   -0.1119654   -0.6542010
  -0.0030005   -0.0050578   -0.0020839   -0.3244565    0.1944316   -0.9257021
  -0.0025118   -0.0045366   -0.0020472   -0.3205239    0.4036450   -0.8569336
  -0.0017114   -0.0041417   -0.0020774   -0.3845497    0.5448821   -0.7451342
  -0.0021379   -0.0040748   -0.0018199   -0.4337766    0.6207715   -0.6530549
  -0.0020179   -0.0042329   -0.0020053   -0.4426537    0.5261271   -0.7261184
  -0.0037318   -0.0051465   -0.0017528   -0.5782905    0.1305903   -0.8053113
  -0.0039548   -0.0052863   -0.0016281   -0.6624189    0.0304023   -0.7485165
  -0.0031265   -0.0046531   -0.0019046   -0.3717781    0.4239824   -0.8258450
  -0.0034333   -0.0047927   -0.0018322   -0.5007334    0.2654030   -0.8239098
  -0.0034145   -0.0135461    0.0008814   -0.9331361   -0.3508422    0.0785287
  -0.0030856   -0.0146170    0.0016193   -0.9140466   -0.2807064    0.2927845
  -0.0038659   -0.0114696    0.0003188   -0.9344728   -0.3345980   -0.1216750
  -0.0036063   -0.0125413    0.0011129   -0.9241440   -0.3226825    0.2045334
  -0.0007674   -0.0033981   -0.0014987   -0.3548824    0.7675906   -0.5337258
  -0.0016430   -0.0038216   -0.0017767   -0.3924742    0.7144715   -0.5792188
   0.0034558   -0.0104727    0.0032850    0.7294976    0.0895377    0.6780975
   0.0029581   -0.0135120    0.0037907    0.5220419    0.0921956    0.8479223
   0.0029130   -0.0114863    0.0037424    0.5327979    0.1109602    0.8389364
   0.0032367   -0.0195832    0.0037626    0.6803789    0.1014763    0.7258010
   0.0024762   -0.0129978    0.0040092    0.3418072    0.1040971    0.9339870
   0.0025964   -0.0165460    0.0041192    0.4952843    0.0899627    0.8640603
   0.0027753   -0.0175587    0.0040279    0.4508477    0.0751036    0.8894357
   0.0028552   -0.0185732    0.0040387    0.4704729    0.1160888    0.8747449
   0.0050517   -0.0084642    0.0019024    0.9409027   -0.0004602    0.3386767
   0.0050552   -0.0084416    0.0019044    0.8829007    0.0439253    0.4675007
   0.0049323   -0.0079427    0.0020845    0.8578555    0.0929684    0.5054115
   0.0048910   -0.0079431    0.0021301    0.7738685    0.1100604    0.6237100
   0.0047925   -0.0079472    0.0022595    0.8171225    0.0571776    0.5736215
   0.0044143   -0.0069514    0.0027989    0.7550258    0.1624107    0.6352628
   0.0045514   -0.0053567    0.0020838    0.8524065    0.3833075    0.3556383
   0.0041906   -0.0049116    0.0026397    0.7917573    0.3916982    0.4687141
   0.0048222   -0.0052748    0.0012052    0.7617750    0.6280014    0.1591006
   0.0044618   -0.0047890    0.0017608    0.7548210    0.6417215    0.1357894
   0.0049348   -0.0084479    0.0020911    0.9763146    0.0147539    0.2158523
   0.0049348   -0.0084479    0.0020911    0.9629598    0.0532704    0.2643307
   0.0036818   -0.0099717    0.0031590    0.5751638    0.0453059    0.8167827
   0.0034944   -0.0094664    0.0032990    0.6736147    0.0334785    0.7383241
   0.0032984   -0.0094663    0.0034389    0.6825934    0.0395124    0.7297294
   0.0030116   -0.0079578    0.0037688    0.5610834    0.0029994    0.8277538
   0.0034037   -0.0094646    0.0033503    0.5858243    0.0432330    0.8092841
   0.0030566   -0.0074561    0.0037857    0.5810086   -0.0028568    0.8138924
   0.0042375   -0.0074595    0.0029559    0.6693805    0.0078635    0.7428781
   0.0035116   -0.0104737    0.0032395    0.5904070    0.0620714    0.8047153
   0.0041123   -0.0044209   -0.0002898    0.2908133    0.9548525   -0.0606987
   0.0029126   -0.0041994   -0.0005138   -0.0356976    0.9446769    0.3260540
   0.0038018   -0.0043276   -0.0002222    0.1434114    0.9859093    0.0861160
  -0.0005785   -0.0032497   -0.0013830   -0.3415473    0.8872608   -0.3100220
   0.0013563   -0.0041193    0.0000880    0.2564897    0.9033216    0.3438359
   0.0004602   -0.0032685   -0.0004766    0.0813757    0.8797523    0.4684163
   0.0019495   -0.0043467    0.0001973    0.1883612    0.9704613    0.1507480
   0.0022605   -0.0044361    0.0001294    0.0481373    0.9724857    0.2279350
   0.0028772   -0.0044148   -0.0000106   -0.1188109    0.9358092    0.3318812
   0.0001872   -0.0030801   -0.0009096   -0.0755327    0.9953745    0.0593666
   0.0045118   -0.0047129   -0.0008236    0.3899955    0.8957309   -0.2134707
   0.0046612   -0.0049122    0.0005787    0.5064322    0.8586003   -0.0795735
   0.0047403   -0.0050333    0.0008906    0.7028974    0.7010225    0.1204272
   0.0045440   -0.0046937   -0.0005420    0.4743505    0.8802659   -0.0111177
   0.0045146   -0.0047938    0.0004865    0.4802715    0.8757199    0.0495365
   0.0044054   -0.0231961    0.0021709    0.9552612    0.1525124    0.2534086
   0.0033915   -0.0205910    0.0036072    0.7241600    0.1000729    0.6823326
   0.0042439   -0.0230939    0.0025926    0.8627791    0.1634123    0.4784439
   0.0037046   -0.0226072    0.0032989    0.7793838    0.1559406    0.6068307
   0.0035420   -0.0215980    0.0034491    0.7391172    0.1262228    0.6616446
   0.0019121   -0.0253763    0.0003836   -0.0762488    0.1313793   -0.9883955
   0.0012555   -0.0248475    0.0004817   -0.0391454    0.0932237   -0.9948754
  -0.0002291   -0.0252740    0.0003298   -0.0504430    0.2109149   -0.9762020
   0.0046224   -0.0250380    0.0010711    0.5835302    0.3901361   -0.7122404
   0.0041269   -0.0254906    0.0006096    0.3258455    0.3614820   -0.8735877
   0.0031895   -0.0252972    0.0003915    0.1735500    0.2257616   -0.9585990
   0.0027929   -0.0259107    0.0002114   -0.0115203    0.2073342   -0.9782023
   0.0036620   -0.0254636    0.0004988    0.1896132    0.2619326   -0.9462759
   0.0046936   -0.0245677    0.0015793    0.9270319    0.3650455   -0.0857534
   0.0046003   -0.0256499    0.0028393    0.8418742    0.3429923    0.4166582
   0.0039762   -0.0246350    0.0032259    0.7517565    0.2383266    0.6148680
  -0.0026750   -0.0171620    0.0016380   -0.9445885   -0.3166352    0.0865723
  -0.0025973   -0.0167025    0.0023341   -0.9103463   -0.2292210    0.3445684
  -0.0028377   -0.0161282    0.0013911   -0.9501394   -0.2686827    0.1582551
  -0.0022170   -0.0235686    0.0017243   -0.9952059    0.0255330   -0.0944106
  -0.0021535   -0.0222747    0.0022738   -0.9867706   -0.1522260    0.0557764
  -0.0021804   -0.0232720    0.0020783   -0.9921619   -0.0198889    0.1233663
  -0.0021126   -0.0227881    0.0023693   -0.9420334   -0.1367229    0.3063981
  -0.0016168   -0.0243473    0.0007976   -0.4226324    0.2036368   -0.8831273
  -0.0025699   -0.0257612    0.0017885   -0.9908687    0.0645318    0.1183848
  -0.0022987   -0.0252151    0.0009057   -0.8330088    0.1515785   -0.5320905
  -0.0024256   -0.0252680    0.0018732   -0.9753708    0.0298078    0.2185483
  -0.0021669   -0.0207579    0.0022506   -0.9817226   -0.1820471    0.0554940
  -0.0020609   -0.0217930    0.0025879   -0.9445279   -0.1347222    0.2995280
  -0.0021104   -0.0207780    0.0025471   -0.9096813   -0.1698676    0.3789787
  -0.0019855   -0.0197928    0.0028345   -0.8899413   -0.1438786    0.4327857
  -0.0020542   -0.0187789    0.0028237   -0.8283433   -0.2015395    0.5227134
  -0.0013201   -0.0252330    0.0004675   -0.2284976    0.2631143   -0.9373152
  -0.0045048   -0.0084173    0.0004150   -0.9317152   -0.3606968   -0.0424814
  -0.0039208   -0.0109566    0.0002256   -0.9446554   -0.3275506   -0.0183526
  -0.0047429   -0.0063423   -0.0002768   -0.9790107   -0.0871469   -0.1842375
  -0.0048719   -0.0068862    0.0004333   -0.9894735   -0.1428496    0.0231566
  -0.0047930   -0.0062357    0.0004756   -0.9968268    0.0532928    0.0591288
  -0.0047943   -0.0074131    0.0007481   -0.9316565   -0.3104527    0.1887732
  -0.0045577   -0.0058050   -0.0009513   -0.9153246   -0.0809030   -0.3945067
  -0.0043427   -0.0052958   -0.0011825   -0.8683590    0.0811092   -0.4892586
  -0.0028284   -0.0043222   -0.0017229   -0.3914349    0.7019085   -0.5950657
  -0.0017614   -0.0037431   -0.0015893   -0.4837004    0.8222434   -0.2999163
  -0.0020812   -0.0038629   -0.0015252   -0.4702988    0.8166907   -0.3344180
  -0.0040258   -0.0047913   -0.0014157   -0.7055624    0.2736435   -0.6536825
  -0.0032476   -0.0044484   -0.0017206   -0.3692488    0.5465346   -0.7516351
  -0.0030595   -0.0042787   -0.0016054   -0.2076252    0.7176904   -0.6646897
  -0.0035546   -0.0045319   -0.0016488   -0.5147451    0.4569713   -0.7254066
  -0.0032963   -0.0126048    0.0019103   -0.8581285   -0.2696880    0.4369026
  -0.0026310   -0.0145896    0.0026854   -0.8447442   -0.1889119    0.5007190
  -0.0026140   -0.0156993    0.0024456   -0.8851807   -0.2283208    0.4053699
  -0.0027124   -0.0136941    0.0027601   -0.7436202   -0.1575894    0.6497650
  -0.0029420   -0.0126553    0.0024729   -0.8070031   -0.1964734    0.5569060
  -0.0039630   -0.0105057    0.0011298   -0.9238717   -0.3003272    0.2372016
  -0.0035654   -0.0110719    0.0018168   -0.8422112   -0.2967918    0.4501054
  -0.0008850   -0.0033411   -0.0013109   -0.4436138    0.8396693   -0.3133087
   0.0032895   -0.0099695    0.0034381    0.5872676    0.0881507    0.8045782
   0.0034635   -0.0099693    0.0032849    0.9462672    0.0362716    0.3213452
   0.0034635   -0.0099693    0.0032849    0.8835912    0.0270427    0.4674776
   0.0026841   -0.0119886    0.0038668    0.3844488    0.0885976    0.9188850
   0.0026403   -0.0109747    0.0038298    0.4412741    0.0904536    0.8928019
   0.0028384   -0.0200883    0.0040434    0.5090331    0.0646795    0.8583134
   0.0026381   -0.0190759    0.0041705    0.4180886    0.0879117    0.9041424
   0.0010514   -0.0124478    0.0043418    0.1416433    0.0926524    0.9855723
   0.0013096   -0.0129639    0.0043307    0.1808293    0.0907250    0.9793211
   0.0023438   -0.0160362    0.0042192    0.3487731    0.0794278    0.9338354
   0.0008466   -0.0114264    0.0042897    0.0753934    0.0637931    0.9951112
   0.0015032   -0.0099330    0.0041595    0.2080347    0.0367421    0.9774311
   0.0013704   -0.0139809    0.0043788    0.1693381    0.0891685    0.9815160
   0.0019743   -0.0138916    0.0042300    0.2782286    0.1108722    0.9540944
   0.0016910   -0.0165239    0.0044280    0.1923206    0.0464758    0.9802310
   0.0018009   -0.0175375    0.0044196    0.2740346    0.0372543    0.9609980
   0.0014525   -0.0190404    0.0044799    0.2177288    0.0469813    0.9748779
   0.0034993   -0.0064501    0.0035334    0.6312132    0.0520575    0.7738604
   0.0033371   -0.0059476    0.0036892    0.6600072    0.1164311    0.7421821
   0.0039673   -0.0052503    0.0030275    0.6986344    0.2306732    0.6772739
   0.0040631   -0.0049165    0.0028220    0.7019648    0.3421053    0.6246675
   0.0042990   -0.0049049    0.0024456    0.8252576    0.4364980    0.3583566
   0.0041041   -0.0044293    0.0023197    0.6636413    0.7155569    0.2180793
   0.0038705   -0.0043872    0.0026971    0.5972351    0.6520322    0.4670806
   0.0045322   -0.0048603    0.0015440    0.6905597    0.7217719    0.0466117
   0.0044230   -0.0046661    0.0009511    0.5499455    0.8330709   -0.0596059
   0.0041858   -0.0044917    0.0013253    0.2810952    0.9593725    0.0242871
   0.0040176   -0.0043616    0.0020232    0.3490185    0.9223547   -0.1656742
   0.0034635   -0.0099693    0.0032849    0.9324519    0.0196011    0.3607621
   0.0024809   -0.0089539    0.0039540    0.4203698   -0.0218712    0.9070893
   0.0024366   -0.0099636    0.0039548    0.3876226    0.0425887    0.9208338
   0.0028010   -0.0059511    0.0041409    0.5847575    0.0701203    0.8081719
   0.0033777   -0.0043832    0.0000381   -0.1969913    0.9516157    0.2358432
   0.0043455   -0.0046112    0.0006410    0.5485612    0.8333397   -0.0680115
  -0.0003127   -0.0031312   -0.0009579   -0.3375462    0.9354578    0.1047918
  -0.0008101   -0.0032873   -0.0010035   -0.4723558    0.8577770    0.2027281
   0.0014041   -0.0041820    0.0006413    0.1772459    0.9825880    0.0557196
   0.0002766   -0.0038173    0.0007224    0.0697566    0.9973426    0.0210161
   0.0002995   -0.0035571   -0.0000507   -0.0122955    0.9049045    0.4254370
  -0.0004945   -0.0037577    0.0002430   -0.3674171    0.8613768    0.3507629
  -0.0000419   -0.0032341   -0.0005272   -0.2970155    0.8584766    0.4180905
   0.0024149   -0.0045248    0.0007490    0.1194451    0.9926716    0.0183282
   0.0027242   -0.0045674    0.0006804   -0.1043141    0.9865978    0.1254722
   0.0045209   -0.0048104    0.0007519    0.4176168    0.8836835   -0.2114228
   0.0028283   -0.0216028    0.0040522    0.5085729    0.0567994    0.8591434
   0.0037242   -0.0231138    0.0033161    0.7441634    0.1661182    0.6470128
   0.0033924   -0.0226122    0.0036279    0.6710525    0.1164085    0.7322142
   0.0020179   -0.0263802    0.0002051   -0.1794661    0.1802474   -0.9671105
   0.0009176   -0.0263333    0.0002619    0.0032362    0.1682355   -0.9857415
   0.0015330   -0.0269317    0.0001639   -0.1065875    0.1409753   -0.9842586
   0.0005843   -0.0258179    0.0003387    0.0477719    0.1782099   -0.9828322
  -0.0006080   -0.0260943    0.0001338   -0.1262236    0.2890241   -0.9489640
   0.0000999   -0.0272839   -0.0000762    0.1662240    0.2038346   -0.9647907
  -0.0005691   -0.0262543    0.0000808   -0.0391150    0.3214062   -0.9461332
   0.0047318   -0.0255390    0.0009257    0.7023112    0.3528925   -0.6182442
   0.0048750   -0.0255574    0.0011265    0.8661064    0.3777701   -0.3273369
   0.0047238   -0.0265564    0.0005718    0.5445701    0.3737243   -0.7508485
   0.0043370   -0.0264761    0.0003308    0.3753596    0.4272738   -0.8225219
   0.0035127   -0.0259514    0.0003406    0.0998867    0.3607734   -0.9272892
   0.0026899   -0.0264046    0.0000924   -0.1271323    0.2054971   -0.9703650
   0.0048383   -0.0256214    0.0022024    0.9174187    0.2953275    0.2666921
   0.0049937   -0.0261093    0.0017808    0.9602974    0.2137397    0.1792883
   0.0041996   -0.0256652    0.0033752    0.6188105    0.3063063    0.7233602
   0.0045638   -0.0261689    0.0030833    0.8450702    0.2104022    0.4915153
   0.0039567   -0.0255537    0.0034848    0.5205326    0.3137731    0.7940984
   0.0036298   -0.0247999    0.0035358    0.5873610    0.2260811    0.7771064
   0.0035778   -0.0236238    0.0034920    0.6063539    0.1234106    0.7855601
  -0.0022352   -0.0162565    0.0030136   -0.7540041   -0.1698705    0.6345248
  -0.0019743   -0.0233135    0.0026109   -0.8694135   -0.1021318    0.4834142
  -0.0016964   -0.0238599    0.0030583   -0.7797744   -0.1083448    0.6166144
  -0.0017789   -0.0223388    0.0030299   -0.7959992   -0.1406810    0.5887224
  -0.0021522   -0.0260744    0.0004824   -0.5426653    0.2582849   -0.7992517
  -0.0024935   -0.0257199    0.0010515   -0.9584606    0.1157630   -0.2606763
  -0.0026167   -0.0261144    0.0012405   -0.9924546    0.0444109   -0.1142873
  -0.0026638   -0.0262427    0.0014736   -0.9897950   -0.0517367    0.1327748
  -0.0024575   -0.0263036    0.0022911   -0.9265166   -0.1048454    0.3613510
  -0.0022247   -0.0258361    0.0027479   -0.8821772    0.0574062    0.4674055
  -0.0022882   -0.0253065    0.0023843   -0.9145508    0.0892052    0.3945115
  -0.0024453   -0.0267118    0.0005681   -0.8883194    0.0087614   -0.4591426
  -0.0019652   -0.0245437    0.0026749   -0.8467719   -0.0007545    0.5319556
  -0.0016476   -0.0213487    0.0032499   -0.7618734   -0.1477673    0.6306454
  -0.0018208   -0.0208244    0.0030654   -0.7793935   -0.1502571    0.6082505
  -0.0016178   -0.0188383    0.0034725   -0.7258475   -0.1430261    0.6728216
  -0.0018288   -0.0178097    0.0033171   -0.6779668   -0.1586505    0.7177681
  -0.0018933   -0.0167986    0.0033570   -0.7003759   -0.1542008    0.6969188
  -0.0014182   -0.0260773    0.0001535   -0.2274602    0.3266385   -0.9173708
  -0.0043637   -0.0089526    0.0008170   -0.9280198   -0.3409637    0.1500765
  -0.0043855   -0.0079926    0.0016561   -0.8895598   -0.3443482    0.3001793
  -0.0042303   -0.0094667    0.0008571   -0.9090390   -0.3512348    0.2242370
  -0.0045661   -0.0053637    0.0000850   -0.9696722    0.2039308    0.1347144
  -0.0047415   -0.0058703    0.0002427   -0.9789981    0.1559939    0.1312580
  -0.0045616   -0.0053149   -0.0006973   -0.9846017    0.1249864   -0.1222209
  -0.0046998   -0.0069421    0.0012350   -0.9267280   -0.1075456    0.3600127
  -0.0048014   -0.0064022    0.0007336   -0.9581413    0.0764508    0.2758997
  -0.0044529   -0.0059414    0.0012068   -0.9231445    0.2063839    0.3243607
  -0.0043314   -0.0075097    0.0019693   -0.8299822   -0.2264801    0.5097414
  -0.0043243   -0.0047020   -0.0008176   -0.8964603    0.4189119   -0.1444705
  -0.0042106   -0.0046054   -0.0010092   -0.8414896    0.4308133   -0.3260295
  -0.0041742   -0.0047943   -0.0012464   -0.7805042    0.3357414   -0.5273432
  -0.0023009   -0.0038118   -0.0011393   -0.3486440    0.9325411   -0.0938854
  -0.0031075   -0.0039637   -0.0011153   -0.3338383    0.9034786   -0.2688464
  -0.0018025   -0.0037080   -0.0010922   -0.4209266    0.9021909    0.0941932
  -0.0036735   -0.0044126   -0.0014624   -0.5990418    0.6203636   -0.5062588
  -0.0037201   -0.0041618   -0.0009708   -0.6285971    0.7105012   -0.3163127
  -0.0031791   -0.0041323   -0.0014197   -0.3420117    0.7321143   -0.5890982
  -0.0030454   -0.0121409    0.0024035   -0.7659432   -0.2211536    0.6036739
  -0.0025012   -0.0147229    0.0029153   -0.7710185   -0.1601030    0.6163582
  -0.0023544   -0.0142342    0.0030778   -0.6629442   -0.1116308    0.7402996
  -0.0026017   -0.0121928    0.0029163   -0.6873306   -0.1421020    0.7123087
  -0.0016858   -0.0127839    0.0036262   -0.5298582   -0.0776630    0.8445228
  -0.0017271   -0.0117714    0.0036287   -0.4998979   -0.0922078    0.8611619
  -0.0038972   -0.0100317    0.0015925   -0.8840977   -0.2998862    0.3583845
  -0.0039985   -0.0095175    0.0015243   -0.8914470   -0.3218364    0.3189727
  -0.0033798   -0.0106072    0.0023504   -0.7157457   -0.2370085    0.6569133
  -0.0036352   -0.0096938    0.0022746   -0.7186570   -0.2672966    0.6419382
  -0.0037540   -0.0100603    0.0019432   -0.8458098   -0.3191879    0.4274632
   0.0022429   -0.0104621    0.0040055    0.3204504    0.0438913    0.9462479
   0.0020845   -0.0200721    0.0043594    0.2653052    0.0274888    0.9637725
   0.0021809   -0.0205793    0.0043241    0.3476155    0.0327313    0.9370657
   0.0005760   -0.0134410    0.0044033    0.0237561    0.0511518    0.9984083
   0.0005085   -0.0119175    0.0043259   -0.0624656    0.0493866    0.9968245
   0.0017683   -0.0155142    0.0043796    0.2228677    0.0742367    0.9720179
   0.0007671   -0.0104089    0.0042406    0.0757183    0.0101221    0.9970779
   0.0003684   -0.0098860    0.0042389   -0.0649214   -0.0353221    0.9972650
  -0.0007137   -0.0093211    0.0040843   -0.1667135   -0.0272589    0.9856285
   0.0012386   -0.0089146    0.0042423    0.1796281   -0.0378718    0.9830053
   0.0010233   -0.0144728    0.0044296    0.0665116    0.0433256    0.9968446
   0.0009137   -0.0185144    0.0045230    0.0037010   -0.0079498    0.9999616
   0.0003459   -0.0169697    0.0044829   -0.0651091    0.0020273    0.9978761
   0.0010353   -0.0195268    0.0044872    0.0323820   -0.0131306    0.9993893
   0.0033123   -0.0053743    0.0036680    0.6454795    0.2307998    0.7280711
   0.0027197   -0.0049320    0.0040799    0.5452469    0.3169491    0.7760471
   0.0035274   -0.0046375    0.0032711    0.6064886    0.4532727    0.6532345
   0.0039072   -0.0042551    0.0021959    0.3415977    0.9398463    0.0000742
   0.0029094   -0.0044110    0.0036697    0.5004949    0.5538628    0.6653878
   0.0034395   -0.0041532    0.0029503    0.2905525    0.9465837    0.1398521
   0.0032251   -0.0045571    0.0007298   -0.1507795    0.9856085   -0.0764295
   0.0037145   -0.0042382    0.0020760    0.0196254    0.9751715   -0.2205796
   0.0023202   -0.0059419    0.0043651    0.3829232    0.0015315    0.9237789
   0.0020488   -0.0058559    0.0044573    0.2588925   -0.0490588    0.9646595
   0.0025828   -0.0054419    0.0042616    0.4470315    0.1456139    0.8825868
  -0.0007310   -0.0034199   -0.0006916   -0.4571102    0.7576485    0.4658529
  -0.0017242   -0.0037981   -0.0007814   -0.3807184    0.8035870    0.4574947
  -0.0003469   -0.0033933   -0.0004533   -0.4546240    0.7880246    0.4151316
   0.0012873   -0.0041638    0.0008301    0.1757859    0.9842460    0.0189519
   0.0015580   -0.0042570    0.0012607    0.2014483    0.9782960   -0.0485332
   0.0011691   -0.0040874    0.0010175    0.3231047    0.9322910   -0.1625942
   0.0012832   -0.0041625    0.0008366    0.4443094    0.8936941   -0.0624495
  -0.0000323   -0.0038076    0.0007918   -0.2418788    0.9626970    0.1212814
  -0.0000731   -0.0037784    0.0012891   -0.3377559    0.9363263   -0.0959895
   0.0000051   -0.0037007    0.0002913   -0.1965921    0.9476613    0.2515743
   0.0001922   -0.0036635    0.0017144   -0.2154092    0.8722838   -0.4389987
   0.0011258   -0.0039610    0.0015123    0.2261481    0.9026264   -0.3662275
  -0.0014510   -0.0039922   -0.0003482   -0.4283037    0.8101638    0.4002382
  -0.0007644   -0.0037054   -0.0001865   -0.5016240    0.7646406    0.4045962
  -0.0014876   -0.0041437    0.0001534   -0.4206950    0.8882824    0.1843098
  -0.0012198   -0.0041028    0.0005805   -0.4190592    0.9017956    0.1056129
   0.0026843   -0.0045693    0.0011784   -0.0673977    0.9873566   -0.1434731
   0.0017519   -0.0043147    0.0013815    0.1689854    0.9771891   -0.1286288
   0.0030037   -0.0226125    0.0039098    0.5526169    0.0486006    0.8320172
   0.0018994   -0.0210762    0.0043814    0.2006258   -0.0009140    0.9796675
   0.0026610   -0.0246213    0.0039786    0.3058212   -0.0118069    0.9520157
   0.0025591   -0.0221013    0.0041515    0.3544463    0.0174815    0.9349129
   0.0023319   -0.0264707    0.0001323   -0.1749485    0.1457849   -0.9737247
   0.0018145   -0.0268720    0.0001348   -0.1676492    0.1279775   -0.9775047
   0.0010390   -0.0272044    0.0001211    0.0466464    0.1132549   -0.9924704
   0.0018154   -0.0273736    0.0000820   -0.1133921    0.0575296   -0.9918833
   0.0003531   -0.0278056   -0.0000226    0.2332610   -0.0123857   -0.9723353
  -0.0009781   -0.0277160   -0.0004568    0.1121757    0.0815071   -0.9903399
  -0.0010081   -0.0272165   -0.0003649    0.0171943    0.2969485   -0.9547387
  -0.0008542   -0.0270036   -0.0002717    0.0479124    0.3647277   -0.9298807
  -0.0014774   -0.0267839   -0.0001376   -0.2152324    0.3777564   -0.9005416
  -0.0014869   -0.0262133    0.0001122   -0.2975844    0.3480731   -0.8889818
   0.0050563   -0.0275375    0.0005263    0.7677213    0.3236929   -0.5530162
   0.0051033   -0.0265752    0.0010692    0.9124695    0.3103173   -0.2666508
   0.0050360   -0.0260831    0.0013305    0.9235573    0.3141265   -0.2199239
   0.0050603   -0.0262381    0.0013007    0.9501923    0.2967615   -0.0952215
   0.0048562   -0.0272254    0.0003990    0.6366820    0.4053375   -0.6560012
   0.0043818   -0.0274796   -0.0001103    0.3832238    0.2573213   -0.8870881
   0.0039531   -0.0265201    0.0000932    0.2371856    0.4498793   -0.8610178
   0.0047619   -0.0275111    0.0001388    0.6388838    0.3301951   -0.6948372
   0.0038355   -0.0269478   -0.0001204    0.0179995    0.2829792   -0.9589571
   0.0032663   -0.0267992   -0.0000690   -0.0989628    0.2660105   -0.9588768
   0.0030576   -0.0274183   -0.0001224   -0.1293907   -0.0164952   -0.9914565
   0.0047009   -0.0271581    0.0026550    0.9398173    0.0638036    0.3356672
   0.0046320   -0.0281599    0.0025537    0.9407973    0.1377484    0.3097188
   0.0044607   -0.0266813    0.0032858    0.8570367    0.1044052    0.5045668
   0.0052435   -0.0280869    0.0009098    0.9841501    0.1773317    0.0013991
   0.0041310   -0.0266868    0.0036045    0.5454499    0.1422812    0.8259785
   0.0037815   -0.0256619    0.0036386    0.4524943    0.2373909    0.8595897
   0.0034715   -0.0251471    0.0037024    0.3803386    0.1287024    0.9158484
  -0.0015704   -0.0163266    0.0036666   -0.5912069   -0.0889577    0.8015990
  -0.0018020   -0.0152943    0.0034683   -0.6191214   -0.1039584    0.7783838
  -0.0016110   -0.0243741    0.0031544   -0.7425490   -0.0523201    0.6677451
  -0.0016338   -0.0233621    0.0031304   -0.7062290   -0.1170256    0.6982446
  -0.0019070   -0.0265985    0.0001171   -0.5028421    0.2307525   -0.8330085
  -0.0021647   -0.0266931    0.0002190   -0.6541792    0.1360834   -0.7439966
  -0.0025869   -0.0262168    0.0009981   -0.9568344    0.0046193   -0.2905970
  -0.0026746   -0.0267321    0.0012106   -0.9839458   -0.1578300   -0.0833087
  -0.0025428   -0.0267870    0.0020294   -0.9208513   -0.1865923    0.3423685
  -0.0026346   -0.0267654    0.0017446   -0.9625152   -0.1732375    0.2086944
  -0.0021768   -0.0273555    0.0027672   -0.8954086   -0.2161391    0.3892650
  -0.0020133   -0.0263861    0.0033035   -0.8554422   -0.0852094    0.5108404
  -0.0018330   -0.0258957    0.0034114   -0.6784723    0.1024526    0.7274468
  -0.0017884   -0.0255706    0.0033179   -0.6878143    0.1566422    0.7087840
  -0.0019746   -0.0253540    0.0029385   -0.8288630    0.1105994    0.5484103
  -0.0022921   -0.0276943    0.0001503   -0.8213081   -0.0659144   -0.5666641
  -0.0025409   -0.0272158    0.0007752   -0.9462451   -0.1519052   -0.2855608
  -0.0026008   -0.0272277    0.0009997   -0.9617040   -0.2224684   -0.1601037
  -0.0015537   -0.0248933    0.0033253   -0.7182009    0.0739244    0.6918979
  -0.0013473   -0.0208782    0.0035962   -0.6646988   -0.1162244    0.7380158
  -0.0011916   -0.0244198    0.0035707   -0.5683339   -0.0682181    0.8199651
  -0.0012179   -0.0198845    0.0037541   -0.5544881   -0.1054145    0.8254882
  -0.0011172   -0.0178769    0.0038939   -0.5106747   -0.1069942    0.8530906
  -0.0011461   -0.0173718    0.0039084   -0.4907797   -0.1126645    0.8639687
  -0.0013657   -0.0168504    0.0037994   -0.5485832   -0.1146418    0.8281991
  -0.0039999   -0.0090396    0.0019607   -0.8024921   -0.3051703    0.5127158
  -0.0042197   -0.0054572    0.0013469   -0.9489572    0.1757100    0.2619280
  -0.0040249   -0.0045061    0.0004125   -0.8646530    0.4767984    0.1582355
  -0.0044730   -0.0050313   -0.0001222   -0.9498369    0.2863818    0.1256794
  -0.0041227   -0.0049436    0.0011404   -0.9407502    0.2645380    0.2121525
  -0.0042520   -0.0045625   -0.0005123   -0.8518747    0.5195011    0.0665441
  -0.0043457   -0.0070038    0.0019600   -0.7788671   -0.0192167    0.6268946
  -0.0043682   -0.0064869    0.0017877   -0.8787239    0.1032753    0.4660242
  -0.0041638   -0.0054732    0.0015656   -0.9357353    0.1346690    0.3259812
  -0.0039882   -0.0078577    0.0022985   -0.6732476   -0.1826788    0.7164958
  -0.0037602   -0.0041675   -0.0004725   -0.6086865    0.7922442    0.0430100
  -0.0038354   -0.0042020   -0.0007803   -0.7218239    0.6904313   -0.0476945
  -0.0020307   -0.0038816   -0.0007095   -0.3282826    0.7937198    0.5120932
  -0.0025030   -0.0038887   -0.0008061   -0.2265554    0.9472961    0.2265009
  -0.0028401   -0.0039210   -0.0006881   -0.1628006    0.9655317    0.2030872
  -0.0030007   -0.0111470    0.0026330   -0.6392686   -0.1656667    0.7509262
  -0.0012650   -0.0138278    0.0038743   -0.4582251   -0.0552491    0.8871174
  -0.0008292   -0.0128484    0.0040477   -0.3650051   -0.0565812    0.9292846
  -0.0011362   -0.0108054    0.0039028   -0.3655307   -0.0673673    0.9283582
  -0.0008097   -0.0118406    0.0040500   -0.3611622   -0.0343728    0.9318693
  -0.0031848   -0.0081155    0.0027377   -0.5140584   -0.1597862    0.8427410
  -0.0012408   -0.0087825    0.0039430   -0.3555970   -0.1392733    0.9242044
  -0.0018497   -0.0087367    0.0036326   -0.4928365   -0.1571971    0.8558044
  -0.0024377   -0.0083283    0.0032659   -0.5556465   -0.1627365    0.8153366
  -0.0032397   -0.0101277    0.0025242   -0.5591185   -0.1747017    0.8104726
  -0.0035295   -0.0090941    0.0024966   -0.5349445   -0.1850447    0.8243742
