NORM_ASCII
770 1550
  -0.0851250   -0.0748248   -0.0417361    0.6332107   -0.6342495    0.4435896
  -0.0782174   -0.0685009   -0.0356499    0.4645225   -0.6692504    0.5799334
  -0.0734722   -0.0502096   -0.0493641   -0.5623755    0.2839185    0.7766106
  -0.0818496   -0.0758553   -0.0449520    0.7670055   -0.5957405    0.2383189
  -0.0703691   -0.0409310   -0.0523248   -0.6132868    0.3143746    0.7246019
  -0.0768349   -0.0244634   -0.0835616   -0.7632024    0.1894039    0.6177769
  -0.0719188   -0.0216005   -0.0763319   -0.7388243    0.1372148    0.6597808
  -0.0666941   -0.0201984   -0.0683031   -0.7456892    0.0731604    0.6622652
  -0.0618386   -0.0205190   -0.0580376   -0.7555990    0.0504976    0.6530851
  -0.0860545   -0.0502628   -0.0804498    0.8429313   -0.2105631   -0.4951061
  -0.0899169   -0.0698884   -0.0690521    0.8589062   -0.1192236   -0.4980622
  -0.0877842   -0.0741511   -0.0596125    0.7559898   -0.0634168   -0.6515042
  -0.0796984   -0.0735900   -0.0485964    0.6635536   -0.2533005   -0.7039428
  -0.0798505   -0.0752436   -0.0464599    0.8298113   -0.5320295   -0.1683979
  -0.0813781   -0.0279923   -0.0930560    0.7229653   -0.1465005   -0.6751732
  -0.0887045   -0.0268373   -0.1016801   -0.9906294    0.1063166   -0.0857326
  -0.0836425   -0.0168045   -0.1004211   -0.1287058    0.0775523   -0.9886458
  -0.0797073   -0.0200617   -0.0900595   -0.5642426   -0.1460384    0.8125904
  -0.0757535   -0.0171771   -0.0848973   -0.6349521   -0.2781202    0.7207530
  -0.0853424   -0.0244370   -0.0962675   -0.6722178   -0.0512220    0.7385794
  -0.0703088   -0.0612768   -0.0310855    0.0903872   -0.3047221    0.9481427
  -0.0715154   -0.0586599   -0.0309906   -0.2750955    0.1405287    0.9510910
  -0.0711779   -0.0571015   -0.0315337   -0.6242412    0.5801214    0.5232419
  -0.0695471   -0.0555474   -0.0350038   -0.6497434    0.7484296    0.1329909
  -0.0664885   -0.0547052   -0.0384414   -0.6826254    0.6970088    0.2195477
  -0.0656792   -0.0528105   -0.0408810   -0.6016558    0.4541233    0.6571014
  -0.0649551   -0.0472587   -0.0431044   -0.4627509    0.2779244    0.8417955
  -0.0773680   -0.0683578   -0.0374825    0.6870818   -0.7122896    0.1433949
  -0.0685321   -0.0623798   -0.0312803    0.4750983   -0.7235012    0.5008270
  -0.0627690   -0.0401572   -0.0447341   -0.5226559    0.2611227    0.8115699
  -0.0737997   -0.0677331   -0.0406364    0.7241683   -0.6635280    0.1879119
  -0.0582828   -0.0243398   -0.0489745   -0.7357957    0.0681783    0.6737629
  -0.0714503   -0.0158491   -0.0764103   -0.5841422   -0.4688913    0.6625095
  -0.0673734   -0.0144733   -0.0683723   -0.5462762   -0.5568594    0.6256915
  -0.0626769   -0.0146683   -0.0577301   -0.6607082   -0.4889952    0.5695159
  -0.0584707   -0.0183789   -0.0484140   -0.7322120   -0.3703363    0.5715913
  -0.0752920   -0.0271549   -0.0829888    0.7607122   -0.2170313   -0.6117306
  -0.0830303   -0.0486605   -0.0732684    0.8092976   -0.2698358   -0.5217528
  -0.0863000   -0.0655506   -0.0615442    0.7829619   -0.1960479   -0.5903693
  -0.0797212   -0.0638984   -0.0510540    0.5629768   -0.1439293   -0.8138436
  -0.0706259   -0.0643761   -0.0443837    0.4850691   -0.2806736   -0.8282091
  -0.0715959   -0.0668962   -0.0427905    0.7459186   -0.6208624   -0.2411125
  -0.0771777   -0.0158840   -0.0913849    0.6625941   -0.2422870   -0.7087074
  -0.0827554   -0.0179268   -0.0930679   -0.6215361   -0.2264905    0.7499299
  -0.0872039   -0.0217841   -0.1001030   -0.9742428    0.1024331    0.2008940
  -0.0835285   -0.0136801   -0.0989535   -0.8946177    0.2815717   -0.3469533
  -0.0760316   -0.0049703   -0.0985298   -0.2306314    0.1478923   -0.9617365
  -0.0798960   -0.0156153   -0.0888408   -0.4423224   -0.5154179    0.7339586
  -0.0765026   -0.0146829   -0.0839095   -0.2788299   -0.8066581    0.5211109
  -0.0741305   -0.0127010   -0.0746480   -0.1047481   -0.9345164    0.3401573
  -0.0671477   -0.0592542   -0.0295976    0.0119766   -0.2912834    0.9565618
  -0.0686304   -0.0569321   -0.0296895   -0.3100488    0.1218353    0.9428817
  -0.0688593   -0.0552334   -0.0313462   -0.6163249    0.6247194    0.4794468
  -0.0667090   -0.0541631   -0.0334317   -0.6645282    0.7434700    0.0751978
  -0.0637740   -0.0527176   -0.0372999   -0.6617335    0.6923764    0.2876173
  -0.0625323   -0.0503522   -0.0390512   -0.5906531    0.4444675    0.6734817
  -0.0610876   -0.0449307   -0.0410867   -0.4981708    0.2926289    0.8162072
  -0.0597988   -0.0393834   -0.0427373   -0.4857235    0.1982840    0.8513261
  -0.0679767   -0.0617988   -0.0340478    0.6605032   -0.7485215   -0.0587460
  -0.0660740   -0.0612603   -0.0301185    0.4275458   -0.7739151    0.4671830
  -0.0567805   -0.0276451   -0.0439215   -0.7161113    0.0412934    0.6967636
  -0.0658231   -0.0611761   -0.0364824    0.6345946   -0.7622006    0.1278279
  -0.0558286   -0.0206447   -0.0432264   -0.8068231   -0.2578274    0.5315652
  -0.0709672   -0.0118482   -0.0664913   -0.0048390   -0.9444754    0.3285465
  -0.0663283   -0.0102961   -0.0564485   -0.1839875   -0.8739049    0.4499320
  -0.0622829   -0.0086485   -0.0463700   -0.5150968   -0.6781836    0.5241586
  -0.0581393   -0.0110934   -0.0399912   -0.6932988   -0.4975382    0.5213371
  -0.0712528   -0.0156709   -0.0821653    0.6796197   -0.3257833   -0.6572536
  -0.0720238   -0.0266419   -0.0754987    0.7557037   -0.2746490   -0.5945417
  -0.0789170   -0.0467982   -0.0660353    0.7505073   -0.3134480   -0.5817982
  -0.0790229   -0.0592738   -0.0528008    0.6410869   -0.2442161   -0.7275755
  -0.0707169   -0.0584942   -0.0455686    0.3761820   -0.1002985   -0.9211012
  -0.0625894   -0.0585118   -0.0406267    0.4153917   -0.2316705   -0.8796468
  -0.0627875   -0.0608188   -0.0391092    0.6434071   -0.6991804   -0.3117277
  -0.0694655   -0.0067813   -0.0901829    0.5576306   -0.3962169   -0.7294246
  -0.0805388   -0.0128305   -0.0867417   -0.5057955   -0.6901490    0.5175570
  -0.0826090   -0.0140066   -0.0915161   -0.7641695   -0.3039688    0.5689006
  -0.0829233   -0.0113529   -0.0907286   -0.8848869    0.3974275    0.2429539
  -0.0822243   -0.0116951   -0.0986548   -0.7073870    0.6800070    0.1928579
  -0.0809214   -0.0097100   -0.0983554   -0.7434141    0.6687875    0.0076658
  -0.0782471   -0.0064194   -0.0981575   -0.8521928    0.5062625   -0.1321581
  -0.0747683   -0.0010598   -0.0958370   -0.8112028    0.5069695    0.2914309
  -0.0716068    0.0025960   -0.0955604   -0.8279272    0.5608311    0.0022202
  -0.0687713    0.0036715   -0.0948876    0.1105938    0.0651788   -0.9917261
  -0.0782816   -0.0137123   -0.0816075   -0.2634478   -0.9388882    0.2215494
  -0.0802194   -0.0127056   -0.0701351    0.0016731   -0.9875481    0.1573087
  -0.0793692   -0.0119039   -0.0619492    0.0509099   -0.9367814    0.3461918
  -0.0646895   -0.0581337   -0.0284358   -0.1303974   -0.3142667    0.9403366
  -0.0659629   -0.0552880   -0.0282770   -0.3225279    0.0708493    0.9439047
  -0.0647555   -0.0529588   -0.0288852   -0.5854692    0.6074397    0.5368825
  -0.0638835   -0.0522034   -0.0320721   -0.6554900    0.7485347    0.1001430
  -0.0605547   -0.0504905   -0.0355252   -0.6900434    0.6738167    0.2642178
  -0.0591931   -0.0487385   -0.0368551   -0.6193502    0.4642436    0.6331533
  -0.0582255   -0.0436878   -0.0389749   -0.5127082    0.2938205    0.8067217
  -0.0560981   -0.0384366   -0.0396690   -0.5031105    0.1468767    0.8516496
  -0.0547042   -0.0297687   -0.0398483   -0.6520605   -0.0858930    0.7532858
  -0.0653002   -0.0601510   -0.0326391    0.6338317   -0.7637740   -0.1220927
  -0.0637739   -0.0600047   -0.0285684    0.3862415   -0.8144734    0.4329558
  -0.0546071   -0.0236614   -0.0385530   -0.8166501   -0.2643478    0.5130331
  -0.0630950   -0.0597741   -0.0351313    0.5735111   -0.8058580    0.1472339
  -0.0554403   -0.0159929   -0.0348878   -0.8285885   -0.3434047    0.4421700
  -0.0736775   -0.0086575   -0.0533552   -0.0082155   -0.8079994    0.5891260
  -0.0664085   -0.0043342   -0.0442961   -0.3380001   -0.6674958    0.6634797
  -0.0600273   -0.0065009   -0.0378789   -0.5568599   -0.5757407    0.5986900
  -0.0558061   -0.0102191   -0.0316999   -0.7551191   -0.3737523    0.5386134
  -0.0642465   -0.0089668   -0.0806182    0.5456811   -0.5373821   -0.6430028
  -0.0671767   -0.0169970   -0.0750395    0.6686984   -0.3790519   -0.6396578
  -0.0687723   -0.0274981   -0.0678940    0.7397303   -0.3136556   -0.5953312
  -0.0725029   -0.0438188   -0.0567136    0.6988312   -0.3196706   -0.6398794
  -0.0707756   -0.0537670   -0.0463587    0.4972838   -0.1844364   -0.8477570
  -0.0623853   -0.0530544   -0.0408877    0.3039533   -0.0337080   -0.9520904
  -0.0585446   -0.0564551   -0.0384434    0.4039565   -0.2330719   -0.8845884
  -0.0598975   -0.0592296   -0.0372582    0.6546867   -0.6891034   -0.3106796
  -0.0617090    0.0007177   -0.0889162    0.4314170   -0.3456208   -0.8333221
  -0.0820022   -0.0107820   -0.0857382   -0.8581589   -0.2777544    0.4317590
  -0.0800601   -0.0127406   -0.0793064   -0.4956782   -0.8484324    0.1856493
  -0.0811714   -0.0105030   -0.0849845   -0.6519669    0.7350139    0.1862624
  -0.0808794   -0.0097702   -0.0907183   -0.7128500    0.6729775    0.1973478
  -0.0792005   -0.0085874   -0.0905718   -0.6369527    0.7166100    0.2841854
  -0.0745435   -0.0057460   -0.0908686   -0.5862414    0.6253989    0.5149730
  -0.0710948   -0.0028183   -0.0905512   -0.5571956    0.4741595    0.6816933
  -0.0684114    0.0003385   -0.0898156   -0.5682856    0.3528084    0.7433557
  -0.0688582    0.0062691   -0.0936530   -0.7361889    0.6711828   -0.0868311
  -0.0587451    0.0126886   -0.0900332    0.1419166    0.0703683   -0.9873743
  -0.0818765   -0.0125154   -0.0704083   -0.7514490   -0.5956073    0.2838597
  -0.0798705   -0.0113839   -0.0613484   -0.6230705   -0.5073284    0.5953160
  -0.0748571   -0.0072078   -0.0528617   -0.5246249   -0.2447826    0.8153834
  -0.0625507   -0.0572027   -0.0268461   -0.0913343   -0.3680551    0.9253072
  -0.0628114   -0.0547806   -0.0261260   -0.3024523    0.0202049    0.9529504
  -0.0625562   -0.0522699   -0.0273569   -0.5334466    0.5573147    0.6362665
  -0.0608271   -0.0502907   -0.0302531   -0.6538371    0.7312259    0.1944369
  -0.0571212   -0.0483222   -0.0333070   -0.7127875    0.6395635    0.2879104
  -0.0562533   -0.0463595   -0.0349183   -0.6663325    0.4511568    0.5936822
  -0.0546588   -0.0421311   -0.0363328   -0.5528119    0.3140120    0.7718779
  -0.0538310   -0.0381162   -0.0376639   -0.5145835    0.0992883    0.8516723
  -0.0529896   -0.0315250   -0.0375337   -0.6324897   -0.1659710    0.7565781
  -0.0529638   -0.0266917   -0.0355142   -0.7006766   -0.3829058    0.6020261
  -0.0626336   -0.0585068   -0.0312268    0.6277203   -0.7639332   -0.1495769
  -0.0606545   -0.0587817   -0.0271600    0.4215394   -0.8544554    0.3036619
  -0.0542670   -0.0204207   -0.0320670   -0.7514136   -0.4089732    0.5178016
  -0.0606321   -0.0582041   -0.0336255    0.6227588   -0.7689426    0.1445639
  -0.0540588   -0.0147862   -0.0277697   -0.7610715   -0.3182518    0.5652309
  -0.0667970   -0.0014400   -0.0434519   -0.6582793    0.0439475    0.7514898
  -0.0617195   -0.0007972   -0.0357245   -0.6468351   -0.2354516    0.7253736
  -0.0562898   -0.0042804   -0.0292816   -0.6824890   -0.3826041    0.6227543
  -0.0531632   -0.0109654   -0.0240522   -0.7228038   -0.2988813    0.6230768
  -0.0564181   -0.0033548   -0.0813252    0.3653087   -0.5165026   -0.7744512
  -0.0616712   -0.0105519   -0.0750313    0.4283334   -0.6320497   -0.6457892
  -0.0641844   -0.0191725   -0.0677507    0.6335867   -0.4414145   -0.6353905
  -0.0657702   -0.0294911   -0.0591677    0.6907802   -0.3506379   -0.6323573
  -0.0667745   -0.0424964   -0.0489515    0.5994386   -0.3106504   -0.7376786
  -0.0627685   -0.0483771   -0.0417990    0.4131826   -0.1769720   -0.8932867
  -0.0588247   -0.0513589   -0.0387949    0.2500640   -0.0375551   -0.9675007
  -0.0560021   -0.0541965   -0.0374599    0.3211945   -0.2057085   -0.9244015
  -0.0572955   -0.0572048   -0.0363342    0.6597924   -0.6626712   -0.3543175
  -0.0534995    0.0088506   -0.0855187    0.4013226   -0.2170524   -0.8898474
  -0.0815456   -0.0120660   -0.0781753   -0.9339304    0.0709422    0.3503443
  -0.0806459   -0.0089559   -0.0705828   -0.9152048    0.3761816    0.1445252
  -0.0794989   -0.0096321   -0.0857249   -0.5420226    0.8254705    0.1575120
  -0.0803934   -0.0096324   -0.0781731   -0.6497493    0.7534418    0.1007539
  -0.0748784   -0.0077062   -0.0855594   -0.4722894    0.8419209    0.2609827
  -0.0700919   -0.0054745   -0.0854404   -0.4814302    0.7421618    0.4662841
  -0.0673279   -0.0035849   -0.0848955   -0.5620738    0.5854541    0.5842230
  -0.0647828   -0.0017728   -0.0842612   -0.4273406    0.5037398    0.7507505
  -0.0641270    0.0038448   -0.0878487   -0.4586909    0.3351400    0.8229726
  -0.0643064    0.0100733   -0.0915161   -0.5796578    0.4696294    0.6659168
  -0.0578356    0.0144179   -0.0885772   -0.7005174    0.6964876    0.1555006
  -0.0547155    0.0148904   -0.0883923   -0.1021098    0.7163671   -0.6902114
  -0.0786714   -0.0065197   -0.0624703   -0.8308335    0.4520827    0.3245566
  -0.0746107   -0.0041118   -0.0542927   -0.7225878    0.5800195    0.3760908
  -0.0647742    0.0005530   -0.0450768   -0.5625383    0.8101239    0.1650756
  -0.0596366   -0.0566337   -0.0251366   -0.1852089   -0.3761123    0.9078751
  -0.0600853   -0.0533702   -0.0247734   -0.3380736    0.0704140    0.9384818
  -0.0594543   -0.0504652   -0.0261458   -0.4906311    0.5477351    0.6776927
  -0.0573835   -0.0481289   -0.0280414   -0.5881310    0.7053745    0.3956625
  -0.0545115   -0.0459938   -0.0314989   -0.7252604    0.5986351    0.3400491
  -0.0528882   -0.0433739   -0.0328415   -0.7368178    0.4147151    0.5339578
  -0.0520288   -0.0409633   -0.0341124   -0.6916720    0.3169523    0.6489461
  -0.0509704   -0.0374521   -0.0353445   -0.5996801    0.1077867    0.7929476
  -0.0511944   -0.0318414   -0.0345193   -0.5050491   -0.2461244    0.8272534
  -0.0513805   -0.0270861   -0.0324013   -0.4844465   -0.4336267    0.7597891
  -0.0517442   -0.0240161   -0.0301176   -0.4114788   -0.5802585    0.7028409
  -0.0605634   -0.0572032   -0.0301358    0.6591880   -0.7273725   -0.1907891
  -0.0590072   -0.0577642   -0.0253210    0.3597562   -0.8777440    0.3164504
  -0.0515906   -0.0179777   -0.0243214   -0.3999544   -0.5221745    0.7532399
  -0.0581824   -0.0566367   -0.0321233    0.5999889   -0.7965705    0.0740858
  -0.0511420   -0.0144905   -0.0218387   -0.3812240   -0.4658328    0.7985412
  -0.0609472    0.0013715   -0.0361325   -0.6191666    0.6481526    0.4433180
  -0.0565899    0.0008120   -0.0264933   -0.7941220    0.2039542    0.5725145
  -0.0522809   -0.0070099   -0.0208798   -0.7181976   -0.3401153    0.6070534
  -0.0501690   -0.0122458   -0.0192092   -0.5089748   -0.4939454    0.7049557
  -0.0485914    0.0033166   -0.0799196    0.4509664   -0.2470954   -0.8576556
  -0.0531911   -0.0075410   -0.0764002    0.3245477   -0.6249482   -0.7100061
  -0.0594913   -0.0138890   -0.0691860    0.3959311   -0.6897697   -0.6061818
  -0.0615145   -0.0218364   -0.0609293    0.5919282   -0.4866739   -0.6424714
  -0.0621426   -0.0308419   -0.0523857    0.5904656   -0.3845371   -0.7095643
  -0.0605611   -0.0403534   -0.0438920    0.5093901   -0.3075666   -0.8036943
  -0.0586337   -0.0457657   -0.0396009    0.3655908   -0.1690396   -0.9152972
  -0.0559348   -0.0496323   -0.0374853    0.2209037   -0.0207747   -0.9750743
  -0.0533836   -0.0527531   -0.0363389    0.3518253   -0.1770683   -0.9191658
  -0.0538088   -0.0550031   -0.0352685    0.6068873   -0.6652675   -0.4348643
  -0.0461624    0.0145838   -0.0808651    0.4481435    0.6477689   -0.6160868
  -0.0782536   -0.0077781   -0.0707876   -0.5677248    0.8066430   -0.1643641
  -0.0759890   -0.0044315   -0.0638594   -0.5455275    0.8330990   -0.0913553
  -0.0791402   -0.0093669   -0.0790558   -0.3391761    0.9405622    0.0173866
  -0.0752394   -0.0077209   -0.0711850   -0.1167309    0.9508081   -0.2869457
  -0.0753365   -0.0086241   -0.0803359   -0.2349872    0.9517396    0.1974151
  -0.0709712   -0.0078753   -0.0810401   -0.3208523    0.8225411    0.4695529
  -0.0680741   -0.0065964   -0.0800702   -0.3379676    0.6513888    0.6793162
  -0.0561166    0.0026613   -0.0815767   -0.3697522    0.2421317    0.8970259
  -0.0535941   -0.0022957   -0.0784472   -0.3101486    0.3492638    0.8842073
  -0.0570581    0.0085358   -0.0846108   -0.4475835    0.2553851    0.8569991
  -0.0488911    0.0146877   -0.0797442   -0.2064474    0.6178592    0.7587025
  -0.0554179    0.0155057   -0.0862584   -0.3224076    0.9377434    0.1291920
  -0.0718207   -0.0023562   -0.0563372   -0.4841962    0.8738906    0.0432338
  -0.0637852    0.0001714   -0.0457673   -0.1793996    0.9464389   -0.2684572
  -0.0597101    0.0020821   -0.0366717   -0.0537270    0.9858380   -0.1588610
  -0.0561212   -0.0552911   -0.0227743   -0.1713002   -0.3725021    0.9120847
  -0.0567147   -0.0529237   -0.0221713   -0.3890108    0.0187467    0.9210424
  -0.0558853   -0.0493451   -0.0238488   -0.6041520    0.5244694    0.5999435
  -0.0535010   -0.0468238   -0.0261605   -0.6388430    0.6328325    0.4374958
  -0.0505571   -0.0438687   -0.0275623   -0.7267504    0.5051976    0.4654129
  -0.0496026   -0.0409046   -0.0288108   -0.7524444    0.3494637    0.5583033
  -0.0489514   -0.0385741   -0.0299750   -0.7433690    0.2723514    0.6109233
  -0.0477035   -0.0355973   -0.0299522   -0.7345214    0.1949063    0.6499922
  -0.0463892   -0.0324120   -0.0296466   -0.6143115   -0.0243656    0.7886873
  -0.0468091   -0.0283506   -0.0292084   -0.3807159   -0.3176504    0.8684202
  -0.0466246   -0.0259079   -0.0281309   -0.2992906   -0.5188191    0.8007820
  -0.0481284   -0.0207469   -0.0247344   -0.1787324   -0.5925110    0.7854842
  -0.0571681   -0.0553757   -0.0276504    0.5223380   -0.8096975   -0.2674937
  -0.0547674   -0.0569986   -0.0231207    0.2668393   -0.9423656    0.2018512
  -0.0474444   -0.0177647   -0.0221441    0.0160738   -0.4238179    0.9056048
  -0.0549035   -0.0547809   -0.0298668    0.5246387   -0.8504081   -0.0395002
  -0.0459844   -0.0159050   -0.0206607    0.4221959   -0.4747341    0.7722553
  -0.0532817    0.0027976   -0.0310410    0.1381546    0.8023699   -0.5806168
  -0.0519039   -0.0055480   -0.0188977   -0.7077682   -0.2781271    0.6493916
  -0.0551498    0.0016118   -0.0240058   -0.6423437    0.5589327    0.5243938
  -0.0515025    0.0038140   -0.0269998   -0.1217883    0.9004232   -0.4176190
  -0.0493399   -0.0116567   -0.0175667   -0.3813576   -0.6001567    0.7031204
  -0.0429422    0.0088906   -0.0752659    0.7891419    0.5716486   -0.2246617
  -0.0450693   -0.0011557   -0.0746111    0.5208517   -0.3177149   -0.7923198
  -0.0517905   -0.0105151   -0.0706828    0.3507110   -0.6960479   -0.6265134
  -0.0575725   -0.0173475   -0.0620843    0.3815286   -0.6985699   -0.6053396
  -0.0588958   -0.0247144   -0.0543886    0.5504880   -0.4858794   -0.6788845
  -0.0571488   -0.0319467   -0.0462584    0.5410654   -0.3617996   -0.7591767
  -0.0568545   -0.0399814   -0.0406212    0.4524735   -0.2898470   -0.8433602
  -0.0552870   -0.0445998   -0.0377455    0.3157183   -0.1511153   -0.9367423
  -0.0529345   -0.0479335   -0.0359556    0.2068993   -0.0097006   -0.9783142
  -0.0490229   -0.0500612   -0.0342346    0.4076076   -0.2588929   -0.8756886
  -0.0510201   -0.0535198   -0.0330998    0.6101649   -0.6710170   -0.4212304
  -0.0736406   -0.0044808   -0.0644890    0.0520473    0.8516228   -0.5215646
  -0.0693719   -0.0018564   -0.0569596    0.1076143    0.8736605   -0.4744855
  -0.0719370   -0.0087125   -0.0724193    0.0748530    0.9912973   -0.1082895
  -0.0695436   -0.0092707   -0.0657600    0.3742274    0.8417574   -0.3890994
  -0.0686429   -0.0097078   -0.0736486    0.0689633    0.9822381    0.1745060
  -0.0648709   -0.0097534   -0.0750025   -0.1453042    0.8288866    0.5402164
  -0.0521091   -0.0063825   -0.0756744   -0.2935949    0.5526913    0.7799579
  -0.0444095    0.0085464   -0.0742852   -0.0125389    0.5138806    0.8577701
  -0.0417218    0.0029623   -0.0711166    0.1075607    0.4409207    0.8910778
  -0.0411634   -0.0010158   -0.0692019    0.1616178    0.5501108    0.8193032
  -0.0627973   -0.0002091   -0.0464571    0.2324047    0.8048759   -0.5460428
  -0.0577211    0.0011944   -0.0375043    0.4056630    0.7701368   -0.4922671
  -0.0529510   -0.0035902   -0.0328801    0.5145508    0.5145740   -0.6858944
  -0.0512758   -0.0535571   -0.0184902   -0.1510767   -0.3686443    0.9172117
  -0.0518537   -0.0501285   -0.0189018   -0.4983150    0.0262048    0.8665999
  -0.0513122   -0.0456864   -0.0211606   -0.7194629    0.4249777    0.5493333
  -0.0489872   -0.0430606   -0.0228701   -0.7725378    0.5368683    0.3390544
  -0.0476887   -0.0404916   -0.0243339   -0.7697628    0.4397074    0.4627340
  -0.0466656   -0.0377657   -0.0256479   -0.7528570    0.3591838    0.5515373
  -0.0457787   -0.0360777   -0.0261639   -0.7249031    0.3515217    0.5924087
  -0.0450055   -0.0339091   -0.0265717   -0.6530319    0.2063201    0.7286847
  -0.0445089   -0.0315895   -0.0268093   -0.6479580    0.1062892    0.7542235
  -0.0439538   -0.0295035   -0.0271067   -0.5671729   -0.1319115    0.8129664
  -0.0442235   -0.0270851   -0.0263829   -0.4402641   -0.4080296    0.7997996
  -0.0448113   -0.0239675   -0.0245485   -0.3355823   -0.5188267    0.7862591
  -0.0442428   -0.0209573   -0.0221869   -0.0335930   -0.1789326    0.9832877
  -0.0512969   -0.0537697   -0.0250336    0.4542318   -0.8121071   -0.3662723
  -0.0494874   -0.0555547   -0.0193734    0.4610528   -0.8614322    0.2129904
  -0.0425069   -0.0204577   -0.0224361    0.5081202    0.5949987    0.6227283
  -0.0495868   -0.0528596   -0.0269276    0.5190456   -0.8246059   -0.2249819
  -0.0416993   -0.0209631   -0.0249000    0.6932979    0.6909974    0.2045987
  -0.0424860   -0.0123249   -0.0197160    0.8771287   -0.4740984    0.0766547
  -0.0462345   -0.0137592   -0.0188424    0.3436967   -0.7488169    0.5666973
  -0.0434927   -0.0153663   -0.0224290    0.9917877    0.0908006   -0.0900686
  -0.0485975   -0.0073378   -0.0296006    0.4914849    0.3867498   -0.7802994
  -0.0461628   -0.0000798   -0.0242398    0.4528757    0.3036001   -0.8382903
  -0.0481003   -0.0008063   -0.0264765    0.4904271    0.3110812   -0.8140699
  -0.0499416   -0.0020897   -0.0137783   -0.7986147   -0.1917623    0.5704751
  -0.0499688    0.0014702   -0.0141625   -0.6798714    0.5279111    0.5090037
  -0.0420093    0.0031469   -0.0202643   -0.0325591    0.9005212   -0.4335913
  -0.0406609    0.0017454   -0.0197073    0.3232627    0.0752517   -0.9433125
  -0.0471734   -0.0088677   -0.0106482   -0.3632445   -0.7631462    0.5344729
  -0.0411630    0.0027191   -0.0712765    0.8910303    0.4157236   -0.1823154
  -0.0437076   -0.0040256   -0.0714086    0.4018869   -0.3914094   -0.8278198
  -0.0503706   -0.0140625   -0.0647574    0.2047722   -0.7418956   -0.6384819
  -0.0557738   -0.0205111   -0.0563028    0.3207997   -0.7246004   -0.6099523
  -0.0550914   -0.0267744   -0.0477881    0.4860219   -0.4978521   -0.7182799
  -0.0540201   -0.0326417   -0.0425503    0.4848236   -0.3525364   -0.8004150
  -0.0535475   -0.0391646   -0.0385103    0.3600328   -0.2774660   -0.8907239
  -0.0515487   -0.0436117   -0.0358328    0.2397147   -0.1687061   -0.9560727
  -0.0486536   -0.0468179   -0.0340114    0.2122590   -0.0992343   -0.9721618
  -0.0441224   -0.0488812   -0.0308986    0.4260667   -0.5348716   -0.7296435
  -0.0466390   -0.0511017   -0.0299009    0.5273920   -0.7604616   -0.3788876
  -0.0649189   -0.0101553   -0.0577169    0.5096326    0.6803704   -0.5266600
  -0.0595829   -0.0126874   -0.0488249    0.5719253    0.5895175   -0.5704126
  -0.0659188   -0.0124760   -0.0674380    0.2838205    0.9573118   -0.0547732
  -0.0625602   -0.0138010   -0.0599485    0.3673330    0.8972388   -0.2450080
  -0.0623066   -0.0132815   -0.0690976   -0.0173689    0.9145249    0.4041566
  -0.0490465   -0.0096854   -0.0691339   -0.2737771    0.7054979    0.6536962
  -0.0391880   -0.0065270   -0.0655067    0.0856790    0.7628860    0.6408308
  -0.0405695   -0.0009820   -0.0697788    0.8814205    0.3483026   -0.3190347
  -0.0383661   -0.0068676   -0.0665381    0.8276388    0.3213779   -0.4601415
  -0.0557993   -0.0152250   -0.0445437    0.5395483    0.5484501   -0.6388193
  -0.0510721   -0.0172101   -0.0384019    0.5075941    0.5757522   -0.6409818
  -0.0471424   -0.0188498   -0.0343602    0.4155448    0.5802417   -0.7004585
  -0.0468582   -0.0511062   -0.0164566    0.0612349   -0.5039878    0.8615374
  -0.0485839   -0.0473877   -0.0159572   -0.5033513   -0.0831254    0.8600742
  -0.0482941   -0.0435015   -0.0173103   -0.7698526    0.2989755    0.5638623
  -0.0466369   -0.0404023   -0.0194689   -0.8323969    0.4756945    0.2843064
  -0.0445570   -0.0382057   -0.0208072   -0.8391146    0.4641223    0.2836850
  -0.0434606   -0.0364377   -0.0214307   -0.8144986    0.3889773    0.4304516
  -0.0425277   -0.0343959   -0.0222149   -0.7963360    0.4124034    0.4424617
  -0.0415718   -0.0329460   -0.0227974   -0.7794243    0.2755177    0.5626613
  -0.0412345   -0.0313885   -0.0233406   -0.7159961    0.0105771    0.6980241
  -0.0413277   -0.0295409   -0.0233387   -0.7126242   -0.0410278    0.7003452
  -0.0410203   -0.0280196   -0.0227314   -0.6547605   -0.2172630    0.7239375
  -0.0411646   -0.0265155   -0.0224667   -0.5510221   -0.2697335    0.7896952
  -0.0411952   -0.0245969   -0.0216498   -0.3432912   -0.0721023    0.9364574
  -0.0390760   -0.0233923   -0.0211544    0.1069788    0.7879432    0.6063837
  -0.0480369   -0.0538060   -0.0211630    0.4859297   -0.7728506   -0.4081352
  -0.0444761   -0.0530710   -0.0179168    0.3904952   -0.8772103    0.2793128
  -0.0465865   -0.0520563   -0.0229515    0.3920730   -0.8706123   -0.2971749
  -0.0377577   -0.0239355   -0.0218934    0.1162691    0.9837954    0.1364849
  -0.0363420   -0.0239336   -0.0226125   -0.1382397    0.9888434    0.0554847
  -0.0399785   -0.0230314   -0.0266068    0.5241168    0.8515085   -0.0153239
  -0.0399776   -0.0087340   -0.0145787    0.7083839   -0.6245603   -0.3288109
  -0.0428330   -0.0056652   -0.0221032    0.6894808    0.0632581   -0.7215363
  -0.0446994   -0.0101487   -0.0126367    0.4103869   -0.8888726    0.2036862
  -0.0445786   -0.0075348   -0.0248619    0.6325666    0.2615453   -0.7290086
  -0.0437831   -0.0168859   -0.0261624    0.7458251    0.5279749   -0.4061864
  -0.0457490   -0.0108915   -0.0275318    0.6263923    0.3922689   -0.6736154
  -0.0447945   -0.0193449   -0.0322081    0.4849883    0.6131786   -0.6235370
  -0.0385173   -0.0042081   -0.0172943    0.5422480   -0.2478610   -0.8028275
  -0.0470224   -0.0032646   -0.0020667   -0.8068716   -0.2380306    0.5406474
  -0.0461407   -0.0011371   -0.0022446   -0.6416823    0.6265176    0.4424021
  -0.0326646    0.0035343   -0.0136100   -0.1154868    0.9562298   -0.2688629
  -0.0312096    0.0019337   -0.0142730    0.1758147    0.0883695   -0.9804489
  -0.0312558   -0.0024536   -0.0128173    0.3602084   -0.5112466   -0.7803056
  -0.0427955   -0.0094236   -0.0041476   -0.0164216   -0.9547562    0.2969359
  -0.0406543   -0.0082488   -0.0675395    0.2853246   -0.4872100   -0.8253583
  -0.0477370   -0.0166306   -0.0604542    0.1911327   -0.7866381   -0.5870851
  -0.0525981   -0.0238346   -0.0495311    0.2606254   -0.7527764   -0.6044850
  -0.0522585   -0.0286781   -0.0437917    0.3719005   -0.5493586   -0.7482614
  -0.0514450   -0.0331928   -0.0399502    0.3438148   -0.3810731   -0.8582393
  -0.0495672   -0.0392575   -0.0362874    0.2149609   -0.2999166   -0.9294309
  -0.0474729   -0.0430230   -0.0341298    0.1464864   -0.2349044   -0.9609171
  -0.0429340   -0.0459711   -0.0317034    0.2283031   -0.3802677   -0.8962556
  -0.0422904   -0.0503535   -0.0274789    0.1937839   -0.8130772   -0.5489565
  -0.0447592   -0.0516116   -0.0249642    0.2488020   -0.9256902   -0.2849477
  -0.0566643   -0.0172243   -0.0511756    0.4315828    0.8794327   -0.2008343
  -0.0531379   -0.0201928   -0.0465265    0.3913898    0.8853137   -0.2510650
  -0.0580446   -0.0157649   -0.0624925    0.0092274    0.9725862    0.2323595
  -0.0523126   -0.0190643   -0.0533297    0.0440361    0.9714518    0.2331143
  -0.0459315   -0.0130821   -0.0632015   -0.2469477    0.7763517    0.5799093
  -0.0374096   -0.0103056   -0.0615040   -0.0811567    0.7811347    0.6190656
  -0.0363776   -0.0101208   -0.0622835    0.8294077    0.4194399   -0.3689893
  -0.0381646   -0.0117223   -0.0629983    0.3724833   -0.5952925   -0.7119572
  -0.0484761   -0.0221059   -0.0417626    0.3078498    0.8848964   -0.3495524
  -0.0452753   -0.0227324   -0.0372214    0.2558891    0.8898091   -0.3778367
  -0.0425973   -0.0236140   -0.0352853    0.1959020    0.9037568   -0.3805865
  -0.0427411   -0.0494181   -0.0137860   -0.0318281   -0.6934494    0.7198020
  -0.0455076   -0.0449983   -0.0118200   -0.3625730   -0.2954776    0.8838743
  -0.0452975   -0.0402957   -0.0133197   -0.7206257    0.1744174    0.6710270
  -0.0437524   -0.0371696   -0.0156968   -0.7923676    0.4169439    0.4453217
  -0.0428651   -0.0354805   -0.0162138   -0.8728959    0.3688227    0.3194096
  -0.0417027   -0.0338049   -0.0174407   -0.9003041    0.3694975    0.2300526
  -0.0409285   -0.0325342   -0.0185346   -0.8864441    0.3899707    0.2492783
  -0.0399820   -0.0310781   -0.0191093   -0.9113891    0.2546829    0.3232748
  -0.0398506   -0.0295954   -0.0195586   -0.8886827    0.0695863    0.4532117
  -0.0398151   -0.0288081   -0.0194766   -0.8486659   -0.0122513    0.5287874
  -0.0394419   -0.0279692   -0.0192699   -0.8466492    0.0854523    0.5252457
  -0.0393035   -0.0266245   -0.0191687   -0.7803172    0.1682943    0.6023139
  -0.0389492   -0.0256485   -0.0195158   -0.6230465    0.4227123    0.6581241
  -0.0366049   -0.0244916   -0.0185708   -0.3067281    0.7787702    0.5472064
  -0.0360141   -0.0243295   -0.0197004   -0.1691174    0.9642950    0.2037999
  -0.0421556   -0.0522623   -0.0198428    0.2615035   -0.9630064   -0.0650745
  -0.0400833   -0.0510957   -0.0150709    0.3432002   -0.8675336    0.3599986
  -0.0346674   -0.0236376   -0.0200177   -0.4825486    0.8189867    0.3104957
  -0.0346042   -0.0237450   -0.0237516   -0.4198371    0.9057968    0.0571750
  -0.0338565   -0.0230848   -0.0203605   -0.5508991    0.8106534    0.1983713
  -0.0377788   -0.0241481   -0.0284368    0.1025713    0.9940790    0.0358606
  -0.0346218   -0.0065995   -0.0082230    0.5103487   -0.8030664   -0.3076175
  -0.0396148   -0.0082976   -0.0064705    0.5073967   -0.8611803   -0.0302837
  -0.0426979   -0.0208467   -0.0294858    0.4986544    0.7669985   -0.4038032
  -0.0404113   -0.0236732   -0.0318671    0.0557815    0.9448346   -0.3227631
  -0.0452210   -0.0049241    0.0030540   -0.4489262   -0.5115930    0.7326240
  -0.0446432   -0.0014654    0.0026301   -0.5933679    0.6394114    0.4889454
  -0.0281216    0.0034284   -0.0108242   -0.1981627    0.9537221   -0.2261541
  -0.0263486    0.0017044   -0.0127935   -0.0615457    0.1575563   -0.9855902
  -0.0272295   -0.0022156   -0.0108544    0.1486320   -0.6480668   -0.7469391
  -0.0311551   -0.0059095   -0.0064886    0.3140909   -0.9132579   -0.2594358
  -0.0405829   -0.0081101   -0.0008465    0.3728764   -0.8994325    0.2280008
  -0.0454968   -0.0199110   -0.0537831    0.1810303   -0.8112306   -0.5559972
  -0.0491815   -0.0251285   -0.0463246    0.2398918   -0.7606389   -0.6032250
  -0.0494087   -0.0293936   -0.0413520    0.2915178   -0.5517447   -0.7814059
  -0.0472307   -0.0337981   -0.0376315    0.1989421   -0.3850265   -0.9012084
  -0.0451882   -0.0379068   -0.0352124    0.1096301   -0.3223750   -0.9402423
  -0.0414779   -0.0427767   -0.0323289    0.1186819   -0.3504840   -0.9290186
  -0.0409787   -0.0488158   -0.0290903    0.1412638   -0.6179386   -0.7734316
  -0.0377479   -0.0509100   -0.0250297    0.0857915   -0.8628386   -0.4981460
  -0.0400528   -0.0518538   -0.0225591    0.1160875   -0.9753337   -0.1877443
  -0.0490745   -0.0212829   -0.0487298    0.0329022    0.9492188    0.3128914
  -0.0456325   -0.0229892   -0.0438787   -0.0239170    0.9791212    0.2018653
  -0.0425192   -0.0165964   -0.0554461   -0.2071656    0.8510020    0.4825744
  -0.0424620   -0.0186210   -0.0506126   -0.1337658    0.8718779    0.4711004
  -0.0349933   -0.0141558   -0.0555529    0.0897147    0.8068115    0.5839576
  -0.0342437   -0.0138116   -0.0561699    0.9168590    0.3906533   -0.0822162
  -0.0364504   -0.0161458   -0.0564847    0.4086061   -0.6541861   -0.6364602
  -0.0419800   -0.0240367   -0.0393407   -0.0612017    0.9938808    0.0919524
  -0.0393093   -0.0244715   -0.0370650   -0.1468875    0.9858236    0.0810921
  -0.0366295   -0.0246030   -0.0339068   -0.3638489    0.9298930   -0.0539713
  -0.0367518   -0.0518776   -0.0128851   -0.0177838   -0.8173758    0.5758303
  -0.0420422   -0.0435466   -0.0088592   -0.3004880   -0.3132095    0.9008922
  -0.0395939   -0.0485932   -0.0107437   -0.0523632   -0.5882844    0.8069570
  -0.0423965   -0.0397284   -0.0084748   -0.6442184    0.1337206    0.7530613
  -0.0412893   -0.0334717   -0.0099526   -0.7470101    0.2905629    0.5979540
  -0.0404628   -0.0315405   -0.0104072   -0.7222770    0.4784473    0.4994038
  -0.0398209   -0.0307262   -0.0109102   -0.7210346    0.4900209    0.4898863
  -0.0391076   -0.0292126   -0.0119407   -0.7564141    0.4400015    0.4839797
  -0.0379896   -0.0280263   -0.0123586   -0.7163128    0.4896537    0.4971269
  -0.0378383   -0.0275687   -0.0129371   -0.6617461    0.5337523    0.5264984
  -0.0371433   -0.0269869   -0.0135066   -0.6550031    0.6036403    0.4545210
  -0.0365128   -0.0261669   -0.0140023   -0.5611589    0.7275625    0.3946561
  -0.0339009   -0.0250353   -0.0137673   -0.6526298    0.7045327    0.2787618
  -0.0382256   -0.0518180   -0.0166778    0.0408412   -0.9754383    0.2164536
  -0.0352005   -0.0532336   -0.0144158    0.3311742   -0.6528298    0.6812759
  -0.0324553   -0.0236576   -0.0146182   -0.5827161    0.7864872    0.2046455
  -0.0324480   -0.0223627   -0.0249524   -0.6278962    0.7616813    0.1599624
  -0.0324117   -0.0221578   -0.0215470   -0.5556236    0.8062262    0.2031791
  -0.0341769   -0.0239320   -0.0299502   -0.3818720    0.9154657    0.1268713
  -0.0368069   -0.0069505   -0.0037480    0.4607563   -0.8870860    0.0279655
  -0.0305188   -0.0215474   -0.0315064   -0.5297887    0.8480894    0.0082603
  -0.0409519   -0.0053163    0.0056628    0.0344104   -0.5435006    0.8387032
  -0.0409809   -0.0009967    0.0065050   -0.3596548    0.5876839    0.7247593
  -0.0202720    0.0038360   -0.0099343   -0.2598516    0.9119918   -0.3174085
  -0.0198418    0.0005352   -0.0122819   -0.2079300    0.0746034   -0.9752946
  -0.0208505   -0.0023246   -0.0104227   -0.0164360   -0.7541298   -0.6565197
  -0.0276079   -0.0061713   -0.0040670    0.1385933   -0.9730208   -0.1844516
  -0.0314778   -0.0054731   -0.0011616    0.2732434   -0.9513431    0.1424231
  -0.0357121   -0.0054548    0.0029816    0.4661243   -0.8351532    0.2919715
  -0.0432456   -0.0222829   -0.0495512    0.1851516   -0.8275166   -0.5300332
  -0.0464715   -0.0264270   -0.0427597    0.1812979   -0.7529713   -0.6325862
  -0.0452774   -0.0306789   -0.0385078    0.1232139   -0.5604149   -0.8189954
  -0.0432033   -0.0339993   -0.0360150    0.0644193   -0.4238560   -0.9034358
  -0.0385667   -0.0383445   -0.0332456   -0.0371330   -0.3730863   -0.9270533
  -0.0389062   -0.0461714   -0.0300879    0.0589252   -0.4896361   -0.8699335
  -0.0355954   -0.0495257   -0.0262388    0.1262078   -0.6625558   -0.7383030
  -0.0311333   -0.0529920   -0.0218504    0.1342797   -0.8621397   -0.4885530
  -0.0342215   -0.0534267   -0.0200452   -0.0100840   -0.9790451   -0.2033937
  -0.0383621   -0.0205223   -0.0464113   -0.1060360    0.9079930    0.4053457
  -0.0359030   -0.0223779   -0.0419405   -0.2051818    0.9092159    0.3622524
  -0.0359519   -0.0176970   -0.0509667    0.4736485    0.8027709    0.3622375
  -0.0360022   -0.0207148   -0.0465067    0.3163610    0.9426870    0.1060989
  -0.0354359   -0.0171578   -0.0525801    0.9858280    0.0059017   -0.1676556
  -0.0369219   -0.0193216   -0.0518198    0.4816851   -0.6878766   -0.5429597
  -0.0339463   -0.0226931   -0.0398457   -0.3396850    0.9072472    0.2480254
  -0.0322029   -0.0224640   -0.0358855   -0.5003294    0.8580100    0.1161434
  -0.0256069   -0.0190327   -0.0334048   -0.4755658    0.8752539    0.0881350
  -0.0310347   -0.0542170   -0.0169365    0.2703432   -0.9624591    0.0242280
  -0.0372331   -0.0475807   -0.0092561    0.4879629   -0.2245206    0.8434943
  -0.0352218   -0.0503937   -0.0109264    0.2955837   -0.5952011    0.7472388
  -0.0409980   -0.0431887   -0.0082046    0.2928167   -0.1041665    0.9504776
  -0.0413571   -0.0393694   -0.0078288    0.2762816    0.0560825    0.9594390
  -0.0402027   -0.0344074   -0.0083446    0.2982993    0.2448305    0.9225375
  -0.0391375   -0.0314712   -0.0093740    0.1962939    0.4159453    0.8879517
  -0.0385715   -0.0302787   -0.0103601    0.0529107    0.5274713    0.8479237
  -0.0378802   -0.0292512   -0.0105806    0.2413244    0.3608572    0.9008577
  -0.0374615   -0.0285082   -0.0109778   -0.2167983    0.6608854    0.7184908
  -0.0365542   -0.0278483   -0.0116468    0.2909809    0.4732770    0.8314680
  -0.0353332   -0.0261057   -0.0120464   -0.0436787    0.5057837    0.8615538
  -0.0340512   -0.0252805   -0.0123965   -0.3304996    0.3431154    0.8792280
  -0.0341491   -0.0243664   -0.0118792   -0.2378892    0.1925406    0.9520173
  -0.0326676   -0.0524911   -0.0127701    0.4843811   -0.5930284    0.6431892
  -0.0326258   -0.0236645   -0.0124525    0.2109456    0.6884295    0.6939501
  -0.0316723   -0.0235856   -0.0128658    0.2353802    0.5293917    0.8150709
  -0.0304024   -0.0225230   -0.0149470   -0.3278591    0.8922616    0.3104475
  -0.0289292   -0.0189279   -0.0265957   -0.5249372    0.8469163    0.0846975
  -0.0277092   -0.0194143   -0.0224486   -0.3576698    0.8842529    0.3002817
  -0.0285972   -0.0222637   -0.0152615   -0.1280165    0.9211679    0.3675072
  -0.0231844   -0.0185283   -0.0277543   -0.2102746    0.9752338    0.0685828
  -0.0377952   -0.0028555    0.0074891    0.1848687   -0.5366859    0.8232811
  -0.0354885   -0.0000929    0.0083659   -0.2395608    0.5115497    0.8251834
  -0.0091054    0.0034283   -0.0088554   -0.1039313    0.9922610   -0.0679443
  -0.0063877    0.0007584   -0.0114245    0.0063581    0.4616948   -0.8870161
  -0.0084288   -0.0030542   -0.0100220    0.1156958   -0.8032310   -0.5843239
  -0.0212927   -0.0066235   -0.0002370    0.3262794   -0.9434217    0.0591369
  -0.0284164   -0.0053501    0.0024053    0.1678751   -0.9389153    0.3004264
  -0.0344497   -0.0039456    0.0056503    0.3436593   -0.8427431    0.4143456
  -0.0410816   -0.0237150   -0.0460053    0.1513525   -0.8173505   -0.5559052
  -0.0421281   -0.0280850   -0.0403494    0.0346532   -0.7213029   -0.6917523
  -0.0413971   -0.0316385   -0.0371927   -0.0098880   -0.6029938   -0.7976846
  -0.0367340   -0.0352001   -0.0343375   -0.0404986   -0.4532515   -0.8904622
  -0.0371196   -0.0432372   -0.0314727    0.0338360   -0.4151287   -0.9091333
  -0.0333251   -0.0466683   -0.0278802    0.1300858   -0.5285987   -0.8388451
  -0.0291076   -0.0510095   -0.0234776    0.1713165   -0.6932936   -0.6999962
  -0.0274216   -0.0529397   -0.0194717    0.3559556   -0.8780447   -0.3198953
  -0.0346232   -0.0216285   -0.0436246   -0.1217386    0.9879964    0.0950933
  -0.0302632   -0.0213379   -0.0415453   -0.3917446    0.8928348    0.2222211
  -0.0359008   -0.0209086   -0.0477116    0.8144471   -0.0958883   -0.5722598
  -0.0334704   -0.0223569   -0.0448728   -0.0674537    0.6268031   -0.7762524
  -0.0377803   -0.0223136   -0.0472254    0.3563605   -0.7226237   -0.5923024
  -0.0278818   -0.0207356   -0.0384215   -0.5072893    0.8463867    0.1621332
  -0.0212181   -0.0176727   -0.0354630   -0.4906519    0.8503641    0.1901096
  -0.0165662   -0.0183918   -0.0291230   -0.0025848    0.9611832    0.2758988
  -0.0292746   -0.0536885   -0.0152163    0.8194304   -0.3284096    0.4697668
  -0.0262545   -0.0527352   -0.0180502    0.8519285   -0.4367134    0.2889623
  -0.0214610   -0.0484133   -0.0219277    0.9588121   -0.2834216   -0.0187474
  -0.0244330   -0.0514150   -0.0193780    0.8864828   -0.4625210    0.0149169
  -0.0201691   -0.0450970   -0.0221634    0.9724797   -0.0472288    0.2281505
  -0.0183000   -0.0398259   -0.0221543    0.9883437    0.1036304    0.1115238
  -0.0183042   -0.0374234   -0.0221378    0.9909884    0.0918907    0.0974586
  -0.0181713   -0.0352268   -0.0219925    0.9093941   -0.2451430    0.3360166
  -0.0164787   -0.0329434   -0.0222067    0.8696001   -0.3173277    0.3782839
  -0.0144599   -0.0294435   -0.0213697    0.8628476   -0.2132923    0.4582579
  -0.0287308   -0.0229855   -0.0135871    0.3721347    0.5469369    0.7499172
  -0.0214712   -0.0192243   -0.0233270    0.0375727    0.9722670    0.2308358
  -0.0245244   -0.0215379   -0.0172398    0.1630544    0.8874742    0.4310484
  -0.0241040   -0.0225760   -0.0158869    0.4253725    0.6437623    0.6361041
  -0.0142625   -0.0210096   -0.0249485    0.6345790    0.7630108    0.1229796
  -0.0337677   -0.0006543    0.0091293    0.0273883    0.6457889    0.7630246
  -0.0322081   -0.0024573    0.0072593    0.3019859   -0.6264675    0.7185701
  -0.0049275    0.0030910   -0.0044841    0.1078651    0.9870649   -0.1186090
  -0.0010512    0.0000047   -0.0074158    0.5611376    0.6660061   -0.4914879
   0.0000516   -0.0034691   -0.0084175    0.4415570   -0.6688711   -0.5980292
  -0.0191170   -0.0044548    0.0017715    0.3617879   -0.9267583    0.1011367
  -0.0252212   -0.0043242    0.0057388    0.2324777   -0.8555911    0.4625126
  -0.0373927   -0.0251638   -0.0429556    0.0705928   -0.7477127   -0.6602593
  -0.0378533   -0.0292331   -0.0389793   -0.0561398   -0.6961486   -0.7156993
  -0.0341987   -0.0335614   -0.0351386   -0.0822483   -0.5978854   -0.7973508
  -0.0342599   -0.0391463   -0.0321278    0.1158019   -0.4302052   -0.8952728
  -0.0311983   -0.0438184   -0.0285992    0.1819956   -0.3530432   -0.9177353
  -0.0262904   -0.0480187   -0.0250997    0.2111216   -0.4822537   -0.8502112
  -0.0249940   -0.0517122   -0.0208297    0.4685150   -0.7356576   -0.4891846
  -0.0276189   -0.0204782   -0.0433504   -0.6214618    0.7336285   -0.2749082
  -0.0246474   -0.0189542   -0.0401296   -0.5859515    0.7926422    0.1684611
  -0.0356325   -0.0236003   -0.0442222    0.0251514   -0.6654024   -0.7460610
  -0.0251437   -0.0229560   -0.0469122   -0.3972476   -0.2369559   -0.8865925
  -0.0184627   -0.0164039   -0.0367021   -0.3693309    0.8208326    0.4356931
  -0.0214241   -0.0167281   -0.0414856   -0.6562109    0.6377996    0.4032356
  -0.0137395   -0.0182418   -0.0310998    0.0255791    0.8351509    0.5494257
  -0.0119291   -0.0214045   -0.0284530    0.5207610    0.4854385    0.7022517
  -0.0206783   -0.0450509   -0.0238765    0.4636971   -0.3293926   -0.8224874
  -0.0220797   -0.0481773   -0.0224320    0.3641752   -0.5500448   -0.7515498
  -0.0189693   -0.0405417   -0.0241733    0.6146835   -0.0845626   -0.7842279
  -0.0190893   -0.0376731   -0.0240388    0.6591764    0.0853700   -0.7471268
  -0.0189099   -0.0359804   -0.0241947    0.6317318   -0.2073686   -0.7469359
  -0.0171087   -0.0333187   -0.0244937    0.7337618   -0.4296877   -0.5262718
  -0.0142198   -0.0294988   -0.0240571    0.8580600   -0.3007599   -0.4162650
  -0.0140294   -0.0264444   -0.0212077    0.8709662    0.1478477    0.4685711
  -0.0199256   -0.0220527   -0.0190720    0.4686441    0.7436964    0.4767477
  -0.0197245   -0.0230308   -0.0181702    0.5322403    0.6518081    0.5402467
  -0.0136345   -0.0251195   -0.0218100    0.8778652    0.3911120    0.2763768
  -0.0133321   -0.0270594   -0.0233502    0.9563090    0.0427023   -0.2892223
  -0.0149587   -0.0274542   -0.0265410    0.9426158   -0.2664425   -0.2012059
  -0.0224849    0.0002424    0.0083365    0.2366729    0.4766045    0.8466605
  -0.0059194    0.0017775    0.0018106    0.2171442    0.8472171    0.4848418
  -0.0239179   -0.0015783    0.0088346    0.2669390   -0.2365288    0.9342364
   0.0000298    0.0000029   -0.0000189    0.6033324    0.7325707    0.3151670
   0.0008437   -0.0040680    0.0010398    0.9724200   -0.1734330    0.1559500
  -0.0114609   -0.0036493    0.0050787    0.5191918   -0.6433788    0.5625865
  -0.0215769   -0.0043416    0.0072940    0.2077659   -0.9055183    0.3699594
  -0.0335402   -0.0270567   -0.0411759   -0.1243602   -0.7241482   -0.6783391
  -0.0318550   -0.0313891   -0.0371951   -0.0921614   -0.6972410   -0.7108877
  -0.0319642   -0.0364296   -0.0332302    0.1414317   -0.5728840   -0.8073420
  -0.0284518   -0.0392631   -0.0291274    0.2379274   -0.3843512   -0.8920004
  -0.0248295   -0.0448255   -0.0257166    0.2069145   -0.3157527   -0.9260057
  -0.0238487   -0.0184294   -0.0455775   -0.8738479    0.4595865   -0.1586506
  -0.0223122   -0.0201011   -0.0479900   -0.5178517   -0.0235079   -0.8551473
  -0.0184880   -0.0256305   -0.0466558    0.0534098   -0.7268191   -0.6847491
  -0.0278806   -0.0291288   -0.0400559   -0.1416209   -0.7615608   -0.6324307
  -0.0138292   -0.0245601   -0.0451994    0.0209010   -0.4949439   -0.8686735
  -0.0133186   -0.0148294   -0.0357089   -0.2120488    0.8117651    0.5441257
  -0.0181806   -0.0126928   -0.0426218   -0.3967171    0.8907153    0.2219051
  -0.0217127   -0.0137636   -0.0460705   -0.5913986    0.7418847   -0.3159982
  -0.0081225   -0.0185695   -0.0305979    0.0495935    0.6791497    0.7323224
  -0.0073264   -0.0212973   -0.0285107    0.2623321    0.1091033    0.9587900
  -0.0108510   -0.0238489   -0.0293122    0.6299001   -0.4386511    0.6409455
  -0.0233477   -0.0402593   -0.0264605    0.2273682   -0.2573270   -0.9391946
  -0.0226293   -0.0378590   -0.0268001    0.3641672   -0.1206702   -0.9234830
  -0.0196614   -0.0333494   -0.0268869    0.5492812   -0.5705128   -0.6105778
  -0.0215304   -0.0353314   -0.0261899    0.4513224   -0.4392919   -0.7767436
  -0.0166611   -0.0303189   -0.0274589    0.7480331   -0.4968026   -0.4400383
  -0.0165898   -0.0292162   -0.0327528    0.6676257   -0.7062545   -0.2355431
  -0.0134537   -0.0279934   -0.0344707    0.4226688   -0.8839743    0.1998510
  -0.0184920   -0.0039061    0.0086206    0.2550508   -0.4344274    0.8638414
  -0.0174625   -0.0002513    0.0099794    0.3217407    0.0366674    0.9461176
  -0.0029637   -0.0025536    0.0060056    0.6650179    0.5053460    0.5498878
  -0.0037551   -0.0044488    0.0053183    0.4390025   -0.8228762    0.3607653
  -0.0300365   -0.0346813   -0.0339881    0.2041017   -0.6835388   -0.7007975
  -0.0275198   -0.0372212   -0.0299119    0.3127407   -0.4403775   -0.8415824
  -0.0192748   -0.0158308   -0.0481421   -0.3650433    0.0962109   -0.9260059
  -0.0096413   -0.0228031   -0.0448372   -0.0624199   -0.4565810   -0.8874895
  -0.0236005   -0.0304155   -0.0381368    0.3067619   -0.8561659   -0.4157850
  -0.0274155   -0.0328026   -0.0356515    0.2360766   -0.8234109   -0.5160061
  -0.0185695   -0.0286773   -0.0410437    0.2899295   -0.8879954   -0.3569385
  -0.0085974   -0.0299056   -0.0400208   -0.1376501   -0.9247566   -0.3547924
  -0.0131332   -0.0287367   -0.0406968    0.0040586   -0.9850314   -0.1723275
  -0.0082139   -0.0141934   -0.0342551    0.3427223    0.9351441    0.0897052
  -0.0123927   -0.0128355   -0.0416041    0.1145413    0.9618229   -0.2485499
  -0.0128954   -0.0141344   -0.0443518    0.4651299    0.6873150   -0.5578999
  -0.0114898   -0.0163864   -0.0456430    0.1964072    0.4973327   -0.8450352
  -0.0036590   -0.0193698   -0.0304092    0.5417381    0.7753779    0.3245132
  -0.0077154   -0.0250264   -0.0310551    0.2211368   -0.6983542    0.6807349
  -0.0034103   -0.0241807   -0.0280277    0.5234832   -0.0754887    0.8486853
  -0.0253214   -0.0347398   -0.0301448    0.4005839   -0.5910793   -0.7001127
