NORM_ASCII
2838 5672
  -0.0049072   -0.0060641    0.0024838   -0.8358543    0.5059061    0.2130881
  -0.0048303   -0.0060450    0.0031420   -0.9081330    0.4110271    0.0796942
  -0.0042796   -0.0055818    0.0039117   -0.8031172    0.4528584    0.3871975
  -0.0043348   -0.0055198    0.0036959   -0.8026038    0.4929846    0.3358471
  -0.0043900   -0.0054776    0.0034806   -0.8088073    0.5201715    0.2743215
  -0.0044451   -0.0054672    0.0032667   -0.8377118    0.5182543    0.1721958
  -0.0048519   -0.0060567    0.0026970    0.2783106    0.9198413    0.2764690
  -0.0048307   -0.0060520    0.0029172   -0.8213304    0.5681242    0.0514896
  -0.0041748   -0.0055869    0.0041154   -0.7155682    0.4104505    0.5652367
  -0.0032850   -0.0058255    0.0048407   -0.2542197    0.6409284    0.7242812
  -0.0036088   -0.0056129    0.0045547   -0.2983065    0.5578921    0.7744480
  -0.0037672   -0.0056052    0.0044818   -0.5141255    0.4317045    0.7411519
  -0.0054247   -0.0068008    0.0014922   -0.9172801    0.3721374   -0.1418130
  -0.0047222   -0.0057335    0.0022086   -0.8279371    0.5594231    0.0395729
  -0.0050733   -0.0061751    0.0018468   -0.8736964    0.4677975   -0.1334922
   0.0049660   -0.0160576    0.0001391    0.4915961   -0.4559073   -0.7419446
   0.0052067   -0.0156901    0.0000765    0.6685352   -0.4063834   -0.6228269
   0.0050785   -0.0158633    0.0001092    0.6013427   -0.4039828   -0.6893365
   0.0049799   -0.0163229    0.0003710    0.5506750   -0.4571575   -0.6984011
   0.0076915   -0.0097976    0.0027251    0.9954967    0.0919071    0.0232258
   0.0075934   -0.0088627    0.0020362    0.9621825    0.2453969   -0.1182594
   0.0075932   -0.0083555    0.0031424    0.9442665    0.3231958    0.0624926
   0.0072871   -0.0078059    0.0038606    0.8267530    0.4687748    0.3110140
   0.0074706   -0.0082065    0.0036125    0.9068308    0.3826467    0.1767468
   0.0071031   -0.0076866    0.0041190    0.7165111    0.5186970    0.4664389
   0.0076337   -0.0107639    0.0020967    0.9974262    0.0324346   -0.0639448
   0.0074275   -0.0107937    0.0006386    0.9896265   -0.0303169   -0.1404288
   0.0070015   -0.0120730    0.0000252    0.9304443   -0.1711999   -0.3239814
   0.0072107   -0.0117343    0.0004196    0.9781353   -0.0958421   -0.1845686
   0.0059280   -0.0143579   -0.0001207    0.8717398   -0.3557548   -0.3369098
   0.0061129   -0.0139362   -0.0003993    0.8484977   -0.3786872   -0.3696588
   0.0063535   -0.0134063   -0.0004681    0.9122586   -0.2748305   -0.3037309
   0.0067516   -0.0126675   -0.0001270    0.9272191   -0.1833536   -0.3265672
  -0.0005523   -0.0117330   -0.0009065    0.0345417   -0.4770784   -0.8781817
  -0.0017724   -0.0120774   -0.0007308    0.1166595   -0.3580651   -0.9263800
  -0.0015036   -0.0120971   -0.0006977    0.0470573   -0.3673735   -0.9288823
  -0.0002989   -0.0117141   -0.0009020    0.0241307   -0.4654457   -0.8847474
   0.0016682   -0.0113865   -0.0011152   -0.0798391   -0.3049788   -0.9490067
   0.0006297   -0.0113143   -0.0011655    0.0353006   -0.3532649   -0.9348571
   0.0023776   -0.0115491   -0.0012918   -0.2747333   -0.4450626   -0.8523150
   0.0047629   -0.0158455   -0.0000515    0.2301903   -0.4381616   -0.8689228
   0.0049117   -0.0157461   -0.0000856    0.3523920   -0.4588127   -0.8156659
   0.0050970   -0.0151858   -0.0003694    0.3643824   -0.4621239   -0.8084967
   0.0050426   -0.0148266   -0.0005961    0.2428529   -0.4949854   -0.8342733
   0.0052278   -0.0142842   -0.0008791    0.3552737   -0.4694395   -0.8083360
   0.0048787   -0.0137967   -0.0012748    0.0877865   -0.5270649   -0.8452788
   0.0042371   -0.0121545   -0.0018779   -0.2178139   -0.3776140   -0.8999804
   0.0034023   -0.0101220   -0.0022708   -0.2712784   -0.3147311   -0.9095891
   0.0036858   -0.0110850   -0.0021081   -0.2446229   -0.3225409   -0.9143998
   0.0044769   -0.0121735   -0.0019260   -0.0638628   -0.3589749   -0.9311598
   0.0048242   -0.0134157   -0.0015025    0.0118566   -0.4360282   -0.8998549
   0.0017589   -0.0099887   -0.0018039   -0.0805297   -0.3793995   -0.9217217
   0.0018452   -0.0106532   -0.0014396   -0.1817488   -0.4857026   -0.8550207
   0.0016596   -0.0111797   -0.0011573   -0.2085527   -0.3393604   -0.9172460
   0.0014682   -0.0060874    0.0056711   -0.0084091    0.8370569    0.5470512
   0.0012287   -0.0060965    0.0057209   -0.0266312    0.8437161    0.5361287
   0.0017079   -0.0060866    0.0056219   -0.0086733    0.8621275    0.5066172
   0.0019474   -0.0060876    0.0055727    0.0619555    0.8493411    0.5241959
   0.0021868   -0.0061063    0.0055240    0.0511258    0.8300621    0.5553224
   0.0009338   -0.0060136    0.0055535   -0.0948465    0.9687418    0.2292237
   0.0004547   -0.0060216    0.0056525   -0.1061833    0.9302154    0.3513180
  -0.0000794   -0.0059893    0.0055362   -0.1473538    0.9514669    0.2701808
   0.0024264   -0.0061074    0.0054748    0.0965834    0.7645043    0.6373420
   0.0067330   -0.0077715    0.0046420    0.6148994    0.5216639    0.5914097
   0.0062016   -0.0071089    0.0045089    0.2773171    0.7161491    0.6404886
   0.0065178   -0.0072886    0.0044501    0.4950746    0.6528567    0.5733056
   0.0054830   -0.0071001    0.0046565    0.1122568    0.6776961    0.7267231
   0.0056127   -0.0065886    0.0041608    0.3085835    0.6457949    0.6983732
   0.0026113   -0.0059374    0.0052056   -0.0040640    0.7942737    0.6075465
   0.0047654   -0.0065938    0.0047858    0.4463627    0.5042150    0.7392751
   0.0042327   -0.0058069    0.0046417    0.2999422    0.5830104    0.7550719
   0.0044415   -0.0057162    0.0044695    0.3218957    0.5784985    0.7494816
   0.0035690   -0.0059036    0.0050069    0.1845089    0.6635674    0.7250067
   0.0039931   -0.0057445    0.0046887    0.2174504    0.6543974    0.7242095
   0.0033297   -0.0058709    0.0050551    0.0628066    0.7106471    0.7007396
   0.0030902   -0.0058897    0.0051051   -0.0420899    0.7449807    0.6657569
   0.0028503   -0.0059204    0.0051554   -0.0400564    0.7727010    0.6335050
   0.0052434   -0.0070693    0.0047046    0.3743752    0.5966978    0.7097852
  -0.0005583   -0.0060409    0.0056371   -0.1751972    0.8988863    0.4016335
  -0.0008534   -0.0060194    0.0054718   -0.1903085    0.9584236    0.2126192
  -0.0010932   -0.0060620    0.0055226   -0.2349529    0.8756257    0.4219915
  -0.0019219   -0.0060065    0.0052418   -0.1828977    0.8559546    0.4836219
  -0.0029905   -0.0059619    0.0050103   -0.1689400    0.6409548    0.7487565
  -0.0025113   -0.0058449    0.0049070   -0.1048691    0.8623096    0.4954036
  -0.0026044   -0.0115546   -0.0010435    0.2348275   -0.4466978   -0.8633175
  -0.0023617   -0.0120362   -0.0007480    0.1349438   -0.3991626   -0.9068955
  -0.0020997   -0.0113911   -0.0010506    0.2535022   -0.4273581   -0.8678143
  -0.0027610   -0.0110775   -0.0013754    0.2577054   -0.3877628   -0.8850016
  -0.0032416   -0.0110486   -0.0015027    0.1836695   -0.3119194   -0.9321866
  -0.0036971   -0.0114861   -0.0013701    0.0871980   -0.3675103   -0.9259226
  -0.0039425   -0.0116361   -0.0013368    0.0184080   -0.3155333   -0.9487359
  -0.0037845   -0.0114792   -0.0013751    0.3323559   -0.3336742   -0.8821571
  -0.0042362   -0.0109490   -0.0015266   -0.2153596   -0.3073485   -0.9269073
  -0.0045127   -0.0100122   -0.0016637   -0.3757716   -0.2487813   -0.8926946
  -0.0049770   -0.0099723   -0.0014096   -0.5280391   -0.2484321   -0.8120691
  -0.0051907   -0.0093286   -0.0013889   -0.6282308   -0.2069846   -0.7499889
  -0.0050205   -0.0073674   -0.0008202   -0.8714540    0.4496695   -0.1958704
  -0.0049652   -0.0072570   -0.0006110   -0.8430062    0.5171377   -0.1480172
  -0.0053622   -0.0080317   -0.0009508   -0.9074006    0.2807767   -0.3127116
  -0.0054142   -0.0085094   -0.0011478   -0.8697077    0.0549496   -0.4904989
  -0.0052352   -0.0090041   -0.0013917   -0.6801205   -0.1132956   -0.7242929
  -0.0048540   -0.0070245   -0.0001921   -0.7700430    0.5733728   -0.2797812
  -0.0046694   -0.0069140   -0.0004590   -0.7254425    0.6398956   -0.2535088
  -0.0047044   -0.0060252    0.0013156   -0.7459332    0.5645191   -0.3534146
  -0.0046313   -0.0063434    0.0006372   -0.6623152    0.6484951   -0.3752235
  -0.0052960   -0.0068323    0.0010167   -0.8272432    0.4550588   -0.3295302
  -0.0049310   -0.0060605    0.0023920   -0.8271289    0.5130659    0.2293931
  -0.0049043   -0.0060605    0.0024827   -0.7899848    0.5771436    0.2069521
  -0.0047964   -0.0059959    0.0029085   -0.9245669    0.3783779    0.0447918
  -0.0045825   -0.0055970    0.0028498   -0.9193406    0.3905957    0.0474116
  -0.0045005   -0.0055003    0.0030545   -0.8498224    0.5196675    0.0880199
  -0.0040395   -0.0052855    0.0038513   -0.5720294    0.7532710    0.3246000
  -0.0039845   -0.0053535    0.0040674   -0.5710372    0.6900639    0.4446666
  -0.0040948   -0.0052474    0.0036363   -0.5554419    0.7956455    0.2417283
  -0.0041496   -0.0052252    0.0034223   -0.5420200    0.8273797    0.1471638
  -0.0042051   -0.0052324    0.0032090   -0.5477872    0.8358367    0.0361418
  -0.0048519   -0.0060567    0.0026970    0.9773485    0.1883847    0.0964424
  -0.0048519   -0.0060567    0.0026970    0.2023739    0.9658580    0.1617503
  -0.0039295   -0.0054869    0.0042861   -0.5321985    0.5633569    0.6319761
  -0.0033946   -0.0054321    0.0043993   -0.0664651    0.8120766    0.5797533
  -0.0030457   -0.0057551    0.0047887   -0.0886048    0.8166157    0.5703403
  -0.0030846   -0.0056495    0.0046338   -0.0400973    0.8136380    0.5799874
  -0.0036345   -0.0054886    0.0044505   -0.2999487    0.6641334    0.6848048
  -0.0044823   -0.0055443    0.0021521   -0.6306024    0.7626431   -0.1439308
  -0.0045796   -0.0056099    0.0023999   -0.8160031    0.5779682    0.0095733
  -0.0048332   -0.0058749    0.0017864   -0.7406677    0.6290366   -0.2360599
  -0.0045376   -0.0056290    0.0019420   -0.6467018    0.7317459   -0.2152316
   0.0051768   -0.0154036   -0.0001529    0.5720041   -0.4291862   -0.6990068
   0.0056326   -0.0147228   -0.0002713    0.7149616   -0.4083951   -0.5674887
   0.0074694   -0.0103179    0.0007647    0.9849954    0.1291935   -0.1144247
   0.0074378   -0.0093660    0.0007369    0.9689665    0.2145281   -0.1228076
   0.0073218   -0.0084100    0.0007256    0.9007990    0.3542672   -0.2511095
   0.0074567   -0.0078831    0.0027037    0.9080198    0.4138133   -0.0652574
   0.0072840   -0.0079182    0.0011656    0.8433548    0.4679135   -0.2642152
   0.0074167   -0.0078593    0.0033860    0.9227100    0.3786518    0.0723120
   0.0072325   -0.0075478    0.0036378    0.8170156    0.5297659    0.2276700
   0.0071064   -0.0073546    0.0036564    0.7242530    0.6391343    0.2587758
   0.0074165   -0.0078596    0.0033874    0.8937918    0.4034006    0.1959696
   0.0068097   -0.0071027    0.0039335    0.6323516    0.6690104    0.3905848
   0.0066251   -0.0071202    0.0041969    0.5127828    0.6816195    0.5219661
   0.0072986   -0.0111059    0.0001538    0.9636813   -0.0883880   -0.2520039
   0.0074475   -0.0103366    0.0000952    0.9787011    0.0515166   -0.1987215
   0.0064533   -0.0122022   -0.0011119    0.8376330   -0.1644828   -0.5208804
   0.0066417   -0.0112707   -0.0012798    0.8368628   -0.1208812   -0.5338993
   0.0071214   -0.0112730   -0.0002537    0.9179782   -0.0960512   -0.3848250
   0.0052665   -0.0149440   -0.0004132    0.5709208   -0.4289686   -0.7000253
   0.0061843   -0.0135918   -0.0006513    0.7650870   -0.3521558   -0.5390994
   0.0063745   -0.0131325   -0.0007071    0.8496099   -0.2278507   -0.4756544
   0.0063909   -0.0126674   -0.0009526    0.7576389   -0.2119273   -0.6173088
  -0.0010861   -0.0114789   -0.0010308   -0.1493121   -0.5166266   -0.8430912
  -0.0015489   -0.0116240   -0.0008620   -0.0280959   -0.3559776   -0.9340721
  -0.0008815   -0.0112073   -0.0012274    0.0191446   -0.4673327   -0.8838742
  -0.0006069   -0.0113103   -0.0011359    0.0806551   -0.4122381   -0.9074990
  -0.0017712   -0.0116079   -0.0008849    0.1935632   -0.3216690   -0.9268562
   0.0013938   -0.0108948   -0.0012228    0.0073612   -0.4022134   -0.9155163
   0.0011260   -0.0108126   -0.0012860    0.0912526   -0.4022381   -0.9109761
   0.0055142   -0.0130943   -0.0014314    0.4951689   -0.3520857   -0.7942565
   0.0057627   -0.0139737   -0.0007758    0.5741244   -0.3860228   -0.7220579
   0.0051185   -0.0136410   -0.0013301    0.3000936   -0.4589211   -0.8362627
   0.0046795   -0.0116319   -0.0021431   -0.0627506   -0.2740651   -0.9596618
   0.0036177   -0.0096663   -0.0024350   -0.1542998   -0.1977478   -0.9680327
   0.0049913   -0.0125938   -0.0017920    0.0741307   -0.3095746   -0.9479811
   0.0054636   -0.0116854   -0.0020351    0.2288259   -0.2592597   -0.9383086
   0.0050641   -0.0132621   -0.0015576    0.2679084   -0.3627296   -0.8925538
   0.0015513   -0.0103050   -0.0016164   -0.0748597   -0.4804569   -0.8738176
   0.0015165   -0.0099714   -0.0017653   -0.1468494   -0.3363220   -0.9302273
   0.0017371   -0.0095486   -0.0019075   -0.2370859   -0.3149949   -0.9190041
   0.0014975   -0.0094980   -0.0018599    0.6424466   -0.1722340   -0.7467247
   0.0014975   -0.0094980   -0.0018599    0.7955362   -0.1944723   -0.5738490
   0.0014130   -0.0060017    0.0054545   -0.0910795    0.9632474    0.2527032
   0.0018923   -0.0059978    0.0053559   -0.0679342    0.9598593    0.2721305
   0.0021317   -0.0059908    0.0053061   -0.1631047    0.9341011    0.3175720
   0.0010629   -0.0059877    0.0050761   -0.1659716    0.9848212   -0.0508002
   0.0005288   -0.0060129    0.0049622   -0.1416090    0.9841514   -0.1067376
   0.0062765   -0.0065296    0.0037974    0.3492129    0.7921201    0.5005958
   0.0054200   -0.0067365    0.0043962    0.3571556    0.5799080    0.7322203
   0.0049363   -0.0062248    0.0045120    0.4843956    0.5144006    0.7076390
   0.0051891   -0.0066051    0.0044738    0.4952778    0.4610272    0.7363110
   0.0055037   -0.0060189    0.0037130    0.4718702    0.6822336    0.5584764
   0.0025561   -0.0058100    0.0049875   -0.1723204    0.9036762    0.3920140
   0.0041781   -0.0055310    0.0044183    0.1153049    0.7822558    0.6121933
   0.0044172   -0.0055892    0.0043706    0.2269649    0.7630672    0.6051574
   0.0046567   -0.0056874    0.0043251    0.4049371    0.6884435    0.6017238
   0.0035145   -0.0056812    0.0047854    0.0387458    0.7942867    0.6063064
   0.0032747   -0.0056979    0.0048352   -0.0740939    0.8551167    0.5131136
   0.0030351   -0.0057286    0.0048856   -0.1412060    0.8657025    0.4802292
   0.0027956   -0.0057793    0.0049368   -0.1830786    0.8922036    0.4128618
  -0.0014427   -0.0059628    0.0051413   -0.1191278    0.9897412    0.0788730
  -0.0020321   -0.0058647    0.0048093   -0.0164047    0.9975738    0.0676569
  -0.0023267   -0.0057859    0.0046420    0.0770270    0.9854516    0.1514988
  -0.0025666   -0.0057452    0.0046895    0.0628190    0.9525198    0.2979257
  -0.0018579   -0.0111341   -0.0011031    0.2342109   -0.4796220   -0.8456406
  -0.0015914   -0.0111514   -0.0010483    0.0507159   -0.4981031   -0.8656334
  -0.0018596   -0.0111245   -0.0011097    0.3432153   -0.5505764   -0.7609657
  -0.0019141   -0.0109181   -0.0013306    0.2452817   -0.5163100   -0.8205247
  -0.0037788   -0.0105425   -0.0017280    0.0069480   -0.2687786   -0.9631769
  -0.0039967   -0.0109439   -0.0015761   -0.0555580   -0.3208690   -0.9454927
  -0.0042815   -0.0100308   -0.0017443   -0.0796662   -0.2446955   -0.9663216
  -0.0045277   -0.0095390   -0.0017426    0.3483463   -0.2158814   -0.9121678
  -0.0047640   -0.0090470   -0.0017028   -0.4889742   -0.1421371   -0.8606400
  -0.0048360   -0.0072608   -0.0010870   -0.7734839    0.5370793   -0.3365539
  -0.0047252   -0.0070302   -0.0006684   -0.6730299    0.6967910   -0.2480182
  -0.0052503   -0.0080466   -0.0011981   -0.8248762    0.1736766   -0.5379737
  -0.0049802   -0.0075942   -0.0012704   -0.7841575    0.3358870   -0.5218017
  -0.0051901   -0.0085331   -0.0014228   -0.6738024    0.0028083   -0.7389062
  -0.0043184   -0.0064922   -0.0000966   -0.5133264    0.7681692   -0.3826385
  -0.0036548   -0.0063795   -0.0004624   -0.4091638    0.8231373   -0.3937384
  -0.0043502   -0.0061530    0.0007404   -0.5466660    0.7205021   -0.4266533
  -0.0043536   -0.0056233    0.0016785   -0.5217029    0.7798678   -0.3458792
  -0.0044644   -0.0058560    0.0012601   -0.5183569    0.7413223   -0.4263184
  -0.0046113   -0.0056516    0.0026329   -0.8374290    0.5457070    0.0302742
  -0.0045558   -0.0055552    0.0028429   -0.8430205    0.5378813   -0.0003730
  -0.0042606   -0.0052635    0.0029963   -0.5684544    0.8211523   -0.0506815
  -0.0037998   -0.0052233    0.0037999   -0.1396999    0.9798754    0.1425766
  -0.0037446   -0.0052655    0.0040151   -0.1955393    0.9406882    0.2772546
  -0.0036893   -0.0053453    0.0042318   -0.2602197    0.8381035    0.4794458
  -0.0038548   -0.0052009    0.0035855   -0.0927463    0.9944154    0.0503611
  -0.0039103   -0.0051944    0.0033716   -0.0675094    0.9971451   -0.0338254
  -0.0039654   -0.0052037    0.0031586   -0.0741442    0.9909211   -0.1121514
  -0.0028608   -0.0056069    0.0045204    0.1388693    0.9164255    0.3753393
  -0.0034498   -0.0053324    0.0041819    0.0324493    0.9615347    0.2727601
  -0.0028397   -0.0056676    0.0046059    0.0639775    0.8820462    0.4667991
  -0.0044268   -0.0054676    0.0023628   -0.6039593    0.7776729   -0.1745224
  -0.0042978   -0.0055130    0.0018882   -0.4233830    0.8675241   -0.2610531
  -0.0041871   -0.0053855    0.0023106   -0.3094873    0.9201603   -0.2398386
  -0.0042426   -0.0054463    0.0020993   -0.3152648    0.9233270   -0.2192608
  -0.0043712   -0.0053832    0.0025736   -0.6615152    0.7391342   -0.1267999
   0.0072592   -0.0084117    0.0005137    0.8519870    0.4368814   -0.2885357
   0.0074380   -0.0093731    0.0005119    0.9641785    0.2469149   -0.0969166
   0.0071757   -0.0082059    0.0005234    0.7377939    0.5486862   -0.3931966
   0.0073244   -0.0076604    0.0020479    0.8814565    0.4562118   -0.1220872
   0.0073614   -0.0076229    0.0031640    0.8396475    0.5401609    0.0567300
   0.0071410   -0.0071668    0.0022926    0.7870114    0.6087091   -0.1004301
   0.0065701   -0.0069839    0.0010535    0.5580218    0.7336372   -0.3877991
   0.0071207   -0.0074247    0.0014063    0.7122305    0.5982189   -0.3672354
   0.0071781   -0.0074219    0.0016195    0.8173915    0.5437573   -0.1902606
   0.0074162   -0.0078572    0.0033861    0.9082924    0.3940767    0.1403866
   0.0068848   -0.0068763    0.0032349    0.7242714    0.6665920    0.1763123
   0.0066820   -0.0068470    0.0037256    0.6064161    0.7232637    0.3303772
   0.0064609   -0.0065102    0.0035337    0.5289800    0.8011002    0.2800333
   0.0073940   -0.0098648   -0.0001359    0.9276882    0.1913286   -0.3206057
   0.0068226   -0.0103358   -0.0013510    0.8653217   -0.0133233   -0.5010397
   0.0063215   -0.0112749   -0.0016638    0.6887332   -0.1710143   -0.7045571
   0.0065096   -0.0103255   -0.0017370    0.6810327   -0.0436462   -0.7309511
   0.0062153   -0.0131278   -0.0008996    0.6724259   -0.2847620   -0.6831940
   0.0058940   -0.0128661   -0.0012930    0.5967656   -0.2964596   -0.7456423
   0.0060806   -0.0119711   -0.0015887    0.6053292   -0.2580561   -0.7529831
  -0.0013256   -0.0113848   -0.0009849   -0.2211596   -0.4573782   -0.8613325
  -0.0013799   -0.0110356   -0.0012113   -0.1626356   -0.5825714   -0.7963418
  -0.0015651   -0.0113838   -0.0009357    0.0127183   -0.3709558   -0.9285634
   0.0000589   -0.0101399   -0.0015407    0.0374217   -0.2541440   -0.9664422
  -0.0014295   -0.0106991   -0.0014182   -0.0078195   -0.4122571   -0.9110340
   0.0013112   -0.0103455   -0.0015660   -0.0294720   -0.4220744   -0.9060820
   0.0057399   -0.0121701   -0.0017364    0.4594629   -0.2890687   -0.8398411
   0.0049138   -0.0111771   -0.0022331    0.1031156   -0.1814853   -0.9779725
   0.0046634   -0.0111616   -0.0022263   -0.0425512   -0.1901928   -0.9808242
   0.0033684   -0.0091755   -0.0024446   -0.2338860   -0.1379103   -0.9624334
   0.0017347   -0.0095165   -0.0019181   -0.0484170   -0.2763088   -0.9598486
   0.0040998   -0.0087563   -0.0025624   -0.0369118    0.0131378   -0.9992322
   0.0036091   -0.0087191   -0.0025105   -0.1729123   -0.0335025   -0.9843673
   0.0048616   -0.0097583   -0.0024981    0.0681518   -0.0983023   -0.9928202
   0.0046963   -0.0092710   -0.0025267    0.0136004   -0.0487121   -0.9987203
   0.0052747   -0.0126113   -0.0017486    0.2706365   -0.3079451   -0.9120996
   0.0060018   -0.0112450   -0.0019252    0.5059422   -0.1684921   -0.8459509
   0.0056783   -0.0103597   -0.0022398    0.2879508   -0.1261442   -0.9493008
   0.0012746   -0.0099520   -0.0017266   -0.1656410   -0.3208273   -0.9325411
   0.0012584   -0.0094796   -0.0018100    0.0553739   -0.1681230   -0.9842095
   0.0014975   -0.0094980   -0.0018599    0.6234943   -0.1417514   -0.7688702
   0.0025008   -0.0057757    0.0047726   -0.3176459    0.9286256    0.1917173
   0.0017265   -0.0059664    0.0047138   -0.3150367    0.9423963   -0.1124323
   0.0014316   -0.0060499    0.0045526   -0.2692964    0.9241033   -0.2711318
   0.0007129   -0.0060767    0.0047018   -0.1986227    0.9209667   -0.3352154
   0.0063286   -0.0063606    0.0033302    0.4057074    0.8740772    0.2671902
   0.0056878   -0.0059737    0.0034483    0.4591090    0.8087247    0.3676728
   0.0050256   -0.0055753    0.0037952    0.5036309    0.7503047    0.4282507
   0.0034595   -0.0055558    0.0045671   -0.1738183    0.9077141    0.3818931
   0.0041229   -0.0053836    0.0041989    0.0208812    0.8978161    0.4398752
   0.0038834   -0.0054005    0.0042489   -0.1787905    0.9201657    0.3483231
   0.0043626   -0.0054026    0.0041504    0.1321102    0.8848587    0.4467348
   0.0046020   -0.0054709    0.0041037    0.2774634    0.8504608    0.4469122
   0.0029798   -0.0056686    0.0046697   -0.2643187    0.9255196    0.2711993
   0.0001782   -0.0061276    0.0045884   -0.0994650    0.9316439   -0.3494944
  -0.0014978   -0.0059367    0.0049270   -0.0313495    0.9940159   -0.1046401
  -0.0003560   -0.0061765    0.0044754   -0.0538618    0.9286818   -0.3669455
  -0.0008906   -0.0061641    0.0043598    0.0373629    0.9577678   -0.2851050
  -0.0023820   -0.0057575    0.0044274    0.1635215    0.9801918   -0.1117356
  -0.0026216   -0.0056772    0.0044737    0.2088288    0.9656428    0.1546754
  -0.0016198   -0.0110067   -0.0011632    0.0989511   -0.6242871   -0.7749028
  -0.0016844   -0.0106811   -0.0014287    0.1376100   -0.3525299   -0.9256274
  -0.0015395   -0.0106919   -0.0014161    0.0499984   -0.4756968   -0.8781872
  -0.0019881   -0.0101925   -0.0016488    0.1499694   -0.2675963   -0.9517885
  -0.0030595   -0.0096487   -0.0019141    0.1016980   -0.2303200   -0.9677862
  -0.0030364   -0.0099792   -0.0018089    0.1237963   -0.2585840   -0.9580234
  -0.0042889   -0.0097855   -0.0017831   -0.2437842   -0.2180876   -0.9449905
  -0.0038353   -0.0086488   -0.0020320   -0.2430119   -0.0590062   -0.9682270
  -0.0035943   -0.0086671   -0.0020746   -0.1756308   -0.0916507   -0.9801806
  -0.0033517   -0.0086849   -0.0021117    0.0156400   -0.0973275   -0.9951295
  -0.0042981   -0.0095582   -0.0018289   -0.0517945   -0.2045439   -0.9774861
  -0.0045277   -0.0095390   -0.0017426    0.7783804   -0.1516638   -0.6091979
  -0.0045277   -0.0095390   -0.0017426    0.7685906   -0.1398943   -0.6242580
  -0.0047155   -0.0090515   -0.0017221   -0.1817435   -0.1399259   -0.9733396
  -0.0046743   -0.0085806   -0.0017477   -0.4553526   -0.0228551   -0.8900178
  -0.0046519   -0.0072770   -0.0013494   -0.6034480    0.5217155   -0.6030452
  -0.0043563   -0.0069715   -0.0011965   -0.5018494    0.7470199   -0.4360142
  -0.0037660   -0.0066241   -0.0008808   -0.3230382    0.8206226   -0.4714074
  -0.0050117   -0.0080723   -0.0014714   -0.6702470    0.1210884   -0.7321930
  -0.0047064   -0.0076226   -0.0015441   -0.5480910    0.2646172   -0.7934570
  -0.0035618   -0.0058532    0.0008490   -0.1045854    0.9355016   -0.3374888
  -0.0034331   -0.0060452    0.0003796   -0.2194719    0.9068276   -0.3598551
  -0.0039851   -0.0057589    0.0011580   -0.3094030    0.8527801   -0.4207562
  -0.0038390   -0.0063237   -0.0002016   -0.3631467    0.8723064   -0.3274234
  -0.0038012   -0.0058404    0.0008978   -0.1516948    0.9179591   -0.3665240
  -0.0032316   -0.0064680   -0.0007717   -0.1890132    0.8582494   -0.4771603
  -0.0033046   -0.0062332   -0.0000901   -0.1305649    0.9451214   -0.2994970
  -0.0041136   -0.0055511    0.0016267   -0.2711769    0.8957728   -0.3522133
  -0.0041694   -0.0056891    0.0014181   -0.3820033    0.8170681   -0.4318254
  -0.0040583   -0.0054843    0.0018378   -0.1726565    0.9536961   -0.2462793
  -0.0043159   -0.0053183    0.0027847   -0.5515452    0.8267353   -0.1109354
  -0.0040211   -0.0052308    0.0029457   -0.1070144    0.9798961   -0.1683789
  -0.0035605   -0.0052677    0.0037520    0.1968269    0.9792719   -0.0478098
  -0.0035049   -0.0052883    0.0039668    0.1427045    0.9856138    0.0905589
  -0.0036157   -0.0052632    0.0035384    0.2084723    0.9741850   -0.0866197
  -0.0036708   -0.0052646    0.0033248    0.2188748    0.9664162   -0.1346612
  -0.0037262   -0.0052779    0.0031117    0.2230358    0.9575955   -0.1823896
  -0.0041316   -0.0053226    0.0025218   -0.2482813    0.9390213   -0.2378979
  -0.0040030   -0.0054453    0.0020500   -0.0587393    0.9748100   -0.2151633
  -0.0039474   -0.0054043    0.0022622    0.0213510    0.9656528   -0.2589573
  -0.0038922   -0.0053474    0.0024735    0.0835749    0.9624290   -0.2583517
  -0.0040763   -0.0052658    0.0027336   -0.1699170    0.9653480   -0.1980694
   0.0072447   -0.0093864   -0.0003478    0.8911816    0.2822267   -0.3551669
   0.0073582   -0.0090642    0.0002923    0.9234792    0.3120570   -0.2231738
   0.0067783   -0.0079144    0.0001445    0.6799623    0.6105132   -0.4061095
   0.0068516   -0.0089098   -0.0011842    0.8403463    0.2860058   -0.4604549
   0.0066066   -0.0084232   -0.0013762    0.7649827    0.4958414   -0.4110264
   0.0066599   -0.0080632   -0.0005006    0.7218636    0.6481592   -0.2424925
   0.0065660   -0.0074165    0.0003951    0.6464845    0.6397199   -0.4157117
   0.0069576   -0.0068693    0.0025446    0.7320056    0.6810137   -0.0197027
   0.0069753   -0.0070718    0.0016483    0.6582767    0.7013014   -0.2735838
   0.0065527   -0.0065515    0.0019412    0.5556425    0.8060298   -0.2039054
   0.0065984   -0.0069174    0.0012703    0.4567221    0.8104023   -0.3669510
   0.0066812   -0.0068683    0.0014767    0.4761502    0.8043446   -0.3554022
   0.0064976   -0.0069171    0.0010660    0.5566105    0.7602436   -0.3349842
   0.0061652   -0.0068742    0.0004581    0.5769060    0.7184592   -0.3885819
   0.0068289   -0.0067150    0.0030155    0.6464264    0.7620319    0.0379523
   0.0065345   -0.0064261    0.0028405    0.5663491    0.8232289    0.0392788
   0.0062956   -0.0062192    0.0028822    0.4729615    0.8800784    0.0420644
   0.0067155   -0.0098606   -0.0015712    0.8248302    0.1248862   -0.5514151
   0.0059567   -0.0102996   -0.0021418    0.5200972   -0.0548070   -0.8523468
   0.0065244   -0.0093793   -0.0017747    0.7228811    0.1000989   -0.6836835
  -0.0017521   -0.0097375   -0.0017322    0.1175450   -0.2019645   -0.9723135
   0.0005395   -0.0096013   -0.0016589   -0.1297486   -0.2050220   -0.9701192
  -0.0007350   -0.0088601   -0.0017419    0.0069815   -0.0827549   -0.9965455
   0.0053929   -0.0097915   -0.0023943    0.2064423   -0.1037800   -0.9729395
   0.0014827   -0.0090249   -0.0019388   -0.2752090   -0.1175912   -0.9541658
   0.0026581   -0.0086446   -0.0022891   -0.3058782    0.0305589   -0.9515801
   0.0036232   -0.0082446   -0.0024769   -0.1571496    0.1455646   -0.9767881
   0.0046282   -0.0083163   -0.0024903    0.0719639    0.2042854   -0.9762626
   0.0051295   -0.0088263   -0.0024804    0.1483766    0.0869608   -0.9851001
   0.0056577   -0.0093350   -0.0023664    0.3469266    0.0499486   -0.9365613
   0.0012584   -0.0094556   -0.0018122   -0.2412637   -0.1381274   -0.9605793
   0.0031644   -0.0055838    0.0044037   -0.3705898    0.9275383    0.0483310
   0.0018555   -0.0060731    0.0042413   -0.3726095    0.8870890   -0.2724615
   0.0019108   -0.0060083    0.0044527   -0.4198093    0.8752495   -0.2402050
   0.0015045   -0.0062986    0.0038717   -0.3609062    0.8616010   -0.3569180
   0.0014489   -0.0064130    0.0036621   -0.3449557    0.8646638   -0.3651877
   0.0003144   -0.0063805    0.0041507   -0.1189651    0.9122050   -0.3920833
   0.0049983   -0.0053161    0.0033411    0.5184288    0.8391174    0.1646619
   0.0049392   -0.0053079    0.0034496    0.4656712    0.8174854    0.3389217
   0.0047863   -0.0054177    0.0038388    0.2953801    0.8479841    0.4400836
   0.0047313   -0.0052685    0.0036195    0.1850562    0.9152329    0.3579147
   0.0040678   -0.0053178    0.0039830   -0.2762362    0.9512297    0.1373159
   0.0043075   -0.0053148    0.0039337   -0.0003655    0.9622445    0.2721863
   0.0045009   -0.0052686    0.0037038    0.0016637    0.9509037    0.3094823
  -0.0009571   -0.0062915    0.0041091    0.0393179    0.9276075   -0.3714813
  -0.0017747   -0.0061476    0.0038667    0.1911703    0.9340110   -0.3017903
  -0.0024374   -0.0057588    0.0042137    0.2741056    0.9523483   -0.1337866
  -0.0026765   -0.0056410    0.0042589    0.2893972    0.9544640   -0.0724409
  -0.0033429   -0.0082112   -0.0020987   -0.1254998    0.0762174   -0.9891616
  -0.0045398   -0.0090665   -0.0018107   -0.3741424   -0.1241192   -0.9190277
  -0.0042853   -0.0080641   -0.0018465   -0.3539778    0.1057848   -0.9292520
  -0.0020483   -0.0087739   -0.0019445    0.1477477   -0.0558283   -0.9874481
  -0.0030885   -0.0084434   -0.0020791    0.0899600    0.0092584   -0.9959023
  -0.0047445   -0.0080973   -0.0016703   -0.5109293    0.0952299   -0.8543316
  -0.0042282   -0.0073556   -0.0016589   -0.4042960    0.4431222   -0.8001172
  -0.0041723   -0.0070928   -0.0014546   -0.3700997    0.6620614   -0.6516908
  -0.0033983   -0.0068863   -0.0013969   -0.2150197    0.8168264   -0.5353142
  -0.0025684   -0.0066903   -0.0011246   -0.0952015    0.7721466   -0.6282725
  -0.0030912   -0.0067766   -0.0011909   -0.1395318    0.8411738   -0.5224534
  -0.0040296   -0.0076800   -0.0018506   -0.3158870    0.2206171   -0.9227911
  -0.0033777   -0.0059587    0.0005899   -0.0149765    0.9510022   -0.3088211
  -0.0030276   -0.0059508    0.0009673    0.1753061    0.9794814   -0.0994180
  -0.0034512   -0.0057770    0.0012733    0.1633314    0.9691734   -0.1844610
  -0.0022971   -0.0063252   -0.0000928    0.0245264    0.9833831   -0.1798782
  -0.0039298   -0.0056584    0.0013679   -0.1376881    0.8808239   -0.4529804
  -0.0036351   -0.0056420    0.0015311    0.0824959    0.9389694   -0.3339623
  -0.0027526   -0.0065155   -0.0008686   -0.1029872    0.8519801   -0.5133455
  -0.0009100   -0.0064766   -0.0005746   -0.0933292    0.9843212   -0.1496709
  -0.0014992   -0.0065609   -0.0008996   -0.1090445    0.8995308   -0.4230292
  -0.0038187   -0.0055249    0.0017902    0.0453503    0.9768846   -0.2089014
  -0.0038744   -0.0055618    0.0015775    0.0204430    0.9530520   -0.3021158
  -0.0037636   -0.0055097    0.0020030    0.1113591    0.9786610   -0.1726898
  -0.0037817   -0.0053010    0.0028987    0.1623536    0.9685787   -0.1884056
  -0.0023090   -0.0059329    0.0037436    0.3238050    0.9210254   -0.2164777
  -0.0035974   -0.0054382    0.0026413    0.3171424    0.9229548   -0.2181170
  -0.0038372   -0.0053182    0.0026858    0.1122992    0.9719817   -0.2064958
  -0.0037082   -0.0054885    0.0022159    0.2167422    0.9570360   -0.1926263
  -0.0036529   -0.0054634    0.0024286    0.3062046    0.9275671   -0.2141448
   0.0062928   -0.0073711   -0.0000003    0.6450219    0.6830533   -0.3426149
   0.0064662   -0.0089012   -0.0017803    0.7165659    0.2620860   -0.6464087
   0.0063319   -0.0084146   -0.0017523    0.6332229    0.3733371   -0.6779736
   0.0064915   -0.0079270   -0.0009208    0.7616576    0.6076334   -0.2250764
   0.0062420   -0.0079274   -0.0015442    0.6181662    0.5528509   -0.5587722
   0.0062557   -0.0076308   -0.0011078    0.6203087    0.7248677   -0.2996397
   0.0065241   -0.0079227   -0.0007029    0.7055924    0.6964281   -0.1308711
   0.0063866   -0.0066626    0.0013047    0.5600954    0.7718952   -0.3007839
   0.0062027   -0.0064304    0.0015589    0.5027944    0.8132181   -0.2930428
   0.0064836   -0.0063928    0.0026248    0.5611088    0.8223259   -0.0945358
   0.0054859   -0.0057600    0.0016824    0.4255613    0.8816330   -0.2040117
   0.0058343   -0.0064050    0.0007340    0.6166835    0.6644434   -0.4221568
   0.0058152   -0.0067649    0.0000760    0.5163805    0.7380512   -0.4343175
   0.0059989   -0.0071200   -0.0001736    0.5574350    0.7267650   -0.4013462
   0.0058531   -0.0061865    0.0011721    0.5388614    0.7964792   -0.2743161
   0.0048604   -0.0052287    0.0031415    0.2306785    0.9623961   -0.1434616
   0.0051730   -0.0055242    0.0024130    0.3177679    0.9406736   -0.1189823
   0.0055224   -0.0057639    0.0027996    0.4664310    0.8800237   -0.0894446
   0.0053571   -0.0056414    0.0021547    0.3608587    0.9289312   -0.0828726
   0.0063514   -0.0093718   -0.0019640    0.6138521    0.0959910   -0.7835632
  -0.0012469   -0.0089295   -0.0017657    0.1536320   -0.0677396   -0.9858035
  -0.0017805   -0.0087905   -0.0018850    0.1368196   -0.0694554   -0.9881580
  -0.0015214   -0.0088087   -0.0018571    0.2005784   -0.0674485   -0.9773531
   0.0012500   -0.0085324   -0.0018850   -0.1652148    0.0040768   -0.9862492
  -0.0004708   -0.0080575   -0.0017319   -0.0376612    0.0566956   -0.9976809
  -0.0012453   -0.0082817   -0.0017895    0.1297641    0.0657735   -0.9893610
   0.0020572   -0.0081198   -0.0020257   -0.3432021    0.1821416   -0.9214319
   0.0022088   -0.0081320   -0.0020982   -0.3810415    0.1279269   -0.9156648
   0.0029451   -0.0077137   -0.0021963   -0.2835462    0.3107060   -0.9072284
   0.0027136   -0.0076947   -0.0021170   -0.3735021    0.3010817   -0.8774087
   0.0041355   -0.0080667   -0.0024554   -0.0460482    0.2761088   -0.9600226
   0.0036637   -0.0077681   -0.0023426   -0.1688472    0.3429059   -0.9240704
   0.0057097   -0.0083854   -0.0022082    0.3264481    0.2989876   -0.8966817
   0.0046568   -0.0078386   -0.0023457    0.0357857    0.3934666   -0.9186422
   0.0049332   -0.0078572   -0.0023077    0.1792699    0.3952425   -0.9009138
   0.0062641   -0.0088916   -0.0019637    0.5600381    0.2208108   -0.7984986
   0.0059767   -0.0087013   -0.0021366    0.4985344    0.2475212   -0.8307808
   0.0028874   -0.0059910    0.0033509   -0.5492586    0.8046730   -0.2254249
   0.0032932   -0.0056391    0.0039292   -0.5120152    0.8502030   -0.1224554
   0.0004351   -0.0065272    0.0036500   -0.1654644    0.9465571   -0.2768594
   0.0018172   -0.0064791    0.0031386   -0.3756114    0.9076550   -0.1872924
   0.0013938   -0.0065055    0.0034521   -0.2871716    0.9199883   -0.2667470
  -0.0006334   -0.0065281    0.0034203   -0.0253249    0.9643687   -0.2633469
   0.0049158   -0.0052551    0.0033563    0.2849893    0.9491207    0.1339815
   0.0046760   -0.0051886    0.0034030   -0.0887539    0.9903173    0.1067447
   0.0044367   -0.0052156    0.0034535   -0.2470190    0.9617056    0.1187603
   0.0037729   -0.0053815    0.0038210   -0.5080540    0.8613245   -0.0010904
   0.0042519   -0.0052784    0.0037185   -0.2614324    0.9626542    0.0703559
  -0.0017987   -0.0062447    0.0036503    0.1668788    0.9441606   -0.2840990
  -0.0030632   -0.0077533   -0.0020136    0.0110204    0.3075514   -0.9514677
  -0.0023082   -0.0082823   -0.0019967    0.1082250    0.0859896   -0.9904005
  -0.0035664   -0.0078887   -0.0020009   -0.2156989    0.2511432   -0.9436106
  -0.0017798   -0.0083168   -0.0019033    0.1356053    0.0957767   -0.9861227
  -0.0034949   -0.0072401   -0.0017549   -0.2452740    0.4667634   -0.8496897
  -0.0034538   -0.0070321   -0.0016052   -0.1283076    0.7192771   -0.6827720
  -0.0027350   -0.0072932   -0.0017419    0.0541789    0.5836545   -0.8101926
  -0.0018503   -0.0069012   -0.0012651   -0.0445931    0.6893174   -0.7230857
  -0.0019063   -0.0071125   -0.0014710    0.0217610    0.5651793   -0.8246810
  -0.0024405   -0.0071615   -0.0015840    0.0126324    0.6407921   -0.7676105
  -0.0019600   -0.0064016    0.0012139    0.0976100    0.9950398    0.0191869
  -0.0024986   -0.0062541    0.0017694    0.2957068    0.9535653   -0.0571897
  -0.0035797   -0.0056189    0.0017441    0.2479471    0.9516329   -0.1814305
  -0.0010761   -0.0067661   -0.0012044   -0.1181850    0.6833350   -0.7204760
  -0.0010205   -0.0066201   -0.0009961   -0.1117898    0.8717140   -0.4770930
   0.0006379   -0.0064479   -0.0004445   -0.2313341    0.9569155   -0.1754913
  -0.0005599   -0.0064748   -0.0001968   -0.0667132    0.9951585    0.0721732
  -0.0024994   -0.0062397    0.0022190    0.3251345    0.9315477   -0.1628083
  -0.0021625   -0.0063354    0.0023782    0.1836092    0.9782876   -0.0961301
   0.0060841   -0.0074138   -0.0006306    0.5761101    0.7996096   -0.1694747
   0.0060330   -0.0082026   -0.0019413    0.5225195    0.4122703   -0.7463288
   0.0063109   -0.0076214   -0.0008948    0.6526486    0.7489499   -0.1145593
   0.0057943   -0.0078193   -0.0019061    0.4260712    0.5125469   -0.7454924
   0.0058504   -0.0076141   -0.0016998    0.4428555    0.6896181   -0.5729798
   0.0060472   -0.0074201   -0.0009476    0.5038492    0.8532271   -0.1346829
   0.0060718   -0.0074222   -0.0008528    0.5045770    0.8513379   -0.1436167
   0.0057219   -0.0071982   -0.0012389    0.4258263    0.8454776   -0.3222416
   0.0054306   -0.0057931    0.0014701    0.4052009    0.8832235   -0.2360689
   0.0052463   -0.0056401    0.0017271    0.1794374    0.9650029   -0.1912372
   0.0054345   -0.0063935    0.0001413    0.5084856    0.7242487   -0.4657320
   0.0056872   -0.0063513    0.0005376    0.6344701    0.6070360   -0.4784925
   0.0057427   -0.0062746    0.0007483    0.5705140    0.7333543   -0.3697368
   0.0056487   -0.0070426   -0.0005546    0.4850152    0.8149774   -0.3171309
   0.0055589   -0.0060107    0.0010015    0.4111172    0.8605862   -0.3006228
   0.0053750   -0.0058282    0.0012578    0.2293499    0.9345086   -0.2721991
   0.0049764   -0.0053277    0.0028963    0.3218452    0.9335794   -0.1576238
   0.0046944   -0.0053518    0.0025054   -0.0355207    0.9727012   -0.2293266
   0.0044546   -0.0053567    0.0025548   -0.2618616    0.9435134   -0.2030047
   0.0046209   -0.0051881    0.0031894   -0.1507644    0.9833191   -0.1017526
   0.0052282   -0.0055406    0.0026274    0.4303102    0.8956315   -0.1125934
   0.0049336   -0.0054082    0.0024581    0.1966257    0.9510831   -0.2382841
   0.0045833   -0.0054535    0.0020818   -0.0367712    0.9719493   -0.2322981
  -0.0015203   -0.0083334   -0.0018747    0.1501289    0.0827779   -0.9851950
   0.0012728   -0.0080563   -0.0018196   -0.1509804    0.2440578   -0.9579357
  -0.0007097   -0.0077674   -0.0016932   -0.0413435    0.1747951   -0.9837364
   0.0003082   -0.0075082   -0.0016716   -0.0797516    0.2656942   -0.9607530
  -0.0014850   -0.0078577   -0.0017602    0.0668936    0.2758385   -0.9588735
   0.0018014   -0.0076166   -0.0017463   -0.2088590    0.3619512   -0.9084983
   0.0021235   -0.0076431   -0.0018315   -0.3272071    0.4498808   -0.8309890
   0.0037301   -0.0072913   -0.0021072   -0.1919604    0.5230304   -0.8304158
   0.0027550   -0.0074058   -0.0019702   -0.3700329    0.5224448   -0.7681973
   0.0039525   -0.0074343   -0.0022158   -0.0795715    0.4389002   -0.8950056
   0.0054882   -0.0078921   -0.0021105    0.3085583    0.4434613   -0.8415069
   0.0047473   -0.0073630   -0.0020729    0.1116473    0.5781297   -0.8082703
   0.0042276   -0.0073270   -0.0021334   -0.0185871    0.5534402   -0.8326815
   0.0052604   -0.0075632   -0.0020304    0.2693826    0.6368374   -0.7224065
   0.0037177   -0.0054306    0.0036094   -0.4904743    0.8658146   -0.0989955
   0.0018911   -0.0065437    0.0024512   -0.3999623    0.9160347   -0.0301767
   0.0029609   -0.0061349    0.0026662   -0.5514008    0.8198829   -0.1541080
   0.0031451   -0.0060637    0.0024005   -0.6215224    0.7768606   -0.1009826
   0.0036726   -0.0057222    0.0024736   -0.6317307    0.7682254   -0.1036631
   0.0043347   -0.0052762    0.0030619   -0.4936281    0.8541043   -0.1638206
   0.0008037   -0.0066310    0.0031282   -0.2176456    0.9653337   -0.1440873
   0.0000296   -0.0066531    0.0030632   -0.1072200    0.9759516   -0.1897953
   0.0014115   -0.0066030    0.0025516   -0.2508027    0.9670979   -0.0426565
  -0.0001919   -0.0067717    0.0022132   -0.1229514    0.9906793   -0.0586293
  -0.0009836   -0.0065735    0.0030440    0.0430492    0.9841617   -0.1719664
   0.0043809   -0.0052366    0.0032404   -0.3662091    0.9285874   -0.0601356
  -0.0015175   -0.0064502    0.0029246    0.1307426    0.9809633   -0.1435878
  -0.0020181   -0.0078643   -0.0018702    0.1176408    0.3417910   -0.9323838
  -0.0029970   -0.0072762   -0.0017795    0.0173719    0.5605783   -0.8279192
  -0.0032701   -0.0073654   -0.0018558   -0.1238221    0.4535817   -0.8825711
  -0.0024703   -0.0073111   -0.0016922    0.0881779    0.5141571   -0.8531513
  -0.0013080   -0.0073913   -0.0015842   -0.0724878    0.4320750   -0.8989198
  -0.0014257   -0.0065330    0.0013337    0.0617689    0.9940137    0.0901188
  -0.0006529   -0.0071598   -0.0015020   -0.1298976    0.5116849   -0.8492969
  -0.0005972   -0.0068910   -0.0012984   -0.1104539    0.6705672   -0.7335800
  -0.0002469   -0.0066176   -0.0009308   -0.1506200    0.9239928   -0.3514981
  -0.0000624   -0.0067192   -0.0011899   -0.1925680    0.7547979   -0.6270548
   0.0007486   -0.0064116   -0.0000183   -0.2983502    0.9471852    0.1175900
  -0.0001179   -0.0067155    0.0015212   -0.1492280    0.9831676    0.1054160
   0.0017074   -0.0062175   -0.0002226   -0.2956200    0.9535636   -0.0576650
   0.0002325   -0.0066217   -0.0010291   -0.2022597    0.9185648   -0.3396022
   0.0010066   -0.0065044   -0.0009679   -0.1841239    0.8852656   -0.4270868
   0.0007114   -0.0066197   -0.0011279   -0.2238294    0.8739700   -0.4313663
   0.0004720   -0.0066227   -0.0010785   -0.1969110    0.9122818   -0.3591211
   0.0015408   -0.0064335   -0.0008557   -0.1674102    0.8678855   -0.4677056
  -0.0012603   -0.0066258    0.0019779    0.0796594    0.9962278   -0.0344185
   0.0056109   -0.0074307   -0.0016576    0.2948577    0.7635107   -0.5745523
   0.0055384   -0.0070493   -0.0009812    0.4258608    0.8922264   -0.1502483
   0.0052435   -0.0069130   -0.0011508    0.3810411    0.8326133   -0.4019487
   0.0050802   -0.0057511    0.0010904    0.1906363    0.9278932   -0.3204248
   0.0044176   -0.0055529    0.0014450   -0.0820952    0.9758058   -0.2026409
   0.0053560   -0.0068903   -0.0007167    0.5173697    0.8034121   -0.2947161
   0.0050603   -0.0066195   -0.0008984    0.4642210    0.8070956   -0.3648227
   0.0048763   -0.0064309   -0.0006425    0.2426747    0.9000647   -0.3619289
   0.0047480   -0.0061340   -0.0001767    0.2115571    0.8796463   -0.4259883
   0.0053928   -0.0061654    0.0003664    0.3751288    0.8302226   -0.4123213
   0.0052643   -0.0059240    0.0008342    0.1289215    0.9504626   -0.2828429
   0.0052976   -0.0058822    0.0010504    0.0853417    0.9497440   -0.3011698
   0.0041777   -0.0055736    0.0014947   -0.3339533    0.9356747   -0.1139650
   0.0039199   -0.0055642    0.0024474   -0.5368627    0.8373024   -0.1034561
   0.0010783   -0.0074028   -0.0016251   -0.0655750    0.3452424   -0.9362198
   0.0013743   -0.0069766   -0.0014762   -0.0697507    0.4355607   -0.8974529
   0.0003604   -0.0070294   -0.0014909   -0.1462642    0.4853529   -0.8619973
   0.0018528   -0.0072222   -0.0015658   -0.0904734    0.4645746   -0.8809001
   0.0025878   -0.0071956   -0.0016511   -0.3938035    0.5784784   -0.7143400
   0.0021157   -0.0071590   -0.0015265   -0.1659485    0.4959240   -0.8523617
   0.0030252   -0.0072343   -0.0019090   -0.3560429    0.5765758   -0.7353868
   0.0043036   -0.0069789   -0.0018548    0.0396441    0.7074725   -0.7056281
   0.0030506   -0.0071063   -0.0018166   -0.3435131    0.6480547   -0.6797233
   0.0037691   -0.0070695   -0.0019663   -0.1771659    0.6623808   -0.7279175
   0.0053164   -0.0073976   -0.0018229    0.2676791    0.7496365   -0.6053040
   0.0009510   -0.0066513    0.0017485   -0.2640527    0.9633465    0.0473252
   0.0017988   -0.0064379    0.0011162   -0.3523254    0.9226846    0.1565885
   0.0027471   -0.0061659    0.0013610   -0.4542254    0.8827549    0.1200958
   0.0030342   -0.0061359    0.0019758   -0.5170826    0.8549834    0.0403606
   0.0029049   -0.0061796    0.0024538   -0.5134849    0.8565913   -0.0508386
   0.0039383   -0.0056499    0.0015472   -0.5406846    0.8404407   -0.0363261
   0.0007669   -0.0066628    0.0020120   -0.2531817    0.9664624   -0.0430060
  -0.0005416   -0.0067260    0.0018338   -0.0231225    0.9961021    0.0851227
   0.0002323   -0.0067494    0.0019004   -0.2242825    0.9718954    0.0715315
   0.0001770   -0.0067142   -0.0012394   -0.2242521    0.7747048   -0.5912220
   0.0008605   -0.0065270    0.0006380   -0.2887967    0.9428957    0.1659642
   0.0009143   -0.0065104    0.0006260   -0.5141027    0.8324078    0.2068714
   0.0022971   -0.0061294    0.0001024   -0.3259587    0.9453373    0.0094016
   0.0012093   -0.0064527    0.0007880   -0.3330692    0.9275619    0.1693926
   0.0021309   -0.0062644   -0.0005333   -0.1870278    0.9300883   -0.3161587
   0.0009510   -0.0066265   -0.0011771   -0.1438263    0.7800544   -0.6089574
   0.0014298   -0.0067018   -0.0012730   -0.0835017    0.7288916   -0.6795178
   0.0017130   -0.0066444   -0.0011557   -0.0708908    0.8128382   -0.5781596
   0.0006559   -0.0067636   -0.0013364   -0.1256712    0.6284404   -0.7676388
   0.0004167   -0.0067311   -0.0012878   -0.1871245    0.7502785   -0.6340872
   0.0022222   -0.0066799   -0.0011363   -0.1169106    0.7334416   -0.6696233
   0.0019643   -0.0066647   -0.0011596   -0.0455982    0.8070531   -0.5887156
   0.0034569   -0.0066058   -0.0012438   -0.2228186    0.7925612   -0.5676254
   0.0047654   -0.0065248   -0.0010664    0.2167457    0.8747746   -0.4333482
   0.0046546   -0.0067515   -0.0014851    0.2205445    0.7835270   -0.5809006
   0.0051165   -0.0058750    0.0008625    0.1746759    0.9280650   -0.3289128
   0.0047300   -0.0058084    0.0007145    0.0543953    0.9415523   -0.3324461
   0.0042515   -0.0056938    0.0008094   -0.1596184    0.9446173   -0.2867404
   0.0041228   -0.0056028    0.0012826   -0.3351755    0.9325817   -0.1339728
   0.0043418   -0.0063273   -0.0007615    0.0109553    0.9018537   -0.4319027
   0.0045085   -0.0060656   -0.0001302    0.0597888    0.9286096   -0.3662098
   0.0051534   -0.0060258    0.0004105    0.1818149    0.9164599   -0.3564333
   0.0011348   -0.0068964   -0.0014298   -0.1075315    0.5342398   -0.8384657
   0.0016692   -0.0067701   -0.0013199   -0.0612954    0.6232899   -0.7795849
   0.0026271   -0.0070138   -0.0015079   -0.2170898    0.6639434   -0.7155775
   0.0038587   -0.0068120   -0.0016317   -0.1706344    0.8151655   -0.5535242
   0.0044149   -0.0066572   -0.0014395   -0.0417988    0.8437094   -0.5351703
   0.0010248   -0.0065493    0.0010546   -0.4570154    0.8676416    0.1957931
   0.0032374   -0.0058873    0.0008000   -0.3848404    0.9213272    0.0552641
   0.0037723   -0.0057611    0.0009105   -0.3337265    0.9309488   -0.1481923
   0.0009585   -0.0065300    0.0007977   -0.5579328    0.8063566    0.1962144
   0.0025370   -0.0060830    0.0000517   -0.2552985    0.9383580   -0.2330385
   0.0030890   -0.0063575   -0.0007272   -0.1681470    0.8962465   -0.4104495
   0.0026763   -0.0062143   -0.0003781   -0.1364081    0.9272163   -0.3488019
   0.0037518   -0.0064726   -0.0010845   -0.1881388    0.8510082   -0.4902946
   0.0033283   -0.0063604   -0.0007765   -0.2214828    0.8711771   -0.4381734
