NORM_ASCII
2662 5320
  -0.0052657   -0.0332328    0.0041624   -0.5517853   -0.1443356    0.8214013
  -0.0037985   -0.0326124    0.0049377   -0.2351304   -0.1025912    0.9665344
  -0.0021229   -0.0320682    0.0050032    0.3904800   -0.0621782    0.9185092
  -0.0020537   -0.0316301    0.0050716    0.3415897   -0.0627899    0.9377494
  -0.0036993   -0.0317250    0.0050627   -0.2260209   -0.1033685    0.9686225
  -0.0026882   -0.0310347    0.0052165    0.1279484   -0.0044032    0.9917711
  -0.0033720   -0.0308869    0.0051740   -0.1284264   -0.0743639    0.9889270
  -0.0034215   -0.0313295    0.0051342   -0.1499281   -0.0805208    0.9854126
  -0.0049646   -0.0319308    0.0044464   -0.4887921   -0.1111140    0.8652953
  -0.0007353   -0.0333077    0.0042310    0.5183127   -0.0314335    0.8546133
  -0.0003779   -0.0333966    0.0039594    0.7235855   -0.0264318    0.6897284
   0.0000672   -0.0330680    0.0033726    0.8791023   -0.0069259    0.4765828
   0.0008800   -0.0368554    0.0015887    0.6290347    0.6811920   -0.3745569
   0.0008711   -0.0369421    0.0014352    0.5663024    0.7408052   -0.3612608
   0.0001309   -0.0351940    0.0019276    0.7837593    0.3066338   -0.5400899
   0.0002767   -0.0359821    0.0017472    0.6096181    0.4252811   -0.6689557
   0.0002311   -0.0349653    0.0021415    0.8667537    0.2075086   -0.4535176
   0.0006697   -0.0366497    0.0015717    0.5111594    0.6908326   -0.5113379
  -0.0000118   -0.0365001    0.0010988    0.4258677    0.6549577   -0.6242333
  -0.0002192   -0.0362671    0.0011266    0.4593332    0.5404408   -0.7049374
   0.0004334   -0.0366846    0.0013440    0.4196899    0.7262230   -0.5444819
   0.0002807   -0.0345144    0.0023439    0.9473727    0.1829199   -0.2627265
   0.0002532   -0.0331379    0.0027232    0.9878124    0.0825063    0.1319825
   0.0002644   -0.0339799    0.0025404    0.9742076    0.2233674    0.0320387
   0.0002506   -0.0335968    0.0025232    0.9899622    0.1363752   -0.0371047
   0.0002567   -0.0340584    0.0023235    0.9911943    0.0673537   -0.1140060
   0.0002567   -0.0340584    0.0023235    0.9955774    0.0874379   -0.0343536
  -0.0049816   -0.0405505    0.0034980    0.0836755   -0.4161109    0.9054558
  -0.0048654   -0.0400792    0.0037019   -0.0290060   -0.3540969    0.9347588
  -0.0064365   -0.0407090    0.0030082   -0.6225430   -0.2546240    0.7400046
  -0.0061084   -0.0407707    0.0032175   -0.4610343   -0.2867667    0.8397692
  -0.0068116   -0.0408215    0.0025585   -0.7537302   -0.3126751    0.5780355
  -0.0066325   -0.0413033    0.0025865   -0.6956286   -0.4099385    0.5899587
  -0.0066631   -0.0415845    0.0023772   -0.6581861   -0.4810411    0.5791291
  -0.0067231   -0.0421571    0.0015200   -0.6452199   -0.6935029    0.3205387
  -0.0066879   -0.0418155    0.0021665   -0.6445552   -0.5861719    0.4908678
  -0.0067023   -0.0419559    0.0019521   -0.6588700   -0.6482803    0.3816058
  -0.0067329   -0.0422549    0.0013040   -0.6766501   -0.6904960    0.2556560
  -0.0065268   -0.0425082    0.0011031   -0.4433624   -0.8762119    0.1888981
  -0.0058507   -0.0427150    0.0013945   -0.1004066   -0.9153547    0.3899286
  -0.0065283   -0.0425287    0.0008840   -0.4237061   -0.9030892    0.0700218
  -0.0058560   -0.0403640    0.0034556   -0.3266264   -0.2267940    0.9175400
  -0.0060591   -0.0403246    0.0033548   -0.4563502   -0.2036528    0.8661813
  -0.0055535   -0.0399701    0.0036257   -0.2644229   -0.1444341    0.9535299
  -0.0053169   -0.0399397    0.0036783   -0.1445381   -0.1900886    0.9710690
  -0.0056346   -0.0429192    0.0002759    0.0253068   -0.9704604   -0.2399296
  -0.0056230   -0.0428263    0.0000310    0.0672094   -0.9441497   -0.3225899
  -0.0053722   -0.0426925   -0.0003830    0.2288615   -0.8856732   -0.4039870
  -0.0058516   -0.0427823    0.0000420   -0.2200902   -0.9482116   -0.2290308
  -0.0065235   -0.0425081    0.0004435   -0.4426334   -0.8928379   -0.0831631
  -0.0065260   -0.0425223    0.0006642   -0.4724090   -0.8809728   -0.0267690
  -0.0046410   -0.0404156   -0.0019352    0.3631436   -0.2313852   -0.9025451
  -0.0054542   -0.0393579   -0.0024024    0.2155474   -0.0930394   -0.9720509
  -0.0047207   -0.0390560   -0.0021966    0.2948550    0.0638443   -0.9534067
  -0.0044558   -0.0387713   -0.0020552    0.4120374    0.1311856   -0.9016737
  -0.0037584   -0.0387877   -0.0016721    0.5556645    0.1242124   -0.8220756
  -0.0052956   -0.0420490   -0.0012154    0.2612933   -0.6873393   -0.6777098
  -0.0054928   -0.0417402   -0.0015280    0.2352636   -0.5571047   -0.7964203
  -0.0054480   -0.0413516   -0.0017631    0.2565389   -0.4571825   -0.8515703
  -0.0056526   -0.0411006   -0.0019307    0.2107555   -0.3855991   -0.8982736
  -0.0055505   -0.0402062   -0.0022562    0.2378023   -0.2710816   -0.9327191
  -0.0048784   -0.0404518   -0.0019993    0.2883169   -0.2565536   -0.9225257
  -0.0058243   -0.0425680   -0.0006261   -0.0132809   -0.8782095   -0.4780917
  -0.0034978   -0.0383792   -0.0013750    0.5538488    0.3205267   -0.7684492
  -0.0020857   -0.0384046   -0.0006592   -0.0063798    0.1448965   -0.9894263
  -0.0008997   -0.0382402   -0.0006199    0.0536833    0.2652436   -0.9626858
  -0.0006955   -0.0385042   -0.0006715    0.1450855    0.2129539   -0.9662302
  -0.0017263   -0.0382794   -0.0006504   -0.0422010    0.1655894   -0.9852914
  -0.0013613   -0.0381936   -0.0006400   -0.0252326    0.2508097   -0.9677075
  -0.0027474   -0.0380602   -0.0006962    0.2850380    0.3700458   -0.8842055
  -0.0015133   -0.0374487   -0.0002383   -0.0932748    0.6592196   -0.7461430
  -0.0015580   -0.0378590   -0.0005272   -0.0776156    0.4024091   -0.9121638
  -0.0024701   -0.0376578   -0.0004501    0.1240359    0.4499001   -0.8844236
  -0.0029757   -0.0380170   -0.0008116    0.4640481    0.3722098   -0.8038154
   0.0004449   -0.0387313   -0.0002491    0.4969380    0.1900770   -0.8467133
   0.0002662   -0.0382412   -0.0002328    0.3754619    0.4204016   -0.8260090
  -0.0003954   -0.0379036   -0.0003946    0.2462171    0.3891466   -0.8876610
   0.0007221   -0.0383292    0.0000101    0.5270462    0.3481759   -0.7752392
   0.0009504   -0.0383687    0.0002109    0.7006210    0.2456946   -0.6698988
   0.0010586   -0.0383860    0.0003424    0.8120807    0.2705610   -0.5170316
   0.0011984   -0.0382139    0.0007800    0.9025748    0.2833310   -0.3241640
   0.0010606   -0.0373455    0.0011771    0.6599804    0.5899354   -0.4651903
   0.0008625   -0.0378933    0.0003135    0.6678023    0.4159050   -0.6173031
   0.0010070   -0.0378512    0.0005372    0.6570401    0.5651987   -0.4988474
   0.0009354   -0.0374293    0.0009560    0.5117242    0.6491873   -0.5627559
   0.0008112   -0.0375051    0.0007343    0.4278589    0.7052109   -0.5653444
  -0.0060472   -0.0394218    0.0034075   -0.4139969   -0.0826017    0.9065228
  -0.0061900   -0.0384881    0.0033619   -0.4056738   -0.0423426    0.9130366
  -0.0061854   -0.0380386    0.0033427   -0.4044551   -0.0375117    0.9137882
  -0.0066280   -0.0379547    0.0031017   -0.6297614   -0.0533969    0.7749512
  -0.0067368   -0.0361364    0.0027995   -0.7765797    0.0138254    0.6298673
  -0.0065540   -0.0366182    0.0030468   -0.6507575    0.0089870    0.7592324
  -0.0057911   -0.0358535    0.0036097   -0.5048204   -0.1040793    0.8569270
  -0.0066830   -0.0356974    0.0027826   -0.7500426   -0.0093287    0.6613238
  -0.0066538   -0.0352550    0.0027275   -0.8125441   -0.0349478    0.5818511
  -0.0062931   -0.0339577    0.0031627   -0.7072930   -0.1116359    0.6980501
  -0.0054583   -0.0328719    0.0040278   -0.6076409   -0.1127544    0.7861673
  -0.0057530   -0.0326921    0.0037888   -0.6777657   -0.1210796    0.7252402
  -0.0039766   -0.0321220    0.0049273   -0.2810913   -0.0933041    0.9551346
  -0.0040912   -0.0316463    0.0049081   -0.3320697   -0.0911641    0.9388391
  -0.0009638   -0.0314351    0.0045813    0.5231188   -0.0398220    0.8513289
  -0.0015481   -0.0312950    0.0049123    0.3860504   -0.0006745    0.9224775
  -0.0017866   -0.0313378    0.0049851    0.2845521    0.0944359    0.9539979
  -0.0038433   -0.0303382    0.0050813   -0.2642235   -0.0810644    0.9610487
  -0.0035009   -0.0299550    0.0051985   -0.1640368   -0.0565908    0.9848296
  -0.0023609   -0.0302005    0.0052332    0.1338248   -0.0287152    0.9905889
  -0.0046112   -0.0315447    0.0046594   -0.4788579   -0.1114009    0.8707956
  -0.0056524   -0.0304505    0.0039135   -0.6731464   -0.1018116    0.7324673
  -0.0005563   -0.0328961    0.0041863    0.5962390   -0.0256258    0.8023979
  -0.0003034   -0.0327301    0.0040032    0.7271919    0.0113315    0.6863407
  -0.0002124   -0.0320770    0.0039787    0.7079161   -0.0219221    0.7059563
   0.0002209   -0.0326597    0.0031412    0.9734148   -0.0071502    0.2289378
   0.0001476   -0.0308044    0.0038509    0.7298814   -0.0588777    0.6810334
   0.0003262   -0.0313128    0.0034459    0.8638033   -0.1002977    0.4937451
  -0.0000705   -0.0349163    0.0017483    0.6403936    0.2215328   -0.7354041
  -0.0000048   -0.0343242    0.0018849    0.7130693    0.1623467   -0.6820380
  -0.0006260   -0.0357294    0.0011076    0.4379786    0.3355653   -0.8340088
  -0.0009828   -0.0347490    0.0010908    0.4671308    0.1754394   -0.8666082
  -0.0004333   -0.0360964    0.0010650    0.4607940    0.4446205   -0.7681025
   0.0001786   -0.0345030    0.0021196    0.8671702    0.1447475   -0.4765123
   0.0002069   -0.0345057    0.0021936    0.9304414    0.1423926   -0.3376435
  -0.0000633   -0.0369776    0.0006777    0.3361654    0.6456397   -0.6856692
  -0.0006753   -0.0361786    0.0008937    0.2790929    0.4917004   -0.8248260
   0.0002449   -0.0331444    0.0025036    0.9738169    0.1551318   -0.1661770
   0.0002713   -0.0326905    0.0027048    0.9886457    0.0996828   -0.1124412
   0.0002567   -0.0340584    0.0023235    0.9787687    0.0910364   -0.1836417
   0.0002229   -0.0336015    0.0023022    0.9226293    0.1852598   -0.3382808
  -0.0069511   -0.0401680    0.0025250   -0.8376781   -0.2285556    0.4960421
  -0.0068695   -0.0397243    0.0027289   -0.8273596   -0.1893480    0.5287943
  -0.0065777   -0.0388672    0.0031430   -0.5627224   -0.1355394    0.8154585
  -0.0068224   -0.0388240    0.0029010   -0.7402074   -0.1458939    0.6563596
  -0.0069246   -0.0415551    0.0019261   -0.8374392   -0.4008368    0.3715178
  -0.0069874   -0.0406210    0.0023232   -0.9052628   -0.2632678    0.3334506
  -0.0069123   -0.0417552    0.0017153   -0.8106865   -0.5256407    0.2578552
  -0.0069272   -0.0419042    0.0012811   -0.8467159   -0.5059953    0.1644412
  -0.0068929   -0.0420530    0.0010692   -0.8457260   -0.5194889    0.1219784
  -0.0067398   -0.0423257    0.0010870   -0.6770928   -0.7226979    0.1387556
  -0.0067416   -0.0423500    0.0008680   -0.6793544   -0.7334489    0.0230301
  -0.0065200   -0.0424882    0.0002231   -0.4243809   -0.9006526   -0.0934115
  -0.0065154   -0.0424567    0.0000022   -0.5020828   -0.8431619   -0.1923299
  -0.0060591   -0.0425714   -0.0004150   -0.3545703   -0.8659481   -0.3527233
  -0.0067395   -0.0423436    0.0006480   -0.6808472   -0.7320065   -0.0247696
  -0.0067369   -0.0423295    0.0004276   -0.6610498   -0.7468486   -0.0723211
  -0.0059103   -0.0392605   -0.0024279   -0.1153396   -0.0591586   -0.9915629
  -0.0056325   -0.0388670   -0.0024034    0.0639877    0.1197529   -0.9907395
  -0.0057814   -0.0401861   -0.0023002    0.0544813   -0.2109489   -0.9759776
  -0.0046210   -0.0381652   -0.0020336    0.2822489    0.2701722   -0.9205121
  -0.0051654   -0.0388619   -0.0022990    0.2146391    0.1531649   -0.9646090
  -0.0041969   -0.0382505   -0.0018477    0.4498357    0.2613587   -0.8540138
  -0.0058048   -0.0424052   -0.0008522    0.0110789   -0.8718367   -0.4896714
  -0.0057868   -0.0422579   -0.0010773    0.0574850   -0.8157984   -0.5754724
  -0.0057632   -0.0420584   -0.0013050    0.1052365   -0.6929355   -0.7132781
  -0.0059246   -0.0414362   -0.0017778    0.0435252   -0.5213674   -0.8522216
  -0.0058305   -0.0406199   -0.0021678    0.0707439   -0.3486572   -0.9345766
  -0.0060291   -0.0423255   -0.0008614   -0.2888114   -0.8897761   -0.3533928
  -0.0031636   -0.0376094   -0.0007354    0.4148279    0.5092166   -0.7540665
  -0.0043682   -0.0379845   -0.0018658    0.3919592    0.4456374   -0.8048449
  -0.0008737   -0.0380074   -0.0005418    0.0572210    0.3514938   -0.9344399
  -0.0029132   -0.0374490   -0.0005127    0.2750555    0.5666556   -0.7766890
  -0.0013057   -0.0376885   -0.0004398   -0.0349078    0.5737425   -0.8182915
  -0.0018302   -0.0373262   -0.0000361   -0.0462994    0.7222223   -0.6901097
  -0.0022134   -0.0374454   -0.0002657    0.0632655    0.6756137   -0.7345363
  -0.0010082   -0.0370933    0.0002061    0.0010006    0.7091463   -0.7050606
   0.0002863   -0.0380601   -0.0001415    0.3366665    0.5082003   -0.7927093
   0.0004643   -0.0382782   -0.0001253    0.3967014    0.4859924   -0.7787421
  -0.0006159   -0.0377865   -0.0004085    0.1148828    0.4917461   -0.8631267
  -0.0005863   -0.0375132   -0.0001990    0.1818181    0.6704299   -0.7193510
   0.0007471   -0.0381035    0.0000979    0.5056891    0.4244618   -0.7510730
   0.0007828   -0.0377780    0.0003055    0.4480349    0.6280660   -0.6362373
   0.0003393   -0.0375672    0.0002788    0.2641659    0.7087640   -0.6541177
  -0.0068142   -0.0370230    0.0028345   -0.8059036   -0.0326697    0.5911447
  -0.0069514   -0.0379010    0.0027306   -0.7993863   -0.0936248    0.5934779
  -0.0069865   -0.0369950    0.0026067   -0.8179811   -0.0411062    0.5737745
  -0.0067033   -0.0356947    0.0027528   -0.8612546    0.0023330    0.5081684
  -0.0069580   -0.0343166    0.0020526   -0.8938933   -0.0375624    0.4467033
  -0.0071842   -0.0365217    0.0021387   -0.8718537   -0.0232003    0.4892166
  -0.0063397   -0.0330463    0.0031217   -0.8186496   -0.0991373    0.5656719
  -0.0061967   -0.0317154    0.0032898   -0.7877613   -0.0847182    0.6101270
  -0.0041850   -0.0298164    0.0049856   -0.3659281   -0.0730660    0.9277704
  -0.0045150   -0.0297539    0.0048099   -0.4540470   -0.0779521    0.8875611
  -0.0047941   -0.0306038    0.0046159   -0.5271364   -0.1389716    0.8383401
  -0.0046907   -0.0301706    0.0047256   -0.5225835   -0.0963790    0.8471231
  -0.0003543   -0.0315853    0.0041719    0.6050776   -0.0241912    0.7957989
  -0.0012957   -0.0311346    0.0047753    0.4863749    0.0126228    0.8736590
  -0.0009432   -0.0300805    0.0046881    0.5140034    0.0103457    0.8577257
  -0.0012999   -0.0290888    0.0049234    0.4447867    0.0191770    0.8954312
  -0.0018551   -0.0298636    0.0051096    0.3393299    0.0039691    0.9406591
  -0.0036296   -0.0290230    0.0051987   -0.2531169   -0.0343838    0.9668245
  -0.0032235   -0.0295614    0.0052474   -0.0597000   -0.0396810    0.9974274
  -0.0041050   -0.0291020    0.0050178   -0.3575455   -0.0359294    0.9332043
  -0.0026602   -0.0287062    0.0052772    0.0052149   -0.0196304    0.9997937
  -0.0029151   -0.0288982    0.0052756   -0.0070089   -0.0047521    0.9999641
  -0.0019657   -0.0271241    0.0052362    0.3009236    0.0215464    0.9534048
  -0.0022914   -0.0275018    0.0053183    0.1261030   -0.0053698    0.9920026
  -0.0058502   -0.0301422    0.0036753   -0.7906441   -0.1187371    0.6006525
  -0.0063259   -0.0307964    0.0030250   -0.8508354   -0.0703675    0.5206990
  -0.0052198   -0.0291707    0.0043177   -0.6540613   -0.0757420    0.7526400
  -0.0058307   -0.0299692    0.0037090   -0.7583451   -0.0902185    0.6455799
   0.0003078   -0.0322374    0.0029065    0.9990226    0.0365171   -0.0249068
   0.0003982   -0.0313348    0.0033111    0.9827804   -0.0868833    0.1630763
   0.0003754   -0.0308659    0.0036028    0.7971672   -0.1316028    0.5892411
   0.0004554   -0.0301510    0.0037020    0.7257998   -0.0463967    0.6863396
   0.0000513   -0.0295727    0.0041010    0.5776706   -0.0048754    0.8162554
   0.0005334   -0.0309140    0.0032981    0.9523890   -0.1279841    0.2767225
  -0.0005042   -0.0346334    0.0014390    0.5766176    0.1391311   -0.8050805
   0.0001725   -0.0340504    0.0020999    0.8141689    0.1624299   -0.5574456
  -0.0001996   -0.0339868    0.0017283    0.6047227    0.1208706   -0.7872107
  -0.0012604   -0.0351490    0.0009025    0.3055400    0.2014796   -0.9306188
  -0.0011102   -0.0358934    0.0008098    0.1961453    0.2853699   -0.9381317
  -0.0007050   -0.0343466    0.0013233    0.5419286    0.1596164   -0.8251279
  -0.0012724   -0.0346916    0.0009718    0.2952464    0.1497619   -0.9436106
  -0.0014499   -0.0342023    0.0009437    0.3456955    0.0491254   -0.9370599
  -0.0011115   -0.0338167    0.0011015    0.4868289    0.0684224   -0.8708134
  -0.0005516   -0.0371843    0.0002277    0.1611433    0.6957791   -0.6999459
  -0.0010026   -0.0370407    0.0002607    0.0610761    0.6430223   -0.7634082
  -0.0012105   -0.0368072    0.0004056    0.0477754    0.5010162   -0.8641182
   0.0001092   -0.0322237    0.0022387    0.8432386    0.1408173   -0.5187670
   0.0002810   -0.0322406    0.0026859    0.9298566    0.0809097   -0.3589155
   0.0000298   -0.0331187    0.0020541    0.7179045    0.1867933   -0.6706127
  -0.0071243   -0.0401597    0.0018582   -0.9694600   -0.1757443    0.1710591
  -0.0069622   -0.0400848    0.0025207   -0.9010609   -0.2064736    0.3813895
  -0.0070732   -0.0397001    0.0022804   -0.9490221   -0.1649486    0.2686057
  -0.0070929   -0.0391796    0.0022568   -0.9545805   -0.1863299    0.2325021
  -0.0070505   -0.0387914    0.0025277   -0.8784529   -0.1763821    0.4440832
  -0.0071503   -0.0406246    0.0014376   -0.9776808   -0.2022202    0.0569838
  -0.0070176   -0.0415555    0.0014827   -0.9225811   -0.3566041    0.1472331
  -0.0070421   -0.0415790    0.0008231   -0.9316808   -0.3625422    0.0231070
  -0.0069011   -0.0420614    0.0008493   -0.8499611   -0.5258458    0.0324403
  -0.0068848   -0.0420733    0.0006308   -0.8601865   -0.5093760   -0.0248039
  -0.0068551   -0.0421000    0.0001932   -0.8010840   -0.5951966   -0.0632886
  -0.0067485   -0.0421414   -0.0002404   -0.6577001   -0.7142763   -0.2392486
  -0.0067043   -0.0420795   -0.0004615   -0.6376149   -0.6970981   -0.3278743
  -0.0064652   -0.0420505   -0.0008930   -0.4227668   -0.8407320   -0.3382867
  -0.0068659   -0.0420878    0.0004122   -0.8501549   -0.5261644   -0.0196896
  -0.0060745   -0.0386413   -0.0023438   -0.1619277    0.1131598   -0.9802930
  -0.0064159   -0.0395959   -0.0022779   -0.3503171   -0.1638083   -0.9221956
  -0.0063351   -0.0391627   -0.0023315   -0.2693194   -0.0316253   -0.9625315
  -0.0060208   -0.0402388   -0.0022728   -0.1096245   -0.2200276   -0.9693144
  -0.0057365   -0.0377048   -0.0021511    0.0055085    0.2792187   -0.9602117
  -0.0053053   -0.0380251   -0.0021963    0.1528610    0.2711399   -0.9503245
  -0.0050688   -0.0379939   -0.0021127    0.2417244    0.3519570   -0.9042652
  -0.0048056   -0.0377237   -0.0018941    0.2464340    0.5140885   -0.8215736
  -0.0060292   -0.0423249   -0.0008643   -0.2403282   -0.9079216   -0.3433958
  -0.0060147   -0.0422084   -0.0010883   -0.1499669   -0.8569521   -0.4930954
  -0.0059945   -0.0420378   -0.0013149   -0.0727070   -0.7195010   -0.6906750
  -0.0061898   -0.0417079   -0.0015566   -0.2655852   -0.6507886   -0.7112936
  -0.0061487   -0.0413540   -0.0017900   -0.2446377   -0.5070561   -0.8264663
  -0.0062869   -0.0405217   -0.0021731   -0.2199129   -0.3328049   -0.9169946
  -0.0043384   -0.0377110   -0.0016565    0.3166840    0.6506728   -0.6901711
  -0.0035970   -0.0373099   -0.0007654    0.3419541    0.6144074   -0.7110352
  -0.0030548   -0.0365974    0.0002175    0.3481290    0.5881897   -0.7299583
  -0.0028269   -0.0366438    0.0003056    0.2227824    0.5549094   -0.8015257
  -0.0035244   -0.0366342   -0.0001321    0.3693742    0.6002288   -0.7094280
  -0.0023698   -0.0367340    0.0003573    0.0609374    0.5858676   -0.8081125
  -0.0016756   -0.0367876    0.0003866   -0.0418057    0.5117963   -0.8580891
   0.0000948   -0.0376775    0.0000545    0.3103981    0.7696575   -0.5579250
   0.0005383   -0.0378883    0.0000809    0.3843898    0.6765215   -0.6281426
   0.0005439   -0.0378334    0.0001336    0.3164133    0.6281181   -0.7108799
   0.0003163   -0.0377853    0.0000709    0.2797864    0.8404404   -0.4640899
  -0.0071401   -0.0378741    0.0024187   -0.9359041   -0.1877986    0.2980187
  -0.0073442   -0.0356048    0.0016536   -0.9406557    0.0013067    0.3393599
  -0.0072106   -0.0342909    0.0013823   -0.9802577    0.0097217    0.1974849
  -0.0069757   -0.0329700    0.0017740   -0.9689050   -0.0542856    0.2414046
  -0.0068162   -0.0329833    0.0022209   -0.8960484   -0.0910399    0.4345215
  -0.0074961   -0.0364844    0.0014654   -0.9474516   -0.1133450    0.2991461
  -0.0065844   -0.0325632    0.0026522   -0.8693582   -0.1128352    0.4811284
  -0.0064776   -0.0321249    0.0028568   -0.8586174   -0.0956191    0.5036201
  -0.0046183   -0.0288297    0.0047661   -0.4726865   -0.0681941    0.8785881
  -0.0049162   -0.0292254    0.0045519   -0.5500653   -0.0750804    0.8317398
  -0.0009729   -0.0282626    0.0047987    0.4896062    0.0298072    0.8714340
  -0.0017363   -0.0267249    0.0051786    0.3438458    0.0320851    0.9384778
  -0.0033509   -0.0286177    0.0052461   -0.1167648   -0.0231047    0.9928908
  -0.0047203   -0.0283572    0.0047084   -0.5025587   -0.0565025    0.8626947
  -0.0041154   -0.0271180    0.0050487   -0.3628798   -0.0320909    0.9312832
  -0.0032532   -0.0277457    0.0053116   -0.0988720   -0.0405326    0.9942743
  -0.0024201   -0.0265684    0.0053456    0.1043048    0.0112589    0.9944816
  -0.0063028   -0.0303504    0.0030067   -0.8732560   -0.0818389    0.4803398
  -0.0060587   -0.0299336    0.0033888   -0.8292985   -0.0892957    0.5516252
  -0.0067090   -0.0320944    0.0024067   -0.9137185   -0.0772357    0.3989401
  -0.0067689   -0.0302994    0.0018870   -0.9538209   -0.0673556    0.2927266
  -0.0051268   -0.0278336    0.0043698   -0.6657079   -0.0582938    0.7439320
  -0.0058290   -0.0281678    0.0035910   -0.7871467   -0.0583458    0.6139999
   0.0003902   -0.0313523    0.0028718    0.9765329   -0.0132060   -0.2149628
   0.0005304   -0.0309219    0.0030786    0.9864619   -0.0999763   -0.1299913
   0.0005669   -0.0304600    0.0034998    0.8873800   -0.0649710    0.4564378
   0.0006437   -0.0300259    0.0034842    0.9221722    0.0033388    0.3867652
   0.0003783   -0.0294989    0.0038906    0.6507094   -0.0215849    0.7590200
   0.0005870   -0.0295534    0.0036813    0.7813596    0.0092680    0.6240122
   0.0003952   -0.0285955    0.0039668    0.5914954    0.0204071    0.8060501
   0.0006282   -0.0304832    0.0032833    0.9941238   -0.0419576    0.0997867
  -0.0006487   -0.0338407    0.0013990    0.5631225    0.0752468   -0.8229405
  -0.0003930   -0.0336360    0.0016203    0.6277465    0.1598197   -0.7618347
  -0.0017164   -0.0350542    0.0008105    0.2135074    0.0975434   -0.9720596
  -0.0016268   -0.0363441    0.0005893   -0.0293202    0.3364841   -0.9412326
  -0.0015873   -0.0359903    0.0006914    0.2228961    0.2287972   -0.9476124
  -0.0020023   -0.0354465    0.0007559    0.1178676    0.0990245   -0.9880796
  -0.0016466   -0.0323586    0.0008066    0.4282036    0.0298658   -0.9031887
  -0.0033831   -0.0333669    0.0001727    0.3358204   -0.0416081   -0.9410066
  -0.0031136   -0.0316214    0.0001080    0.2985134   -0.0223980   -0.9541426
  -0.0023510   -0.0344751    0.0006026    0.2952049    0.0037430   -0.9554266
  -0.0045814   -0.0335779   -0.0002538    0.2972038    0.0412307   -0.9539234
  -0.0007233   -0.0334377    0.0013789    0.5490087    0.1094989   -0.8286130
  -0.0014187   -0.0324026    0.0009279    0.5029378    0.0638820   -0.8619586
  -0.0016369   -0.0364379    0.0005509    0.1751516    0.3879713   -0.9048758
  -0.0003282   -0.0330558    0.0017111    0.6381221    0.1264981   -0.7594725
  -0.0003939   -0.0312332    0.0017367    0.6875308    0.1118170   -0.7174945
   0.0000619   -0.0316412    0.0022117    0.7815747    0.1414773   -0.6075567
   0.0002766   -0.0317897    0.0026496    0.8744357    0.0748918   -0.4793261
   0.0003044   -0.0313439    0.0026483    0.8653934    0.0795997   -0.4947303
  -0.0071278   -0.0401894    0.0011997   -0.9893010   -0.1420385   -0.0332943
  -0.0070991   -0.0392466    0.0020396   -0.9826795   -0.1692037    0.0755715
  -0.0070378   -0.0408433    0.0005716   -0.9876071   -0.1425344   -0.0656974
  -0.0070017   -0.0416179    0.0001667   -0.9504877   -0.3098718   -0.0235055
  -0.0069223   -0.0419216   -0.0000371   -0.8682040   -0.4902541   -0.0766343
  -0.0069131   -0.0418494   -0.0002596   -0.8221454   -0.5240590   -0.2223490
  -0.0066580   -0.0416992   -0.0011355   -0.6218472   -0.6494486   -0.4376330
  -0.0068808   -0.0415837   -0.0007095   -0.8475955   -0.4794999   -0.2272920
  -0.0062373   -0.0421089   -0.0011015   -0.3549449   -0.7937380   -0.4939575
  -0.0067725   -0.0386108   -0.0021936   -0.2904565   -0.0094813   -0.9568412
  -0.0064610   -0.0379157   -0.0021704   -0.1130129    0.1608134   -0.9804933
  -0.0069213   -0.0399233   -0.0019757   -0.5255157   -0.2734748   -0.8056332
  -0.0070997   -0.0394307   -0.0019266   -0.6276073   -0.2255949   -0.7451282
  -0.0070501   -0.0389951   -0.0020475   -0.5618996   -0.1562205   -0.8123201
  -0.0056809   -0.0371997   -0.0019510    0.1967726    0.4964974   -0.8454412
  -0.0052555   -0.0375755   -0.0020088    0.2389221    0.4830878   -0.8423434
  -0.0063466   -0.0368849   -0.0019222   -0.0047985    0.3494008   -0.9369611
  -0.0050258   -0.0376027   -0.0019080    0.2731729    0.5348485   -0.7995709
  -0.0047767   -0.0374559   -0.0016847    0.2873517    0.6930919   -0.6610995
  -0.0064023   -0.0415215   -0.0015729   -0.4545649   -0.5824735   -0.6738660
  -0.0065223   -0.0405325   -0.0020602   -0.4555068   -0.4096424   -0.7903839
  -0.0065683   -0.0409328   -0.0018246   -0.5347855   -0.4900340   -0.6883830
  -0.0043030   -0.0373764   -0.0012298    0.2699904    0.6908888   -0.6706548
  -0.0039928   -0.0366674   -0.0005885    0.3824643    0.5916834   -0.7096702
  -0.0040164   -0.0368844   -0.0007427    0.3026891    0.5587324   -0.7721382
  -0.0030373   -0.0364371    0.0003185    0.3877773    0.4231500   -0.8188851
  -0.0025596   -0.0363320    0.0005524    0.1314663    0.3891164   -0.9117593
  -0.0027778   -0.0361976    0.0005381    0.2820937    0.3674116   -0.8862459
  -0.0037419   -0.0364921   -0.0001467    0.4039811    0.6315929   -0.6617323
  -0.0034911   -0.0363299    0.0000762    0.4286409    0.3676100   -0.8253059
  -0.0037388   -0.0364649   -0.0001260    0.4161239    0.4074319   -0.8129208
  -0.0023212   -0.0362876    0.0006013    0.0704688    0.2701558   -0.9602343
  -0.0020999   -0.0363978    0.0005731   -0.0176550    0.4315244   -0.9019285
  -0.0018652   -0.0363874    0.0005819    0.6809413    0.2997476   -0.6681843
  -0.0073914   -0.0377231    0.0013030   -0.9230800   -0.2995642    0.2412150
  -0.0073914   -0.0378776    0.0010899   -0.8739147   -0.4603776    0.1559666
  -0.0072342   -0.0384037    0.0013386   -0.9451407   -0.3025781    0.1231077
  -0.0071671   -0.0387986    0.0017978   -0.9680608   -0.2315479    0.0961446
  -0.0075292   -0.0355949    0.0009862   -0.9941807    0.0325805    0.1026800
  -0.0072674   -0.0345523    0.0011715   -0.9878828    0.0482503    0.1475111
  -0.0071584   -0.0338804    0.0007070   -0.9980941    0.0118805   -0.0605562
  -0.0070143   -0.0323053    0.0010845   -0.9933600   -0.0803926    0.0822978
  -0.0069590   -0.0320803    0.0015168   -0.9764434   -0.0727583    0.2031366
  -0.0075966   -0.0360516    0.0005632   -0.9985269   -0.0427813    0.0333744
  -0.0075960   -0.0369335    0.0010411   -0.9579482   -0.2346443    0.1651585
  -0.0009667   -0.0269065    0.0048260    0.4635137    0.0376991    0.8852874
  -0.0002977   -0.0275210    0.0044388    0.5015738    0.0291613    0.8646232
  -0.0010820   -0.0250699    0.0049597    0.4685753    0.0360260    0.8826887
  -0.0015377   -0.0249614    0.0051526    0.2892549    0.0237534    0.9569574
  -0.0024994   -0.0251964    0.0053409    0.1020944    0.0191555    0.9945903
  -0.0045714   -0.0270308    0.0047873   -0.5684707   -0.0335390    0.8220196
  -0.0033818   -0.0268145    0.0052922   -0.1587704   -0.0251264    0.9869958
  -0.0035602   -0.0263267    0.0052391   -0.2818742   -0.0180205    0.9592821
  -0.0038361   -0.0258216    0.0051070   -0.4736661   -0.0292699    0.8802180
  -0.0046955   -0.0265590    0.0046653   -0.5631500    0.0043454    0.8263433
  -0.0031044   -0.0264222    0.0053253   -0.0975044   -0.0042758    0.9952259
  -0.0066608   -0.0294110    0.0020731   -0.9481863   -0.0819171    0.3069727
  -0.0063686   -0.0289936    0.0027258   -0.8925414   -0.0721534    0.4451559
  -0.0062108   -0.0276649    0.0028948   -0.8934549   -0.0550618    0.4457651
  -0.0069763   -0.0311954    0.0010380   -0.9951879   -0.0976219    0.0084241
  -0.0069637   -0.0303066    0.0007803   -0.9925888   -0.1206917    0.0141752
  -0.0067428   -0.0298535    0.0018638   -0.9755335   -0.0603634    0.2114017
  -0.0052202   -0.0269165    0.0042205   -0.6905839   -0.0422947    0.7220146
  -0.0055709   -0.0259592    0.0037258   -0.8208218   -0.0382795    0.5699002
  -0.0061887   -0.0272188    0.0028766   -0.8887676   -0.0584080    0.4546214
   0.0004595   -0.0309180    0.0028557    0.8909384   -0.0159392   -0.4538443
   0.0006161   -0.0304905    0.0030633    0.9717442   -0.0283840   -0.2343237
   0.0006938   -0.0300457    0.0032671    0.9994598   -0.0067185    0.0321701
   0.0008017   -0.0291640    0.0033286    0.9706038   -0.0017427    0.2406767
   0.0005899   -0.0281910    0.0038429    0.7468002    0.0291651    0.6644086
   0.0009016   -0.0282771    0.0034190    0.9063319   -0.0182520    0.4221721
  -0.0001396   -0.0271050    0.0043800    0.5337587    0.0213062    0.8453683
  -0.0018652   -0.0363874    0.0005819    0.8166383    0.1846541   -0.5468133
  -0.0018652   -0.0363874    0.0005819    0.6942608    0.1670969   -0.7000576
  -0.0018155   -0.0359414    0.0006957   -0.0247141    0.1788076   -0.9835736
  -0.0022717   -0.0358442    0.0006718    0.1709682    0.0885494   -0.9812894
  -0.0020438   -0.0358926    0.0007007    0.0216075    0.1831227   -0.9828526
  -0.0024596   -0.0312998    0.0003444    0.3952901   -0.0037598   -0.9185486
  -0.0011846   -0.0315451    0.0010595    0.5215508    0.0503958   -0.8517306
  -0.0037983   -0.0328348   -0.0000356    0.2206728    0.0076268   -0.9753181
  -0.0045129   -0.0308899   -0.0001978    0.1169791   -0.0072822   -0.9931077
  -0.0037286   -0.0301431   -0.0001230    0.1193378   -0.0269641   -0.9924875
  -0.0034508   -0.0297499   -0.0000964    0.2422280    0.0107539   -0.9701598
  -0.0031360   -0.0298137    0.0000291    0.4120335    0.0263915   -0.9107864
  -0.0028039   -0.0348336    0.0004784    0.3514523    0.0217306   -0.9359536
  -0.0026780   -0.0353090    0.0005479    0.3161408   -0.0172853   -0.9485548
  -0.0042246   -0.0345532   -0.0001372    0.3511364    0.0756785   -0.9332610
  -0.0045205   -0.0349457   -0.0002435    0.3007374    0.1251472   -0.9454603
  -0.0052656   -0.0334381   -0.0004382    0.2228534    0.1188004   -0.9675861
  -0.0056222   -0.0324543   -0.0003804    0.0754597    0.1176543   -0.9901835
  -0.0011798   -0.0319973    0.0010790    0.5898088    0.0720689   -0.8043206
  -0.0007644   -0.0307179    0.0013738    0.6188458    0.0752861   -0.7818963
   0.0001327   -0.0304165    0.0023814    0.7566571    0.0612085   -0.6509405
  -0.0006876   -0.0300324    0.0014537    0.6805506    0.0785273   -0.7284809
  -0.0071262   -0.0393173    0.0005025   -0.9587078   -0.2826059    0.0318322
  -0.0070038   -0.0402648    0.0001084   -0.9818946   -0.1891945    0.0094019
  -0.0070052   -0.0411949   -0.0005111   -0.9655899   -0.2600256    0.0047733
  -0.0069748   -0.0416437   -0.0002710   -0.9289778   -0.3495248   -0.1217896
  -0.0069837   -0.0412192   -0.0009491   -0.8652740   -0.4724889   -0.1674966
  -0.0068329   -0.0411858   -0.0013845   -0.7180050   -0.5213727   -0.4611283
  -0.0069508   -0.0381164   -0.0021198   -0.4333804   -0.0291087   -0.9007409
  -0.0066734   -0.0377264   -0.0021333   -0.1201169    0.1368562   -0.9832814
  -0.0069712   -0.0403554   -0.0017449   -0.7061828   -0.4215865   -0.5688328
  -0.0070336   -0.0398958   -0.0018876   -0.7088900   -0.3156797   -0.6307308
  -0.0071649   -0.0389655   -0.0019327   -0.8066519   -0.2096297   -0.5526011
  -0.0071060   -0.0394855   -0.0019080   -0.8144899   -0.2516129   -0.5227783
  -0.0071860   -0.0385104   -0.0019531   -0.7778398   -0.1480001   -0.6107873
  -0.0054342   -0.0370741   -0.0017267    0.3506108    0.6384727   -0.6851458
  -0.0056124   -0.0365694   -0.0014431    0.3835242    0.5890737   -0.7112675
  -0.0060875   -0.0366538   -0.0017702    0.2023288    0.5354427   -0.8199781
  -0.0052160   -0.0372105   -0.0017122    0.3205981    0.6926683   -0.6460862
  -0.0067793   -0.0365751   -0.0018006   -0.2721318    0.4151654   -0.8680910
  -0.0065247   -0.0363848   -0.0017051   -0.0165321    0.5179697   -0.8552392
  -0.0068941   -0.0372204   -0.0019973   -0.3157012    0.2185932   -0.9233362
  -0.0062773   -0.0362557   -0.0015751    0.1372677    0.5509309   -0.8231845
  -0.0047501   -0.0372012   -0.0012861    0.2871982    0.7395123   -0.6088011
  -0.0070154   -0.0407349   -0.0014109   -0.7762893   -0.4478735   -0.4436037
  -0.0047463   -0.0371678   -0.0012558    0.2459295    0.5886678   -0.7700577
  -0.0037784   -0.0364575   -0.0001494    0.4997675    0.5109683   -0.6993882
  -0.0041805   -0.0362519   -0.0003939    0.4596925    0.4057709   -0.7899575
  -0.0051183   -0.0363039   -0.0008681    0.2562741    0.4932185   -0.8312997
  -0.0050725   -0.0358876   -0.0006643    0.2746309    0.3846706   -0.8812527
  -0.0032716   -0.0360965    0.0002944    0.4578374    0.2071445   -0.8645670
  -0.0027841   -0.0361898    0.0005375    0.3784188    0.2147754   -0.9003725
  -0.0027774   -0.0361922    0.0005398    0.2145104    0.1785671   -0.9602599
  -0.0036906   -0.0360276    0.0000551    0.4678739    0.2256416   -0.8545057
  -0.0033908   -0.0356185    0.0002693    0.4353307    0.1006678   -0.8946246
  -0.0040956   -0.0354845   -0.0001302    0.4351169    0.1995811   -0.8779753
  -0.0039408   -0.0361840   -0.0001678    0.4922943    0.2898620   -0.8207474
  -0.0020929   -0.0363368    0.0005984    0.1927178    0.2633585   -0.9452524
  -0.0027280   -0.0357507    0.0005630    0.2934520    0.0500561   -0.9546624
  -0.0074076   -0.0378878    0.0008698   -0.8417078   -0.5238891    0.1306452
  -0.0074410   -0.0378869    0.0006487   -0.8955445   -0.4390043    0.0726317
  -0.0074650   -0.0356567   -0.0001079   -0.9876142    0.0747051   -0.1379761
  -0.0074315   -0.0351740    0.0007521   -0.9920021    0.0859345   -0.0924509
  -0.0072086   -0.0343312    0.0005043   -0.9719912    0.0998818   -0.2127364
  -0.0069036   -0.0335137    0.0000415   -0.9164745    0.0107839   -0.3999478
  -0.0070163   -0.0330198    0.0004556   -0.9569676   -0.0418635   -0.2871594
  -0.0070126   -0.0323007    0.0008645   -0.9958014   -0.0643871   -0.0650686
  -0.0069692   -0.0321172    0.0006385   -0.9757088   -0.0746828   -0.2059487
  -0.0076392   -0.0369626    0.0001614   -0.9866735   -0.1487932   -0.0658483
  -0.0075936   -0.0365321   -0.0000755   -0.9843055   -0.0710380   -0.1615436
   0.0001379   -0.0267197    0.0042518    0.5345403    0.0300890    0.8446072
   0.0002556   -0.0262972    0.0041878    0.5428517    0.0465287    0.8385387
  -0.0012107   -0.0241343    0.0050572    0.3966241    0.0396178    0.9171258
   0.0003362   -0.0249589    0.0041830    0.5425304    0.0521605    0.8384152
  -0.0009329   -0.0237482    0.0049121    0.4262037    0.0376759    0.9038423
  -0.0024005   -0.0243156    0.0053396    0.0564078    0.0071777    0.9983820
  -0.0020730   -0.0234842    0.0052895    0.2125303    0.0325995    0.9766105
  -0.0031860   -0.0245984    0.0052996   -0.1068069    0.0052328    0.9942660
  -0.0036893   -0.0253980    0.0051881   -0.3093620   -0.0338834    0.9503405
  -0.0046713   -0.0247610    0.0045889   -0.5816724   -0.0565854    0.8114526
  -0.0049383   -0.0260653    0.0044149   -0.6576020   -0.0245553    0.7529652
  -0.0039596   -0.0244427    0.0050427   -0.4867154   -0.0639924    0.8712136
  -0.0065404   -0.0285239    0.0022596   -0.9343103   -0.0643020    0.3506131
  -0.0069151   -0.0294154    0.0007438   -0.9902834   -0.0854164    0.1097395
  -0.0068471   -0.0289589    0.0011668   -0.9757232   -0.0759326    0.2054225
  -0.0065953   -0.0271793    0.0017597   -0.9562665   -0.0493037    0.2883116
  -0.0065165   -0.0280782    0.0022414   -0.9484866   -0.0533296    0.3122966
  -0.0069409   -0.0316709    0.0006690   -0.9901336   -0.0747029   -0.1185533
  -0.0068417   -0.0308063    0.0002772   -0.9638673   -0.1350178   -0.2296300
  -0.0068930   -0.0303413    0.0003448   -0.9384507   -0.1705418   -0.3003760
  -0.0068936   -0.0294397    0.0003061   -0.9846587   -0.1082798   -0.1368314
  -0.0063292   -0.0263055    0.0023920   -0.9439403   -0.0303993    0.3287134
  -0.0063637   -0.0267501    0.0024096   -0.9110515   -0.0511046    0.4091130
  -0.0055134   -0.0250702    0.0036876   -0.7860615   -0.0419008    0.6167266
  -0.0059693   -0.0250046    0.0029383   -0.8684557   -0.0481335    0.4934246
  -0.0061921   -0.0254236    0.0025792   -0.9333632   -0.0539540    0.3548550
   0.0005205   -0.0304792    0.0028392    0.8399784    0.0093953   -0.5425385
   0.0006723   -0.0300523    0.0030466    0.9492117    0.0032583   -0.3146212
   0.0008953   -0.0287369    0.0032186    0.9997975   -0.0193797   -0.0054284
   0.0008020   -0.0291742    0.0030793    0.9864342   -0.0083298   -0.1639454
   0.0007224   -0.0277719    0.0037738    0.7144969    0.0003535    0.6996385
   0.0010404   -0.0278664    0.0031867    0.9961942   -0.0595569    0.0636397
   0.0010003   -0.0273919    0.0034992    0.8092023   -0.0055972    0.5875034
   0.0010756   -0.0274130    0.0033885    0.9240074   -0.0323689    0.3810022
   0.0007724   -0.0273296    0.0037782    0.6551154    0.0222205    0.7552020
  -0.0015702   -0.0305705    0.0007826    0.5319195    0.0468517   -0.8454978
  -0.0027178   -0.0294482    0.0001343    0.3405792   -0.0082880   -0.9401793
  -0.0024216   -0.0299559    0.0002832    0.4670395    0.0030821   -0.8842311
  -0.0054738   -0.0311293   -0.0003044   -0.0018313    0.0419500   -0.9991180
  -0.0047144   -0.0306050   -0.0002180    0.0670430    0.0185350   -0.9975779
  -0.0046409   -0.0299500   -0.0002106    0.0475486   -0.0009707   -0.9988685
  -0.0040858   -0.0291655   -0.0001818    0.1125111   -0.0074292   -0.9936227
  -0.0031736   -0.0293545    0.0000004    0.5216938    0.0693785   -0.8503071
  -0.0032015   -0.0288968   -0.0000128    0.3198581    0.0298178   -0.9469961
  -0.0038735   -0.0350740    0.0000072    0.4190336    0.0645811   -0.9056711
  -0.0050077   -0.0353019   -0.0004644    0.3259155    0.2183995   -0.9198265
  -0.0046014   -0.0358421   -0.0004764    0.3163587    0.2636448   -0.9112676
  -0.0056420   -0.0347212   -0.0006589    0.2746066    0.1750230   -0.9454936
  -0.0057286   -0.0337959   -0.0005603    0.1701245    0.1460329   -0.9745420
  -0.0059778   -0.0335488   -0.0005805   -0.0439686    0.2092655   -0.9768699
  -0.0062897   -0.0327636   -0.0004067   -0.0743310    0.1353846   -0.9880010
  -0.0063066   -0.0323059   -0.0003544   -0.2071500    0.0835668   -0.9747335
   0.0005377   -0.0300315    0.0028208    0.8023876    0.0239238   -0.5963236
   0.0006438   -0.0291533    0.0027870    0.7457436   -0.0507223   -0.6642994
   0.0003656   -0.0289245    0.0025463    0.6477925   -0.0068858   -0.7617857
   0.0007929   -0.0291765    0.0030134    0.9372623   -0.0125742   -0.3483981
   0.0001474   -0.0286157    0.0023045    0.6740924   -0.0099494   -0.7385800
  -0.0009223   -0.0293377    0.0011944    0.6189084    0.0394338   -0.7844727
  -0.0070924   -0.0392972   -0.0003764   -0.9629482   -0.2538910    0.0909399
  -0.0072913   -0.0384186   -0.0004220   -0.9450676   -0.3268654   -0.0025085
  -0.0070759   -0.0407401   -0.0007536   -0.9694522   -0.1883546    0.1571148
  -0.0071106   -0.0407409   -0.0009746   -0.9558033   -0.2904523    0.0455798
  -0.0070904   -0.0407558   -0.0011931   -0.8977812   -0.3966902   -0.1913789
  -0.0071742   -0.0380631   -0.0019721   -0.7401479   -0.0904284   -0.6663361
  -0.0071161   -0.0376235   -0.0019887   -0.5896923    0.0434587   -0.8064579
  -0.0069014   -0.0376745   -0.0020998   -0.3090467    0.1022780   -0.9455313
  -0.0071398   -0.0403034   -0.0014343   -0.9081115   -0.3465802   -0.2349802
  -0.0071754   -0.0398550   -0.0016748   -0.8809848   -0.3083196   -0.3588938
  -0.0072635   -0.0389353   -0.0017182   -0.9260560   -0.2120763   -0.3121601
  -0.0072288   -0.0384983   -0.0018690   -0.8696243   -0.1617385   -0.4664700
  -0.0049668   -0.0370508   -0.0012697    0.3535346    0.6440890   -0.6783529
  -0.0060685   -0.0364794   -0.0016374    0.3292060    0.5686803   -0.7538077
  -0.0055399   -0.0358981   -0.0009019    0.4623698    0.4604033   -0.7577882
  -0.0053363   -0.0361657   -0.0008824    0.3791049    0.4815596   -0.7901771
  -0.0057908   -0.0360657   -0.0011519    0.3782120    0.5471273   -0.7467312
  -0.0067031   -0.0358781   -0.0013612   -0.3073346    0.5273244   -0.7921328
  -0.0069938   -0.0363950   -0.0015970   -0.5899165    0.3837693   -0.7104362
  -0.0069587   -0.0360734   -0.0013897   -0.5898914    0.4746998   -0.6532138
  -0.0069832   -0.0367403   -0.0018015   -0.5362906    0.2916361   -0.7920485
  -0.0065740   -0.0359078   -0.0013819   -0.1396570    0.5344822   -0.8335614
  -0.0063271   -0.0359608   -0.0013700    0.1587162    0.5325968   -0.8313542
  -0.0064347   -0.0355610   -0.0011714   -0.0269707    0.4768717   -0.8785590
  -0.0070800   -0.0371770   -0.0019141   -0.5308087    0.1747215   -0.8292855
  -0.0071296   -0.0376213   -0.0019785   -0.6507573    0.0553748   -0.7572639
  -0.0059939   -0.0357949   -0.0011439    0.3283793    0.4836016   -0.8113547
  -0.0052882   -0.0357281   -0.0006797    0.3719551    0.3238830   -0.8699133
  -0.0075405   -0.0374454   -0.0000341   -0.9506055   -0.3026022   -0.0691451
  -0.0074280   -0.0360565   -0.0005291   -0.9610175    0.0917446   -0.2608221
  -0.0073377   -0.0352325   -0.0000910   -0.9628015    0.1478990   -0.2261396
  -0.0069877   -0.0342019   -0.0001520   -0.9044970    0.1386612   -0.4033091
  -0.0070277   -0.0345641   -0.0003579   -0.8980510    0.2025258   -0.3904968
  -0.0068098   -0.0335443   -0.0001736   -0.7764372    0.0995497   -0.6222821
  -0.0066998   -0.0317548   -0.0000264   -0.7478405   -0.0396148   -0.6626954
  -0.0065514   -0.0322464   -0.0002192   -0.7963073    0.0020501   -0.6048888
  -0.0067129   -0.0317505   -0.0000061   -0.8910108   -0.0642048   -0.4494190
  -0.0068116   -0.0312700    0.0001682   -0.8774103   -0.1142998   -0.4659258
  -0.0075287   -0.0369393   -0.0002754   -0.9842437   -0.0662222   -0.1639481
  -0.0075104   -0.0370195   -0.0004908   -0.9828752   -0.0997698   -0.1549265
  -0.0073938   -0.0361532   -0.0007437   -0.9320432    0.1213535   -0.3414217
  -0.0073632   -0.0366291   -0.0011614   -0.9554676    0.0402226   -0.2923420
  -0.0075042   -0.0367322   -0.0005032   -0.9781385   -0.1437264   -0.1502924
   0.0006267   -0.0259350    0.0039669    0.6204365    0.0522805    0.7825122
  -0.0010122   -0.0223721    0.0050021    0.3744545    0.0295437    0.9267745
   0.0007423   -0.0255126    0.0038949    0.6446098    0.0699380    0.7613060
   0.0009474   -0.0251112    0.0037240    0.7002740    0.0710368    0.7103310
  -0.0001840   -0.0216645    0.0046309    0.5082305    0.0304985    0.8606809
  -0.0003776   -0.0229761    0.0046708    0.4756358    0.0191554    0.8794337
   0.0006518   -0.0227740    0.0040518    0.6098190    0.0475182    0.7911149
  -0.0008569   -0.0233137    0.0048955    0.3129511    0.0404226    0.9489087
  -0.0008083   -0.0228733    0.0048784    0.3614690    0.0192560    0.9321853
  -0.0032130   -0.0232363    0.0053124   -0.2015108   -0.0121944    0.9794104
  -0.0033124   -0.0241210    0.0052664   -0.1585741   -0.0164912    0.9872093
  -0.0026579   -0.0224518    0.0053531    0.0094569    0.0091607    0.9999133
  -0.0023806   -0.0220615    0.0053382    0.1421529    0.0231726    0.9895734
  -0.0037685   -0.0240278    0.0051475   -0.3945040   -0.0275724    0.9184805
  -0.0050078   -0.0247029    0.0042610   -0.7302435   -0.0403940    0.6819917
  -0.0043748   -0.0239121    0.0047838   -0.5657314   -0.0555359    0.8227173
  -0.0069079   -0.0292958    0.0007391   -0.9886039   -0.1325746    0.0713185
  -0.0068713   -0.0289627    0.0009463    0.0695808   -0.5102929    0.8571813
  -0.0068100   -0.0285170    0.0011490   -0.9758278   -0.0583153    0.2106166
  -0.0066077   -0.0267466    0.0013005   -0.9830408   -0.0236520    0.1818552
  -0.0067770   -0.0303747    0.0001313   -0.8126122   -0.1496049   -0.5632759
  -0.0068195   -0.0294645    0.0000903   -0.8567506   -0.1553729   -0.4917700
  -0.0068167   -0.0290146    0.0000711   -0.8968494   -0.1419275   -0.4189485
  -0.0069047   -0.0289657    0.0007251   -0.9939989   -0.1061251    0.0265244
  -0.0065246   -0.0258637    0.0012543   -0.9790257   -0.0331281    0.2010256
  -0.0056468   -0.0245993    0.0034447   -0.8231020   -0.0430985    0.5662557
  -0.0061855   -0.0231915    0.0020435   -0.9580535   -0.0485153    0.2824532
  -0.0058747   -0.0241629    0.0029771   -0.8856080   -0.0615464    0.4603374
  -0.0064043   -0.0240950    0.0009744   -0.9889142   -0.0274658    0.1459260
   0.0009228   -0.0283013    0.0029811    0.9741107   -0.0586433   -0.2183330
   0.0008517   -0.0287360    0.0030149    0.9974448   -0.0110064   -0.0705884
   0.0010215   -0.0278717    0.0029664    0.9729496   -0.1146145   -0.2005807
   0.0011369   -0.0274360    0.0031719    0.9925015   -0.0581335    0.1075230
   0.0011475   -0.0269775    0.0033727    0.9057664    0.0220564    0.4232030
   0.0010495   -0.0269512    0.0035139    0.7629129    0.0487389    0.6446615
  -0.0019523   -0.0291460    0.0004863    0.4540084   -0.0142590   -0.8908833
  -0.0023913   -0.0286105    0.0002265    0.4195407   -0.0384485   -0.9069219
  -0.0026182   -0.0285660    0.0001125    0.2842829   -0.0223882   -0.9584790
  -0.0011655   -0.0288439    0.0009438    0.5898882    0.0139713   -0.8073641
  -0.0064356   -0.0313686   -0.0002080   -0.4288085    0.0067641   -0.9033701
  -0.0058802   -0.0305876   -0.0002538   -0.0739930   -0.0096832   -0.9972117
  -0.0051462   -0.0302928   -0.0002429    0.0073319    0.0256263   -0.9996447
  -0.0056023   -0.0301937   -0.0002311   -0.0207538    0.0250460   -0.9994708
  -0.0049479   -0.0285291   -0.0002473    0.0823072   -0.0593528   -0.9948381
  -0.0057311   -0.0292624   -0.0002382    0.0847016   -0.1105976   -0.9902494
  -0.0038379   -0.0269640   -0.0002482    0.1349633   -0.0312382   -0.9903581
  -0.0032174   -0.0284432   -0.0000331    0.2014559   -0.0190329   -0.9793127
  -0.0055133   -0.0356590   -0.0008020    0.4224650    0.2856851   -0.8601787
  -0.0059202   -0.0351232   -0.0008692    0.2800180    0.2616939   -0.9236375
  -0.0060489   -0.0341841   -0.0006973    0.0744384    0.1849657   -0.9799218
  -0.0062564   -0.0336819   -0.0005856   -0.2906465    0.2673313   -0.9187266
  -0.0064055   -0.0331922   -0.0004630   -0.3775227    0.1129932   -0.9190806
  -0.0062270   -0.0336881   -0.0005992   -0.2469878    0.2589530   -0.9337775
  -0.0065839   -0.0326928   -0.0002656   -0.6513694    0.0264089   -0.7583011
   0.0006237   -0.0287014    0.0026768    0.6016456   -0.1277834   -0.7884758
   0.0009581   -0.0278021    0.0027411    0.8123581   -0.1607945   -0.5605529
  -0.0011630   -0.0283940    0.0009247    0.6129660   -0.0135766   -0.7899926
   0.0002760   -0.0281929    0.0022914    0.5202678   -0.1301809   -0.8440227
  -0.0000114   -0.0281402    0.0020891    0.6693951   -0.0194858   -0.7426510
  -0.0003985   -0.0280763    0.0016007    0.7198387    0.0075775   -0.6941000
  -0.0072638   -0.0387748   -0.0010651   -0.9667652   -0.2263035    0.1189611
  -0.0071641   -0.0402891   -0.0012161   -0.9693331   -0.2360662    0.0683086
  -0.0073547   -0.0375441   -0.0013418   -0.9813707   -0.1775531   -0.0733930
