NORM_ASCII
776 1564
   0.0191516   -0.0886838   -0.0352683    0.9757872   -0.2178124   -0.0199279
   0.0197066   -0.0868168   -0.0394142    0.9843913   -0.1267101    0.1221406
   0.0194730   -0.0874548   -0.0386524    0.9591666   -0.2807624    0.0342319
   0.0200600   -0.0852757   -0.0413871    0.8879267    0.2751945    0.3685841
   0.0202517   -0.0851685   -0.0418915    0.8758017    0.2346640    0.4217869
   0.0199312   -0.0865005   -0.0409835    0.9752863   -0.1732974    0.1370569
   0.0197918   -0.0865744   -0.0398489    0.9877770   -0.0898630    0.1273625
   0.0163192   -0.0839655   -0.0417756   -0.1990828    0.8980612    0.3922400
   0.0151838   -0.0844352   -0.0416596   -0.4185466    0.8370562    0.3523574
   0.0152148   -0.0838013   -0.0430588   -0.3950579    0.8277667    0.3984113
   0.0136112   -0.0855573   -0.0403007   -0.5520852    0.8327669    0.0412450
   0.0145624   -0.0844529   -0.0423763   -0.6110399    0.7459210    0.2650134
   0.0141485   -0.0850190   -0.0416013   -0.6041869    0.7685280    0.2105302
   0.0139888   -0.0852773   -0.0410716   -0.5795217    0.8038371    0.1341662
   0.0164449   -0.0833217   -0.0431536   -0.1492823    0.8881692    0.4345921
   0.0117957   -0.0867080   -0.0364329   -0.6160847    0.7852615   -0.0616760
   0.0126478   -0.0861528   -0.0389546   -0.8156268    0.5651900   -0.1237469
   0.0120230   -0.0871609   -0.0378917   -0.8883397    0.3580200   -0.2875313
   0.0122100   -0.0869203   -0.0383089   -0.9335470    0.2666691   -0.2395361
   0.0129992   -0.0865635   -0.0403624   -0.9012808    0.2919333   -0.3201059
   0.0127531   -0.0863482   -0.0396644   -0.9075239    0.2422430   -0.3431016
   0.0124436   -0.0891610   -0.0264329   -0.1948117    0.5452892    0.8152963
   0.0132292   -0.0891891   -0.0263215    0.1923545    0.4694735    0.8617392
   0.0129903   -0.0900623   -0.0259982    0.0933685    0.2650937    0.9596914
   0.0107030   -0.0893308   -0.0270971   -0.3865104    0.6212507    0.6816577
   0.0097449   -0.0890066   -0.0279879   -0.4127490    0.7618671    0.4991962
   0.0097837   -0.0886654   -0.0289685   -0.4016217    0.9045391    0.1432096
   0.0094002   -0.0889601   -0.0286171   -0.5467303    0.8015612    0.2420449
   0.0117149   -0.0899473   -0.0262787   -0.3086905    0.3149849    0.8974936
   0.0111109   -0.0895841   -0.0266735   -0.4207939    0.3356137    0.8427906
   0.0095524   -0.0887519   -0.0295140   -0.5190363    0.8492393    0.0969226
   0.0111039   -0.0871992   -0.0350530   -0.6936657    0.7179856   -0.0576591
   0.0105719   -0.0877027   -0.0342550   -0.8633072    0.4522816   -0.2239241
   0.0094708   -0.0887313   -0.0308057   -0.7497548    0.6575838   -0.0738331
   0.0097662   -0.0886348   -0.0325701   -0.8471588    0.5292210   -0.0474039
   0.0095496   -0.0886669   -0.0314219   -0.7495826    0.6517705   -0.1154174
   0.0096002   -0.0888329   -0.0321224   -0.8219359    0.5404398   -0.1798506
   0.0090869   -0.0890889   -0.0294692   -0.7382296    0.6733105    0.0408663
   0.0187860   -0.0911648   -0.0290713    0.9803915   -0.1275904    0.1501769
   0.0188897   -0.0910710   -0.0302016    0.9749520   -0.2223430   -0.0056810
   0.0188948   -0.0906113   -0.0313214    0.9716978   -0.2175783   -0.0919950
   0.0189072   -0.0899218   -0.0332312    0.9701244   -0.2417977   -0.0198104
   0.0187698   -0.0906898   -0.0323898    0.9553386   -0.2783400   -0.0992724
   0.0187309   -0.0906122   -0.0329496    0.8848268   -0.4472245   -0.1306592
   0.0147228   -0.0897929   -0.0262689    0.0095175    0.1529434    0.9881891
   0.0140236   -0.0900872   -0.0261579    0.1458940    0.1286340    0.9809018
   0.0153987   -0.0900024   -0.0261670   -0.0101658    0.1843354    0.9828108
   0.0164868   -0.0894693   -0.0265620    0.2894947    0.5346692    0.7939280
   0.0174431   -0.0895780   -0.0270763    0.5821717    0.6080140    0.5398102
   0.0170908   -0.0897734   -0.0266565    0.4381901    0.4934503    0.7513297
   0.0159117   -0.0900294   -0.0261738    0.1227754    0.1272405    0.9842439
   0.0182288   -0.0904217   -0.0274842    0.8152323    0.1710508    0.5532974
   0.0185985   -0.0907115   -0.0282107    0.9435199   -0.0705382    0.3237198
   0.0184517   -0.0911338   -0.0279020    0.8486842   -0.2319867    0.4753076
   0.0182107   -0.0833339   -0.0428678    0.1413396    0.8207299    0.5535572
   0.0197766   -0.0838068   -0.0429097    0.2057642    0.8057915    0.5553028
   0.0173874   -0.0828261   -0.0438877   -0.0792177    0.8859661    0.4569340
   0.0171831   -0.0832924   -0.0430125   -0.0977902    0.8767133    0.4709681
   0.0201341   -0.0836035   -0.0433240    0.3114406    0.7551768    0.5768125
   0.0204429   -0.0840168   -0.0429335    0.5440400    0.6170187    0.5686021
   0.0190744   -0.0885571   -0.0376123    0.8537347   -0.5092233   -0.1087603
   0.0190830   -0.0887108   -0.0365036    0.9050163   -0.4170760   -0.0836248
   0.0187705   -0.0900206   -0.0342959    0.8844954   -0.4354858   -0.1673916
   0.0189117   -0.0898466   -0.0337919    0.9501271   -0.3002218   -0.0844115
   0.0194915   -0.0874159   -0.0392279    0.9396027   -0.3417298    0.0191724
   0.0207410   -0.0839038   -0.0434150    0.6721250    0.4993977    0.5466717
   0.0206077   -0.0847839   -0.0427936    0.9566243   -0.2418576    0.1624035
   0.0200873   -0.0862216   -0.0419869    0.9091868   -0.4154899   -0.0273412
   0.0194719   -0.0874694   -0.0404713    0.8573858   -0.5099773   -0.0693740
   0.0162264   -0.0835644   -0.0427403   -0.2830986    0.8676187    0.4087701
   0.0145881   -0.0838158   -0.0437759   -0.6659886    0.6681604    0.3316939
   0.0146643   -0.0829923   -0.0450480   -0.5531877    0.7136985    0.4296717
   0.0155489   -0.0832366   -0.0438498   -0.3123314    0.8436823    0.4366340
   0.0134143   -0.0858403   -0.0410397   -0.8460434    0.5262502   -0.0852722
   0.0143271   -0.0844649   -0.0430263   -0.8524478    0.5022800    0.1450773
   0.0139854   -0.0850702   -0.0422636   -0.7999739    0.5995142    0.0249886
   0.0140772   -0.0849275   -0.0427603   -0.8903599    0.4552378    0.0042311
   0.0158143   -0.0826984   -0.0446682   -0.2230749    0.8364562    0.5005783
   0.0113736   -0.0871950   -0.0362121   -0.8891429    0.2454014   -0.3862680
   0.0111481   -0.0873621   -0.0357519   -0.8652491    0.4330840   -0.2525513
   0.0118970   -0.0877544   -0.0376880   -0.8981994   -0.1058204   -0.4266613
   0.0124114   -0.0868439   -0.0388298   -0.9246057   -0.0229733   -0.3802323
   0.0136399   -0.0857666   -0.0418104   -0.9504644    0.0896002   -0.2976393
   0.0128000   -0.0874080   -0.0397284   -0.8889106   -0.1736442   -0.4238933
   0.0134088   -0.0906948   -0.0259257    0.2093919   -0.1033915    0.9723504
   0.0127487   -0.0909186   -0.0258588   -0.1207540   -0.2442923    0.9621537
   0.0125223   -0.0904064   -0.0259399   -0.2032499    0.1709889    0.9640811
   0.0098262   -0.0894235   -0.0274594   -0.4550900    0.4323140    0.7784585
   0.0106923   -0.0898215   -0.0268188   -0.5276429    0.1357952    0.8385420
   0.0093317   -0.0892918   -0.0280685   -0.6397707    0.6362904    0.4310776
   0.0088992   -0.0893304   -0.0289367   -0.7904173    0.5973911    0.1355152
   0.0119262   -0.0904922   -0.0261354   -0.4149351   -0.0188576    0.9096556
   0.0110109   -0.0902003   -0.0265739   -0.5401599   -0.0819323    0.8375645
   0.0109740   -0.0882773   -0.0357617   -0.8920092    0.0165759   -0.4517133
   0.0092885   -0.0895930   -0.0320563   -0.9128537    0.2114856   -0.3492448
   0.0103267   -0.0882413   -0.0340362   -0.8900410    0.1402374   -0.4337747
   0.0102446   -0.0892479   -0.0340892   -0.8785927   -0.0458204   -0.4753687
   0.0087095   -0.0899322   -0.0305589   -0.9587246    0.2184506   -0.1820067
   0.0088844   -0.0893864   -0.0301814   -0.8720003    0.4809580   -0.0910757
   0.0088211   -0.0899181   -0.0311331   -0.9080944    0.3576727   -0.2177952
   0.0086340   -0.0899665   -0.0299892   -0.9671822    0.2523776   -0.0293957
   0.0186666   -0.0917406   -0.0294587    0.9030011   -0.4252610    0.0611724
   0.0185592   -0.0917575   -0.0288837    0.8860471   -0.3883204    0.2532347
   0.0187891   -0.0913054   -0.0306563    0.9085879   -0.3983542   -0.1256260
   0.0185839   -0.0918347   -0.0301355    0.8597999   -0.5058904   -0.0694187
   0.0185089   -0.0916448   -0.0312334    0.8417988   -0.5107873   -0.1745597
   0.0187196   -0.0905317   -0.0335030    0.8508889   -0.4994607   -0.1628714
   0.0174957   -0.0924336   -0.0317908    0.6773407   -0.6709460   -0.3017301
   0.0179180   -0.0915298   -0.0330659    0.6801778   -0.6916349   -0.2428979
   0.0146969   -0.0907176   -0.0262376    0.0502309   -0.2651131    0.9629080
   0.0140394   -0.0909359   -0.0261808    0.2756227   -0.4403675    0.8544639
   0.0153300   -0.0905513   -0.0261952    0.0299021   -0.1627222    0.9862187
   0.0164434   -0.0900098   -0.0263110    0.3221694    0.1476242    0.9351011
   0.0176785   -0.0900872   -0.0268952    0.6763785    0.3370849    0.6548938
   0.0174709   -0.0904681   -0.0265880    0.4584977    0.0533576    0.8870923
   0.0159069   -0.0908412   -0.0263277   -0.0025527   -0.5129796    0.8583970
   0.0163731   -0.0905684   -0.0262798    0.2418875   -0.1489373    0.9588056
   0.0181611   -0.0909834   -0.0273946    0.6895092   -0.1477493    0.7090467
   0.0176454   -0.0914290   -0.0271429    0.6101382   -0.3688010    0.7012255
   0.0177824   -0.0907982   -0.0268535    0.6779969   -0.1819656    0.7121859
   0.0183159   -0.0919141   -0.0284222    0.8484599   -0.4280697    0.3112429
   0.0178916   -0.0922346   -0.0279940    0.7352794   -0.4072900    0.5417371
   0.0176357   -0.0918507   -0.0274135    0.6186958   -0.4206500    0.6635277
   0.0182609   -0.0825817   -0.0441895   -0.0482433    0.8536291    0.5186424
   0.0194022   -0.0830184   -0.0436751    0.1695733    0.7638591    0.6227071
   0.0204021   -0.0833831   -0.0437414    0.3625590    0.6716907    0.6460515
   0.0182501   -0.0901188   -0.0363330    0.7457584   -0.6364360   -0.1969610
   0.0181898   -0.0900114   -0.0368784    0.7020419   -0.6699047   -0.2415882
   0.0180977   -0.0898874   -0.0374170    0.6325875   -0.7244920   -0.2737598
   0.0184069   -0.0891902   -0.0387291    0.7057759   -0.6796235   -0.1999807
   0.0185035   -0.0889535   -0.0391670    0.6889867   -0.6957379   -0.2030914
   0.0183015   -0.0894206   -0.0382922    0.7028255   -0.6838092   -0.1960645
   0.0183391   -0.0906786   -0.0342635    0.7608500   -0.6074533   -0.2282712
   0.0209161   -0.0836591   -0.0438339    0.8690608    0.1284262    0.4777446
   0.0208761   -0.0844969   -0.0439157    0.9368148   -0.3470214    0.0442069
   0.0194639   -0.0869532   -0.0425555    0.7575775   -0.6181116   -0.2097959
   0.0201328   -0.0857342   -0.0440802    0.7718723   -0.6253956   -0.1144267
   0.0197920   -0.0863404   -0.0433162    0.7954827   -0.5929310   -0.1250606
   0.0191313   -0.0875637   -0.0417937    0.6952474   -0.6833500   -0.2228539
   0.0144879   -0.0836868   -0.0443141   -0.9339571    0.3426001    0.1017313
   0.0150680   -0.0825420   -0.0452968   -0.4494968    0.6974826    0.5580956
   0.0145223   -0.0828419   -0.0455767   -0.9184954    0.3350415    0.2100317
   0.0141829   -0.0847389   -0.0438292   -0.9842791    0.1504458   -0.0925241
   0.0140920   -0.0849784   -0.0433929   -0.9680123    0.2195816   -0.1213920
   0.0139757   -0.0854173   -0.0430890   -0.9382506   -0.1381283   -0.3171852
   0.0175505   -0.0823376   -0.0447554   -0.1104729    0.8116752    0.5735669
   0.0163711   -0.0821460   -0.0452407   -0.1953885    0.7521335    0.6293795
   0.0157501   -0.0824359   -0.0451145   -0.2577286    0.7648260    0.5904381
   0.0113284   -0.0889612   -0.0361393   -0.8299027   -0.2164668   -0.5142019
   0.0123893   -0.0887243   -0.0380890   -0.7652991   -0.3945479   -0.5085756
   0.0126016   -0.0879845   -0.0389238   -0.8650771   -0.2364273   -0.4424293
   0.0121458   -0.0892139   -0.0373713   -0.7152369   -0.4921818   -0.4961787
   0.0117126   -0.0894475   -0.0363853   -0.7792017   -0.3921884   -0.4889099
   0.0140016   -0.0863994   -0.0425057   -0.8720541   -0.2904993   -0.3938677
   0.0137443   -0.0868712   -0.0416431   -0.8142933   -0.3362243   -0.4731592
   0.0131048   -0.0882345   -0.0396027   -0.7320915   -0.4707740   -0.4923554
   0.0134777   -0.0914152   -0.0262831    0.1245205   -0.6949448    0.7081994
   0.0118874   -0.0909775   -0.0262849   -0.4948382   -0.5530479    0.6702784
   0.0126542   -0.0914575   -0.0263234   -0.2704269   -0.7580783    0.5934531
   0.0093958   -0.0896852   -0.0275576   -0.5768397    0.3549659    0.7357005
   0.0105160   -0.0905363   -0.0269488   -0.3951373   -0.3190357    0.8614423
   0.0097541   -0.0904461   -0.0272413   -0.4320514   -0.0975181    0.8965611
   0.0109880   -0.0906511   -0.0267890   -0.4976050   -0.5358095    0.6821272
   0.0087876   -0.0896914   -0.0285833   -0.8633869    0.4279294    0.2672818
   0.0089931   -0.0897432   -0.0279797   -0.7829466    0.3621517    0.5058070
   0.0085998   -0.0900974   -0.0288725   -0.9820723    0.1651573    0.0908688
   0.0107736   -0.0895989   -0.0348292   -0.8182689   -0.2506307   -0.5173202
   0.0088330   -0.0903512   -0.0314076   -0.9300956   -0.0195442   -0.3667971
   0.0095463   -0.0896966   -0.0326815   -0.9044957    0.0334929   -0.4251655
   0.0093861   -0.0908903   -0.0322626   -0.8615789   -0.0960018   -0.4984631
   0.0097752   -0.0894924   -0.0331170   -0.8828581   -0.0263267   -0.4689013
   0.0102430   -0.0898834   -0.0338912   -0.8480672   -0.1629366   -0.5042159
   0.0100442   -0.0900644   -0.0334362   -0.8733865   -0.0989623   -0.4768673
   0.0086012   -0.0906750   -0.0302666   -0.9773213   -0.1918338   -0.0896822
   0.0088612   -0.0910079   -0.0312184   -0.9325053   -0.2252853   -0.2822772
   0.0086422   -0.0907600   -0.0292891   -0.9737522   -0.2178392    0.0659753
   0.0180035   -0.0925996   -0.0289107    0.8213898   -0.5565290    0.1248771
   0.0185020   -0.0917740   -0.0307134    0.7946235   -0.5700122   -0.2089490
   0.0178812   -0.0928117   -0.0302709    0.7600875   -0.6355809   -0.1352920
   0.0179992   -0.0912856   -0.0334997    0.6680830   -0.7019259   -0.2469113
   0.0174724   -0.0920043   -0.0328405    0.5946796   -0.7371467   -0.3208910
   0.0167396   -0.0931142   -0.0318603    0.5884463   -0.7223959   -0.3631463
   0.0166908   -0.0933710   -0.0314293    0.6039168   -0.7098760   -0.3624369
   0.0178102   -0.0926981   -0.0308151    0.6934493   -0.6487587   -0.3134328
   0.0173720   -0.0918761   -0.0333770    0.5734435   -0.7665458   -0.2890849
   0.0148865   -0.0911453   -0.0266907    0.1007836   -0.7275710    0.6785890
   0.0142873   -0.0913366   -0.0267293    0.2533927   -0.7258717    0.6394548
   0.0169635   -0.0912975   -0.0266793    0.2966273   -0.4092224    0.8628727
   0.0157639   -0.0914861   -0.0270383   -0.1205150   -0.6828446    0.7205549
   0.0162514   -0.0915679   -0.0269409   -0.1407583   -0.6519886    0.7450490
   0.0176835   -0.0929532   -0.0285348    0.8247051   -0.5022191    0.2600720
   0.0174740   -0.0929369   -0.0279099    0.7710696   -0.4504554    0.4500463
   0.0173739   -0.0922836   -0.0274247    0.3589376   -0.4961022    0.7905988
   0.0183107   -0.0823203   -0.0446186   -0.0776700    0.8500015    0.5210228
   0.0190634   -0.0826511   -0.0440998   -0.0032514    0.8068861    0.5906981
   0.0198686   -0.0821071   -0.0448268    0.1387171    0.7180900    0.6819856
   0.0206493   -0.0830927   -0.0441201    0.3569469    0.6311347    0.6886638
   0.0177254   -0.0904765   -0.0366481    0.5411994   -0.7857655   -0.2994593
   0.0173005   -0.0914000   -0.0348947    0.5396907   -0.7934263   -0.2814403
   0.0171671   -0.0908908   -0.0364012    0.3632482   -0.8669058   -0.3413576
   0.0179530   -0.0892973   -0.0394768    0.5151253   -0.7987849   -0.3107872
   0.0183133   -0.0887418   -0.0402690    0.4722521   -0.8138009   -0.3386829
   0.0185816   -0.0882703   -0.0411300    0.4893019   -0.8208419   -0.2946222
   0.0213866   -0.0833363   -0.0447564    0.8977188   -0.1527985    0.4132234
   0.0213800   -0.0826624   -0.0449305    0.5243513    0.4595496    0.7168472
   0.0215578   -0.0839198   -0.0463049    0.8159250   -0.5511226    0.1747288
   0.0207745   -0.0847140   -0.0457351    0.7850458   -0.6190613   -0.0215913
   0.0202475   -0.0855081   -0.0445196    0.7788882   -0.6201729   -0.0933742
   0.0188483   -0.0875495   -0.0424358    0.5299401   -0.7814880   -0.3293025
   0.0191217   -0.0868329   -0.0437418    0.5387836   -0.7728099   -0.3353760
   0.0194755   -0.0862339   -0.0445077    0.6051132   -0.7408092   -0.2916157
   0.0202076   -0.0854116   -0.0450688    0.6176238   -0.7521642   -0.2297604
   0.0184688   -0.0881352   -0.0416650    0.4392969   -0.8329024   -0.3365884
   0.0144261   -0.0836100   -0.0452593   -0.9953089   -0.0130872   -0.0958593
   0.0142732   -0.0847134   -0.0443994   -0.9756134    0.0243563   -0.2181407
   0.0144139   -0.0845538   -0.0448781   -0.9269426   -0.1934728   -0.3214743
   0.0146140   -0.0821012   -0.0462966   -0.8585204    0.3878139    0.3354744
   0.0155564   -0.0817552   -0.0459197   -0.2684464    0.6919658    0.6701640
   0.0148978   -0.0813263   -0.0468045   -0.5775169    0.6000592    0.5535370
   0.0144924   -0.0826016   -0.0472379   -0.9856924   -0.1508549   -0.0751881
   0.0145460   -0.0829185   -0.0468281   -0.9668043   -0.2218312   -0.1268085
   0.0142893   -0.0852235   -0.0441188   -0.9245095   -0.2218954   -0.3099106
   0.0146892   -0.0853639   -0.0447458   -0.7689021   -0.4703646   -0.4330667
   0.0146437   -0.0860363   -0.0439766   -0.7541355   -0.4539513   -0.4745608
   0.0143670   -0.0861168   -0.0434707   -0.7714306   -0.4256185   -0.4730157
   0.0180124   -0.0820752   -0.0451144   -0.0729299    0.8245985    0.5609979
   0.0166280   -0.0816671   -0.0456853   -0.0763006    0.7577590    0.6480583
   0.0115118   -0.0896275   -0.0359300   -0.7355990   -0.4210464   -0.5306732
   0.0126132   -0.0892516   -0.0379198   -0.6087833   -0.5889789   -0.5314949
   0.0133720   -0.0891139   -0.0389131   -0.5804349   -0.6326341   -0.5127080
   0.0119815   -0.0900737   -0.0361367   -0.6579583   -0.5543698   -0.5096714
   0.0130248   -0.0904577   -0.0368122   -0.5002408   -0.7011148   -0.5081311
   0.0127953   -0.0909418   -0.0359520   -0.4690931   -0.7085713   -0.5271417
   0.0142149   -0.0874327   -0.0419226   -0.6975468   -0.5194154   -0.4935950
   0.0138082   -0.0877779   -0.0410049   -0.6476017   -0.5511181   -0.5261947
   0.0135580   -0.0882930   -0.0401682   -0.6708518   -0.5350420   -0.5135055
   0.0138016   -0.0888056   -0.0398507   -0.5634165   -0.6651978   -0.4899731
   0.0130725   -0.0917374   -0.0267645   -0.0326986   -0.7777398    0.6277353
   0.0123450   -0.0918611   -0.0272254   -0.3947880   -0.7227573    0.5672427
   0.0114218   -0.0911847   -0.0273229   -0.4395832   -0.7337699    0.5180234
   0.0120497   -0.0914965   -0.0270257   -0.5251040   -0.7260320    0.4440082
   0.0091970   -0.0904489   -0.0275948   -0.6696811   -0.2377342    0.7035693
   0.0100291   -0.0908541   -0.0273588   -0.2950823   -0.6398201    0.7096173
   0.0109774   -0.0909615   -0.0272200   -0.2502532   -0.7572665    0.6032585
   0.0087124   -0.0902961   -0.0282446   -0.9232010   -0.0750825    0.3769118
   0.0108946   -0.0902979   -0.0346507   -0.6831133   -0.4599051   -0.5673126
   0.0104698   -0.0906557   -0.0338782   -0.7049093   -0.4063084   -0.5813918
   0.0093641   -0.0913984   -0.0319877   -0.8020436   -0.3363145   -0.4935773
   0.0099746   -0.0906755   -0.0332348   -0.7824998   -0.2843863   -0.5539120
   0.0090603   -0.0918387   -0.0299076   -0.9283830   -0.3560481   -0.1064648
   0.0089152   -0.0914733   -0.0302999   -0.9152183   -0.3947687   -0.0808276
   0.0091282   -0.0917261   -0.0310299   -0.8731377   -0.4547450   -0.1756063
   0.0092551   -0.0916313   -0.0315517   -0.7530447   -0.5317235   -0.3875484
   0.0090497   -0.0919077   -0.0293500   -0.9572868   -0.2823283    0.0623915
   0.0090288   -0.0914830   -0.0286084   -0.7255537   -0.4458124    0.5242358
   0.0172731   -0.0936362   -0.0284858    0.7545527   -0.6434236    0.1290595
   0.0169252   -0.0936517   -0.0303626    0.6500762   -0.7014442   -0.2921933
   0.0166797   -0.0940207   -0.0300360    0.6745814   -0.7049753   -0.2189745
   0.0171360   -0.0938037   -0.0290036    0.6924468   -0.7195008   -0.0532537
   0.0164138   -0.0927752   -0.0329029    0.4649726   -0.7779624   -0.4225814
   0.0165589   -0.0922912   -0.0337782    0.4125128   -0.8274524   -0.3809930
   0.0161761   -0.0943895   -0.0303551    0.6038267   -0.7402128   -0.2957674
   0.0169416   -0.0917081   -0.0345483    0.4619214   -0.8242187   -0.3275548
   0.0148509   -0.0916566   -0.0272525    0.1113027   -0.6635425    0.7398128
   0.0143064   -0.0920986   -0.0274252    0.2038825   -0.5141712    0.8331026
   0.0131359   -0.0922900   -0.0273616   -0.1027277   -0.5597590    0.8222633
   0.0153674   -0.0920776   -0.0275820   -0.0326549   -0.5604907    0.8275167
   0.0161675   -0.0920842   -0.0274492   -0.1208980   -0.4766085    0.8707629
   0.0170828   -0.0935819   -0.0279351    0.4789526   -0.5814689    0.6576461
   0.0187507   -0.0817679   -0.0453987   -0.1117450    0.8003943    0.5889669
   0.0209561   -0.0820176   -0.0451911    0.2623388    0.6158944    0.7428677
   0.0197064   -0.0814037   -0.0456106   -0.0686562    0.7531021    0.6543115
   0.0204266   -0.0815320   -0.0455728    0.0974412    0.6408263    0.7614768
   0.0171757   -0.0912581   -0.0354281    0.4060669   -0.8461600   -0.3451420
   0.0156823   -0.0913771   -0.0363542    0.1655083   -0.9065965   -0.3881878
   0.0160315   -0.0911331   -0.0367437    0.2045383   -0.9001751   -0.3845111
   0.0176147   -0.0896165   -0.0391342    0.3714030   -0.8548097   -0.3624364
   0.0152881   -0.0918097   -0.0354909    0.1011379   -0.9009918   -0.4218825
   0.0156472   -0.0924407   -0.0340242    0.2344077   -0.8722989   -0.4291242
   0.0162834   -0.0906922   -0.0376282    0.1931850   -0.9013455   -0.3876286
   0.0168522   -0.0906332   -0.0373676    0.2999934   -0.8878233   -0.3489610
   0.0170753   -0.0895353   -0.0397746    0.2182961   -0.8794867   -0.4229065
   0.0173721   -0.0890488   -0.0406200    0.2997888   -0.8581197   -0.4168420
   0.0173138   -0.0883668   -0.0420039    0.2434690   -0.8750377   -0.4183681
   0.0215739   -0.0823007   -0.0452706    0.6939216    0.2972025    0.6558532
   0.0217553   -0.0833862   -0.0459316    0.9084844   -0.3758404    0.1827570
   0.0219786   -0.0827907   -0.0461198    0.9588238   -0.2313639    0.1647050
   0.0211933   -0.0843634   -0.0466490    0.6238921   -0.7732193   -0.1135367
   0.0216307   -0.0838840   -0.0468738    0.8741993   -0.4852552    0.0174042
   0.0203979   -0.0848631   -0.0464967    0.4203920   -0.8567153   -0.2988469
   0.0181208   -0.0877983   -0.0427138    0.2916824   -0.8558242   -0.4271842
   0.0183084   -0.0875296   -0.0431142    0.3728204   -0.8349561   -0.4047879
   0.0181278   -0.0873289   -0.0436207    0.2290098   -0.8559926   -0.4634988
   0.0195177   -0.0853178   -0.0463288    0.3337384   -0.8264454   -0.4534388
   0.0189554   -0.0866689   -0.0442675    0.3802457   -0.8256826   -0.4167270
   0.0146593   -0.0845212   -0.0454187   -0.8695021   -0.3432171   -0.3552014
   0.0150556   -0.0846658   -0.0460496   -0.7548673   -0.4870629   -0.4392550
   0.0145242   -0.0819785   -0.0468360   -0.9814845    0.1458216    0.1241942
   0.0147334   -0.0810828   -0.0474473   -0.8851379    0.4138348    0.2127714
   0.0164000   -0.0810850   -0.0463665   -0.0863636    0.6701636    0.7371717
   0.0156027   -0.0810716   -0.0465127   -0.3391068    0.6132448    0.7133985
   0.0152187   -0.0807672   -0.0470340   -0.5763472    0.6445274    0.5024025
   0.0144750   -0.0820908   -0.0475182   -0.9945135    0.0097899   -0.1041493
   0.0147282   -0.0827886   -0.0479226   -0.9089625   -0.2657278   -0.3212101
   0.0148913   -0.0834238   -0.0476962   -0.8771071   -0.4192310   -0.2343684
   0.0147126   -0.0833549   -0.0470797   -0.9059961   -0.3888699   -0.1671862
   0.0149011   -0.0839898   -0.0465035   -0.8296956   -0.4653497   -0.3083098
   0.0150275   -0.0849699   -0.0456450   -0.6786638   -0.5541334   -0.4820287
   0.0148672   -0.0865793   -0.0436821   -0.6359854   -0.5893660   -0.4981669
   0.0156802   -0.0848718   -0.0466807   -0.5398686   -0.6842273   -0.4902804
   0.0148162   -0.0871989   -0.0428805   -0.5239825   -0.6709965   -0.5246008
   0.0179477   -0.0811562   -0.0463478   -0.0342313    0.7802678    0.6245082
   0.0175281   -0.0814539   -0.0460044    0.0097755    0.7729053    0.6344461
   0.0173066   -0.0803662   -0.0471549    0.1146342    0.7523375    0.6487275
   0.0113810   -0.0903059   -0.0351782   -0.6076913   -0.5766361   -0.5460789
   0.0136446   -0.0901966   -0.0377481   -0.4170738   -0.7522954   -0.5100010
   0.0145605   -0.0893145   -0.0397635   -0.3818646   -0.7737770   -0.5054192
   0.0138977   -0.0908376   -0.0369089   -0.3342609   -0.7853427   -0.5210628
   0.0132079   -0.0916722   -0.0351435   -0.3342658   -0.7792761   -0.5300897
   0.0137287   -0.0913222   -0.0360413   -0.3314908   -0.7983467   -0.5027489
   0.0106393   -0.0918377   -0.0326606   -0.4797340   -0.6581443   -0.5802598
   0.0127294   -0.0926692   -0.0334459   -0.3015479   -0.7548991   -0.5824055
   0.0121085   -0.0923897   -0.0333720   -0.4588497   -0.6723505   -0.5808629
   0.0114376   -0.0922351   -0.0329561   -0.5224736   -0.6343327   -0.5697748
   0.0145468   -0.0882858   -0.0412053   -0.4793353   -0.6943631   -0.5367472
   0.0144248   -0.0885385   -0.0407841   -0.4588462   -0.7011116   -0.5458046
   0.0141067   -0.0886816   -0.0403255   -0.5174597   -0.6689245   -0.5336435
   0.0114383   -0.0915505   -0.0276994   -0.4600909   -0.5924935    0.6612623
   0.0117140   -0.0919575   -0.0278184   -0.4395624   -0.5406024    0.7173102
   0.0109676   -0.0914324   -0.0278658   -0.2233769   -0.7021286    0.6761052
   0.0090682   -0.0909257   -0.0281166   -0.7487879   -0.3980520    0.5299730
   0.0103653   -0.0919338   -0.0283436   -0.1850688   -0.5436705    0.8186403
   0.0109509   -0.0906862   -0.0342960   -0.5254308   -0.6243018   -0.5780741
   0.0104722   -0.0911421   -0.0334498   -0.5283278   -0.6076407   -0.5929946
   0.0097817   -0.0915372   -0.0323796   -0.6417729   -0.5382697   -0.5462539
   0.0094480   -0.0922879   -0.0307315   -0.8287154   -0.4759152   -0.2945088
   0.0093670   -0.0924789   -0.0302633   -0.9111148   -0.3064947   -0.2755556
   0.0091548   -0.0923911   -0.0296409   -0.9541209   -0.2847220   -0.0926643
   0.0099507   -0.0922046   -0.0318006   -0.5804556   -0.6228739   -0.5244992
   0.0092065   -0.0922805   -0.0289574   -0.8895493   -0.3420632    0.3028114
   0.0096984   -0.0929759   -0.0288650   -0.4564945   -0.4736253    0.7531878
   0.0165473   -0.0942749   -0.0295385    0.6429772   -0.7615982   -0.0809229
   0.0159030   -0.0948192   -0.0294664    0.5572244   -0.8273405   -0.0707727
   0.0166016   -0.0942892   -0.0286762    0.6045966   -0.7795412    0.1636410
   0.0157134   -0.0945676   -0.0305441    0.3402964   -0.8137812   -0.4711247
   0.0152014   -0.0929874   -0.0332391    0.2122100   -0.8419992   -0.4959881
   0.0164644   -0.0920882   -0.0342665    0.3452292   -0.8484212   -0.4012459
   0.0158727   -0.0947283   -0.0300165    0.4646681   -0.8420043   -0.2740663
   0.0145013   -0.0926134   -0.0277568    0.1911591   -0.3866824    0.9021834
   0.0140340   -0.0929548   -0.0277037    0.2239806   -0.1982735    0.9542119
   0.0130721   -0.0932296   -0.0277194   -0.2466738   -0.0060823    0.9690795
   0.0128128   -0.0927889   -0.0276643   -0.4136506   -0.3458950    0.8421697
   0.0156608   -0.0924459   -0.0277751   -0.1157004   -0.3483700    0.9301891
   0.0163499   -0.0934952   -0.0278034   -0.1376984   -0.2522590    0.9578124
   0.0159721   -0.0947175   -0.0287877    0.4924613   -0.8453694    0.2069597
   0.0164095   -0.0942351   -0.0281236    0.3361906   -0.6254969    0.7040806
   0.0190334   -0.0811367   -0.0461553   -0.1930636    0.7787227    0.5969233
   0.0186586   -0.0808137   -0.0466996   -0.1171443    0.7930494    0.5977875
   0.0217390   -0.0815037   -0.0459763    0.3974069    0.5067564    0.7650267
   0.0196919   -0.0810583   -0.0459969   -0.1578492    0.7485891    0.6439704
   0.0209530   -0.0810643   -0.0458604    0.1436007    0.6116910    0.7779543
   0.0203234   -0.0807558   -0.0461508   -0.0615130    0.7224131    0.6887201
   0.0154043   -0.0909336   -0.0373249    0.0503138   -0.8977702   -0.4375811
   0.0150498   -0.0915906   -0.0359929   -0.0357271   -0.8955805   -0.4434627
   0.0169603   -0.0899791   -0.0388703    0.2471153   -0.8857526   -0.3929076
   0.0150177   -0.0922491   -0.0346090    0.1042580   -0.8766654   -0.4696680
   0.0145288   -0.0924785   -0.0342338   -0.0338032   -0.8548763   -0.5177296
   0.0133540   -0.0925610   -0.0338772   -0.1361639   -0.8486915   -0.5110598
   0.0160372   -0.0904850   -0.0381396    0.0933633   -0.8925634   -0.4411507
   0.0166889   -0.0886302   -0.0416737    0.0334267   -0.8704656   -0.4910930
   0.0158414   -0.0893060   -0.0404347   -0.0358717   -0.8735367   -0.4854347
   0.0169956   -0.0881207   -0.0425028    0.0622837   -0.8674305   -0.4936448
   0.0222463   -0.0810108   -0.0467345    0.7178203    0.3736579    0.5874639
   0.0221389   -0.0819491   -0.0461592    0.8969631    0.0298850    0.4410942
   0.0219293   -0.0830422   -0.0474925    0.9447409   -0.3237539   -0.0514598
   0.0220439   -0.0824713   -0.0483169    0.9421265   -0.3344209    0.0236711
   0.0216350   -0.0838118   -0.0474296    0.7031702   -0.6890136   -0.1755332
   0.0225511   -0.0810936   -0.0473544    0.9671034    0.0407803    0.2510934
   0.0203334   -0.0845259   -0.0474974    0.3104862   -0.8860496   -0.3442593
   0.0192476   -0.0850877   -0.0468305    0.1727184   -0.8539086   -0.4909262
   0.0199655   -0.0847692   -0.0471111    0.2239295   -0.8969365   -0.3812617
   0.0167910   -0.0878655   -0.0429775   -0.0068585   -0.8703354   -0.4924116
   0.0170327   -0.0873629   -0.0438234   -0.0355371   -0.8446979   -0.5340623
   0.0178238   -0.0868410   -0.0445662    0.1264787   -0.8357259   -0.5343832
   0.0189724   -0.0861835   -0.0451613    0.2770760   -0.8332884   -0.4783925
   0.0182782   -0.0854056   -0.0465911    0.1044753   -0.8320618   -0.5447551
   0.0180830   -0.0857954   -0.0460407    0.0958565   -0.8204870   -0.5635713
   0.0152401   -0.0845084   -0.0465209   -0.7190393   -0.5589547   -0.4129796
   0.0145432   -0.0816257   -0.0478146   -0.9774411    0.1459046   -0.1527112
   0.0150471   -0.0802542   -0.0480623   -0.8201558    0.5291945    0.2174803
   0.0147437   -0.0810190   -0.0479967   -0.9449027    0.3092432   -0.1073663
   0.0161929   -0.0800921   -0.0471661   -0.1573653    0.7460329    0.6470480
   0.0156626   -0.0804757   -0.0469911   -0.3465396    0.6994266    0.6250702
   0.0157632   -0.0797920   -0.0476483   -0.3866089    0.7592200    0.5235633
   0.0147222   -0.0823239   -0.0482284   -0.9142797   -0.1333075   -0.3825203
   0.0152230   -0.0827169   -0.0490006   -0.8267388   -0.2631332   -0.4972564
   0.0152283   -0.0836584   -0.0483942   -0.8277688   -0.4206423   -0.3712934
   0.0150559   -0.0838334   -0.0473267   -0.8190784   -0.5318279   -0.2151040
   0.0153188   -0.0839960   -0.0479912   -0.5896532   -0.7322054   -0.3408582
   0.0154015   -0.0844129   -0.0470375   -0.6929046   -0.6508955   -0.3101907
   0.0154794   -0.0863293   -0.0446269   -0.4219905   -0.7013909   -0.5744343
   0.0156665   -0.0843500   -0.0475568   -0.3841004   -0.8269381   -0.4106583
   0.0164304   -0.0845729   -0.0475719   -0.1919374   -0.8465887   -0.4964349
   0.0167263   -0.0864607   -0.0451079   -0.1898524   -0.7793697   -0.5971088
   0.0159913   -0.0868545   -0.0442746   -0.2950985   -0.7874749   -0.5411102
   0.0159532   -0.0879832   -0.0425891   -0.2206937   -0.8206940   -0.5270253
   0.0182227   -0.0806222   -0.0470055    0.0116602    0.8128636    0.5823373
   0.0176551   -0.0801760   -0.0475810    0.2050314    0.8563385    0.4739688
   0.0163112   -0.0797742   -0.0475453    0.1149047    0.8298896    0.5459672
   0.0147498   -0.0910966   -0.0369336   -0.1797319   -0.8534501   -0.4892028
   0.0143894   -0.0902193   -0.0382437   -0.2825599   -0.8224547   -0.4936883
   0.0157105   -0.0884878   -0.0417438   -0.2607756   -0.8029510   -0.5359718
   0.0154019   -0.0902434   -0.0386931   -0.1439515   -0.8626973   -0.4848002
   0.0152616   -0.0894399   -0.0400126   -0.2467024   -0.8296405   -0.5008338
   0.0141781   -0.0912182   -0.0365023   -0.2655236   -0.8205367   -0.5061786
   0.0133077   -0.0919952   -0.0347300   -0.2392692   -0.8275800   -0.5078008
   0.0143040   -0.0915012   -0.0360596   -0.1765347   -0.8688072   -0.4626116
   0.0113113   -0.0929889   -0.0320758   -0.5331835   -0.5912062   -0.6051369
   0.0105985   -0.0929173   -0.0315450   -0.4825078   -0.6112269   -0.6273659
   0.0139621   -0.0929631   -0.0334301   -0.0833617   -0.7961827   -0.5992862
   0.0131893   -0.0938018   -0.0322843   -0.1749444   -0.7350143   -0.6550943
   0.0112599   -0.0940836   -0.0309748   -0.5676509   -0.6211704   -0.5402961
   0.0118313   -0.0944379   -0.0311051   -0.3277787   -0.7121375   -0.6208231
   0.0116333   -0.0928393   -0.0325314   -0.5362877   -0.5931968   -0.6004274
   0.0109719   -0.0918248   -0.0281918   -0.3152514   -0.4850726    0.8156722
   0.0095281   -0.0931165   -0.0300400   -0.8059835   -0.5449029   -0.2312389
   0.0093369   -0.0929907   -0.0293891   -0.7955600   -0.5832245    0.1641143
   0.0104497   -0.0932101   -0.0311550   -0.5381427   -0.6161129   -0.5751585
   0.0101595   -0.0933112   -0.0306643   -0.6157530   -0.6368144   -0.4640212
   0.0096871   -0.0934018   -0.0291271   -0.6506736   -0.6645339    0.3674487
   0.0112156   -0.0927020   -0.0284890   -0.3158968   -0.2631398    0.9115737
   0.0105746   -0.0932863   -0.0288086   -0.3409650   -0.3548014    0.8705509
   0.0152092   -0.0950857   -0.0297519    0.3370206   -0.9217003   -0.1920563
   0.0149379   -0.0952274   -0.0292844    0.3330162   -0.9419336    0.0431424
   0.0148338   -0.0932936   -0.0328935    0.1711424   -0.8077290   -0.5641667
   0.0153281   -0.0948968   -0.0302143    0.3101779   -0.8757093   -0.3700310
   0.0143920   -0.0945548   -0.0313580    0.1644732   -0.7963673   -0.5820204
   0.0142227   -0.0948317   -0.0309600    0.1845549   -0.8603516   -0.4751154
   0.0144616   -0.0930184   -0.0333831    0.0526436   -0.8313280   -0.5532833
   0.0143150   -0.0933504   -0.0278447    0.2678683    0.0151734    0.9633361
   0.0147316   -0.0930859   -0.0279531    0.0994126   -0.1278861    0.9867939
   0.0135214   -0.0942627   -0.0275403    0.1343703   -0.0369545    0.9902419
   0.0114611   -0.0931735   -0.0284853   -0.4098647   -0.0994796    0.9067054
   0.0119548   -0.0936960   -0.0281991   -0.4921605    0.1540103    0.8567724
   0.0128019   -0.0936801   -0.0276970   -0.4274235    0.2162668    0.8778029
   0.0130030   -0.0942469   -0.0275115   -0.2173943    0.0023288    0.9760811
   0.0156159   -0.0929435   -0.0279011   -0.1751591   -0.2356498    0.9559228
   0.0157934   -0.0939631   -0.0279275    0.0125259   -0.1897983    0.9817432
   0.0158671   -0.0933976   -0.0279641   -0.1697926   -0.0805995    0.9821783
   0.0159750   -0.0945060   -0.0282052    0.3190083   -0.6223181    0.7148104
   0.0154574   -0.0948908   -0.0284873    0.3711571   -0.8438327    0.3875420
   0.0190143   -0.0805442   -0.0469870   -0.1419535    0.8372193    0.5281222
   0.0215430   -0.0804478   -0.0465066    0.2941149    0.6848896    0.6666503
   0.0202317   -0.0804031   -0.0466956   -0.1106958    0.8674020    0.4851393
   0.0152980   -0.0904685   -0.0382519   -0.0838306   -0.8794020   -0.4686412
   0.0220748   -0.0803873   -0.0469825    0.6014525    0.6563380    0.4554946
   0.0219245   -0.0828156   -0.0491589    0.8640056   -0.4908734   -0.1119716
   0.0215674   -0.0837007   -0.0479730    0.8300745   -0.5337434   -0.1615376
   0.0226284   -0.0809856   -0.0484792    0.9957780   -0.0858602   -0.0324675
   0.0226262   -0.0810596   -0.0479223    0.9945738   -0.0138539    0.1031068
   0.0222125   -0.0822555   -0.0493576    0.9167856   -0.3993759   -0.0017625
   0.0224277   -0.0816571   -0.0495421    0.9701296   -0.2283562   -0.0818653
   0.0214617   -0.0832061   -0.0494852    0.5007381   -0.7672774   -0.4006829
   0.0210455   -0.0835815   -0.0491894    0.3135652   -0.8282027   -0.4644966
   0.0208178   -0.0840621   -0.0483279    0.3155606   -0.8791736   -0.3570368
   0.0223301   -0.0803398   -0.0475124    0.7022622    0.6626051    0.2603504
   0.0204321   -0.0843079   -0.0479460    0.1205044   -0.8909520   -0.4378165
   0.0197261   -0.0845656   -0.0476241    0.1244327   -0.8745619   -0.4686768
   0.0193351   -0.0843647   -0.0479876    0.0402539   -0.8654210   -0.4994257
   0.0186934   -0.0851151   -0.0469395    0.0721938   -0.8296449   -0.5536041
   0.0189022   -0.0845490   -0.0477494    0.0827233   -0.8339510   -0.5456030
   0.0164168   -0.0875514   -0.0434432   -0.1381958   -0.8292582   -0.5415097
   0.0172553   -0.0865322   -0.0450654   -0.0124727   -0.8194447   -0.5730226
   0.0163173   -0.0866856   -0.0447156   -0.2544562   -0.7699738   -0.5851431
   0.0176953   -0.0862677   -0.0454266    0.0346031   -0.8142563   -0.5794733
   0.0179890   -0.0844019   -0.0479790    0.0043021   -0.8244863   -0.5658656
   0.0147573   -0.0813675   -0.0483962   -0.9159186    0.0889748   -0.3913779
   0.0153044   -0.0798166   -0.0489467   -0.8759843    0.4206454   -0.2360273
   0.0153785   -0.0797183   -0.0482675   -0.5249009    0.8012729    0.2871250
   0.0161951   -0.0795177   -0.0480047   -0.0085795    0.9343804    0.3561735
   0.0152541   -0.0821946   -0.0492655   -0.8555505   -0.1199354   -0.5036356
   0.0154921   -0.0835981   -0.0489147   -0.4267251   -0.7801565   -0.4574511
   0.0157420   -0.0817590   -0.0501129   -0.8555012   -0.0686629   -0.5132281
   0.0159364   -0.0827205   -0.0500912   -0.7385676   -0.3343743   -0.5854159
   0.0157999   -0.0834701   -0.0493859   -0.5011986   -0.6717584   -0.5454728
   0.0161912   -0.0843011   -0.0480399   -0.2647674   -0.8696124   -0.4167402
   0.0161698   -0.0840700   -0.0485000   -0.1641177   -0.8684440   -0.4678359
   0.0170520   -0.0846896   -0.0475435   -0.0570904   -0.8147270   -0.5770275
   0.0170712   -0.0844169   -0.0479678   -0.0383327   -0.8520828   -0.5220014
   0.0183895   -0.0802830   -0.0475260    0.0404080    0.8998907    0.4342395
   0.0168517   -0.0796998   -0.0480132    0.2872925    0.8850197    0.3663375
   0.0167356   -0.0793337   -0.0490052    0.2326808    0.9438818    0.2344071
   0.0142278   -0.0933118   -0.0330043    0.0447450   -0.8035841   -0.5935069
   0.0140892   -0.0936076   -0.0326142    0.0717066   -0.7899274   -0.6089933
   0.0137419   -0.0939219   -0.0322688   -0.0045921   -0.7678211   -0.6406478
   0.0134900   -0.0942275   -0.0319030   -0.0878657   -0.7480659   -0.6577819
   0.0113050   -0.0944910   -0.0306220   -0.5507790   -0.7130481   -0.4338259
   0.0109134   -0.0943599   -0.0298053   -0.6837944   -0.7247383   -0.0847324
   0.0100492   -0.0935568   -0.0301432   -0.6330593   -0.7332947   -0.2480218
   0.0128665   -0.0947419   -0.0311268   -0.1621755   -0.8043267   -0.5716272
   0.0123657   -0.0949159   -0.0307181   -0.2375121   -0.8381908   -0.4909422
   0.0105848   -0.0940678   -0.0294677   -0.6326915   -0.6926279    0.3463641
   0.0110449   -0.0934045   -0.0286423   -0.3320377   -0.0485025    0.9420183
   0.0114400   -0.0940867   -0.0284759   -0.5918480   -0.1843585    0.7846833
   0.0146365   -0.0952005   -0.0299200    0.1994041   -0.9395221   -0.2784535
   0.0145459   -0.0951230   -0.0281660    0.3073015   -0.8341490    0.4579970
   0.0143922   -0.0953217   -0.0286229    0.2148647   -0.9504048    0.2248642
   0.0143026   -0.0953843   -0.0293389    0.1602453   -0.9841571   -0.0758704
   0.0135731   -0.0945770   -0.0315071    0.0174857   -0.8067537   -0.5906290
   0.0134421   -0.0948435   -0.0310956   -0.0101561   -0.8569055   -0.5153734
   0.0135842   -0.0951019   -0.0306343   -0.0015634   -0.9138429   -0.4060650
   0.0148719   -0.0946178   -0.0278751    0.3113252   -0.3230712    0.8937011
   0.0153488   -0.0942560   -0.0279668    0.1581700   -0.0938250    0.9829441
   0.0141891   -0.0948903   -0.0277157    0.2050118   -0.4869934    0.8490039
   0.0132488   -0.0951189   -0.0278188   -0.0118640   -0.7176268    0.6963268
   0.0124663   -0.0946723   -0.0277163   -0.4332235   -0.4746180    0.7661952
   0.0118662   -0.0943003   -0.0281279   -0.6393415   -0.1254248    0.7586244
   0.0192054   -0.0802371   -0.0476179   -0.0573014    0.9463014    0.3181669
   0.0212195   -0.0801631   -0.0469814    0.0814785    0.9539323    0.2887462
   0.0200908   -0.0800613   -0.0478315   -0.0984442    0.9779163    0.1843598
   0.0222036   -0.0821759   -0.0499115    0.8034184   -0.4755516   -0.3582870
   0.0225280   -0.0806767   -0.0492787    0.9461722    0.2303083   -0.2274122
   0.0225176   -0.0803941   -0.0481207    0.8497112    0.5268677    0.0200340
   0.0224398   -0.0812018   -0.0497702    0.9445432   -0.0436628   -0.3254716
   0.0213744   -0.0829466   -0.0499360    0.4027434   -0.7111675   -0.5762279
   0.0208371   -0.0830088   -0.0500654    0.1599287   -0.7232678   -0.6717935
   0.0203535   -0.0833432   -0.0497546    0.0896904   -0.8034590   -0.5885655
   0.0203606   -0.0838748   -0.0488866    0.0968395   -0.8787465   -0.4673614
   0.0219521   -0.0799814   -0.0483977    0.2557691    0.9645014    0.0657207
   0.0182042   -0.0839586   -0.0486958   -0.0092364   -0.8471007   -0.5313521
   0.0189182   -0.0835538   -0.0495253   -0.0096391   -0.8205683   -0.5714672
   0.0161298   -0.0793419   -0.0499845   -0.3456975    0.9015130   -0.2603222
   0.0157736   -0.0797068   -0.0500044   -0.8030890    0.4156189   -0.4269765
   0.0156365   -0.0794415   -0.0486528   -0.4709532    0.8688218    0.1528127
   0.0157815   -0.0793587   -0.0491787   -0.4617319    0.8845412   -0.0662608
   0.0157504   -0.0808308   -0.0501232   -0.9243380   -0.0010295   -0.3815734
   0.0162487   -0.0792821   -0.0488458   -0.0801869    0.9689245    0.2339988
   0.0161502   -0.0832782   -0.0498070   -0.1313242   -0.8332215   -0.5371181
   0.0163806   -0.0836078   -0.0493753   -0.0845659   -0.8246497   -0.5592866
   0.0160303   -0.0816282   -0.0505840   -0.8603171   -0.1373442   -0.4909084
   0.0162507   -0.0825830   -0.0505539   -0.4149976   -0.5874310   -0.6947674
   0.0182838   -0.0798937   -0.0485717    0.1761225    0.9566201    0.2320751
   0.0187273   -0.0801097   -0.0479634    0.0683857    0.9579627    0.2786232
   0.0162403   -0.0792352   -0.0493527   -0.0277146    0.9995850   -0.0078517
   0.0169666   -0.0793351   -0.0494592    0.1936928    0.9807678    0.0240326
   0.0180642   -0.0797024   -0.0495329    0.3264803    0.9402837   -0.0963182
   0.0114289   -0.0947840   -0.0301300   -0.5371293   -0.8170141   -0.2097144
   0.0122780   -0.0951169   -0.0302583   -0.2032700   -0.8916720   -0.4044778
   0.0118188   -0.0950753   -0.0296340   -0.4640230   -0.8858143    0.0039604
   0.0114833   -0.0947974   -0.0292694   -0.6113374   -0.7791529    0.1385181
   0.0111738   -0.0944629   -0.0290124   -0.6889810   -0.6343911    0.3505040
   0.0117736   -0.0948357   -0.0285991   -0.6036891   -0.6819440    0.4129309
   0.0137653   -0.0953438   -0.0297750    0.0048691   -0.9726005   -0.2324319
   0.0137794   -0.0954448   -0.0287478   -0.0007878   -0.9899347    0.1415230
   0.0126741   -0.0951596   -0.0281001   -0.3133467   -0.8748987    0.3692779
   0.0122227   -0.0949999   -0.0283454   -0.2114179   -0.8959831    0.3905338
   0.0123000   -0.0952185   -0.0291120   -0.2632452   -0.9525583    0.1527568
   0.0190171   -0.0799417   -0.0490142    0.1173688    0.9914763    0.0565629
   0.0206482   -0.0799276   -0.0485622   -0.0353404    0.9978465    0.0552578
   0.0203204   -0.0799695   -0.0490793   -0.0097174    0.9866793   -0.1623868
   0.0220845   -0.0817051   -0.0504822    0.6800008   -0.2267952   -0.6972538
   0.0213485   -0.0824928   -0.0504151    0.3565647   -0.5552663   -0.7513594
   0.0222051   -0.0803059   -0.0495083    0.6237239    0.6783250   -0.3883859
   0.0221393   -0.0811862   -0.0503967    0.6229592    0.3161854   -0.7155059
   0.0221285   -0.0800689   -0.0488862    0.4449449    0.8818268   -0.1562226
   0.0208852   -0.0823595   -0.0506100    0.1266327   -0.5142898   -0.8482158
   0.0200009   -0.0830003   -0.0501668    0.0355915   -0.6792472   -0.7330460
   0.0211350   -0.0799450   -0.0490052    0.0266388    0.9886934   -0.1475660
   0.0216469   -0.0799747   -0.0490072    0.1456912    0.9737527   -0.1748705
   0.0186928   -0.0832098   -0.0499445   -0.0189472   -0.7938694   -0.6077930
   0.0168459   -0.0830689   -0.0501607   -0.0577896   -0.7900381   -0.6103280
   0.0172797   -0.0828004   -0.0505219   -0.0055382   -0.7548734   -0.6558471
   0.0187448   -0.0828675   -0.0503226    0.0628909   -0.6809873   -0.7295896
   0.0167685   -0.0795010   -0.0508138   -0.3260661    0.8078474   -0.4909821
   0.0171280   -0.0793900   -0.0504278    0.2569938    0.9412326   -0.2191696
   0.0160582   -0.0798324   -0.0505416   -0.7235697    0.4361583   -0.5349886
   0.0158764   -0.0805719   -0.0505399   -0.9125739    0.0074988   -0.4088431
   0.0162920   -0.0815703   -0.0511075   -0.7808515   -0.2319387   -0.5800650
   0.0168402   -0.0814851   -0.0515646   -0.2110723   -0.3549442   -0.9107487
   0.0168660   -0.0823954   -0.0509346   -0.0739703   -0.6602267   -0.7474149
   0.0174127   -0.0794416   -0.0497325    0.3158061    0.9486637    0.0174275
   0.0187456   -0.0798994   -0.0494544    0.2548298    0.9552730   -0.1500509
   0.0191146   -0.0801058   -0.0499553    0.1966942    0.9080118   -0.3699000
   0.0188821   -0.0804195   -0.0505475    0.2145158    0.7255211   -0.6539129
   0.0176041   -0.0802347   -0.0514424    0.4463123    0.6190591   -0.6461975
   0.0129891   -0.0952861   -0.0300053    0.0150025   -0.8870370   -0.4614545
   0.0124872   -0.0952735   -0.0297206   -0.1705531   -0.9826053   -0.0734738
   0.0130502   -0.0953492   -0.0286328   -0.1546816   -0.9857444    0.0661929
   0.0196083   -0.0801737   -0.0498847    0.1110299    0.9351770   -0.3363278
   0.0217330   -0.0801914   -0.0496681    0.1681344    0.9163362   -0.3633988
   0.0204194   -0.0801579   -0.0497939    0.0238859    0.9126579   -0.4080258
   0.0209354   -0.0801786   -0.0498126    0.0515081    0.9176011   -0.3941513
   0.0213261   -0.0816078   -0.0507883    0.2322042   -0.0932974   -0.9681822
   0.0214874   -0.0805224   -0.0502903    0.1941059    0.7505293   -0.6316872
   0.0208788   -0.0810380   -0.0507413    0.1585157    0.3582286   -0.9200788
   0.0202267   -0.0821129   -0.0507827    0.1462157   -0.3398733   -0.9290356
   0.0181790   -0.0824376   -0.0507445    0.0934797   -0.6360478   -0.7659666
   0.0185983   -0.0821587   -0.0509374    0.1312069   -0.5369803   -0.8333288
   0.0189569   -0.0824785   -0.0506408    0.0982214   -0.5924150   -0.7996231
   0.0168221   -0.0797864   -0.0513434   -0.0996428    0.6023690   -0.7919740
   0.0164344   -0.0801261   -0.0513691   -0.6188911    0.3978484   -0.6772669
   0.0161191   -0.0804581   -0.0510291   -0.8186579    0.2844130   -0.4989073
   0.0163043   -0.0809845   -0.0513346   -0.6503178   -0.0339055   -0.7589053
   0.0173295   -0.0820311   -0.0512290    0.0778868   -0.5710593   -0.8172056
   0.0170331   -0.0802667   -0.0517405   -0.0533928    0.2321908   -0.9712037
   0.0177429   -0.0808695   -0.0515452    0.2892705   -0.0177162   -0.9570834
   0.0178140   -0.0816509   -0.0513688    0.1908026   -0.3658009   -0.9109249
   0.0190595   -0.0809622   -0.0508888    0.3963175    0.2960787   -0.8690626
   0.0203261   -0.0814977   -0.0508804    0.0777041    0.1503409   -0.9855758
   0.0182128   -0.0809896   -0.0513755    0.3875226    0.0308586   -0.9213436
   0.0198873   -0.0817784   -0.0509434    0.3378368    0.1607866   -0.9273694
   0.0192239   -0.0820047   -0.0508981    0.1394898   -0.3018617   -0.9430918
   0.0184236   -0.0815352   -0.0512304    0.3251823   -0.1749410   -0.9293289
   0.0165654   -0.0806131   -0.0516566    0.0000000    0.0000000    1.0000000
3 0 1 2 
3 2 3 0 
3 4 1 0 
3 0 5 4 
3 3 5 0 
3 1 6 2 
3 6 1 7 
3 4 8 1 
3 9 1 8 
