NORM_ASCII
1139 2294
   0.0378108   -0.0553279   -0.0297043   -0.8814139   -0.4534345   -0.1323132
   0.0372755   -0.0537418   -0.0300863   -0.8905534   -0.3094881   -0.3333642
   0.0380102   -0.0549196   -0.0308910   -0.8746511   -0.2897725   -0.3886095
   0.0408129   -0.0553217   -0.0351374   -0.6235471    0.0504867   -0.7801539
   0.0395306   -0.0544949   -0.0338895   -0.7970459   -0.1304153   -0.5896691
   0.0402205   -0.0551219   -0.0346284   -0.6642095   -0.0179281   -0.7473314
   0.0389788   -0.0549918   -0.0328700   -0.8496385   -0.2076602   -0.4847593
   0.0387652   -0.0538622   -0.0329293   -0.8522886   -0.2093988   -0.4793289
   0.0384615   -0.0549760   -0.0317689   -0.8826514   -0.2384062   -0.4050791
   0.0384584   -0.0531697   -0.0326234   -0.8768256   -0.2186006   -0.4282413
   0.0426496   -0.0576288   -0.0285948    0.1894134   -0.4178022    0.8885740
   0.0439974   -0.0590038   -0.0297461    0.5414561   -0.2864441    0.7904271
   0.0447509   -0.0595301   -0.0307263    0.8075072   -0.2062637    0.5526187
   0.0444963   -0.0592222   -0.0302723    0.7055035   -0.2559523    0.6608731
   0.0436935   -0.0581886   -0.0292563    0.4600091   -0.3136912    0.8306560
   0.0453283   -0.0585360   -0.0316282    0.9608439   -0.0723959    0.2674657
   0.0451378   -0.0585828   -0.0310970    0.9051000   -0.1437250    0.4001713
   0.0456126   -0.0590728   -0.0329372    0.9904225    0.0062923    0.1379264
   0.0451596   -0.0610003   -0.0369410    0.8185357    0.3049802   -0.4868125
   0.0449942   -0.0605122   -0.0369399    0.7558223    0.3478853   -0.5547148
   0.0454293   -0.0602336   -0.0358742    0.8875919    0.2688690   -0.3740188
   0.0453112   -0.0584343   -0.0350158    0.9405906    0.1880108   -0.2827388
   0.0456014   -0.0583667   -0.0334517    0.9952636    0.0915318   -0.0327444
   0.0429252   -0.0605942   -0.0382762    0.2078150    0.4735641   -0.8558913
   0.0438162   -0.0618619   -0.0385464    0.4312443    0.4867613   -0.7596655
   0.0441358   -0.0614221   -0.0380375    0.4782520    0.4517050   -0.7531518
   0.0425305   -0.0584292   -0.0371502   -0.0475119    0.3892352   -0.9199123
   0.0422172   -0.0575907   -0.0367364   -0.4130676    0.3387291   -0.8453625
   0.0419246   -0.0572418   -0.0364292   -0.5758982    0.2819696   -0.7673555
   0.0418715   -0.0562980   -0.0361250   -0.5378867    0.2356032   -0.8094252
   0.0417540   -0.0548679   -0.0357347   -0.4791896    0.1809348   -0.8588597
   0.0423421   -0.0568060   -0.0281322    0.1849013   -0.4291479    0.8841061
   0.0419803   -0.0550959   -0.0271991    0.2087065   -0.4864685    0.8484044
   0.0420312   -0.0559741   -0.0276963    0.1859645   -0.4165040    0.8899110
   0.0412238   -0.0553009   -0.0271810    0.1127718   -0.5644096    0.8177556
   0.0406709   -0.0546293   -0.0267223    0.0491097   -0.5678999    0.8216312
   0.0401494   -0.0545559   -0.0266493    0.0333425   -0.6200240    0.7838740
   0.0398516   -0.0534911   -0.0257696    0.0103514   -0.6224449    0.7825952
   0.0378505   -0.0551743   -0.0285772   -0.7236277   -0.5688035    0.3909290
   0.0369251   -0.0535449   -0.0278409   -0.7704282   -0.5860984    0.2508568
   0.0376944   -0.0547801   -0.0282990   -0.7587261   -0.5626854    0.3282069
   0.0377184   -0.0536659   -0.0268879   -0.5279074   -0.6655921    0.5275424
   0.0395739   -0.0531200   -0.0255159   -0.0843608   -0.6219972    0.7784618
   0.0379651   -0.0531861   -0.0261802   -0.3824536   -0.7246413    0.5732576
   0.0382950   -0.0551853   -0.0312892   -0.8661391   -0.3045473   -0.3963005
   0.0373073   -0.0543459   -0.0292652   -0.9087241   -0.3708954   -0.1914603
   0.0369850   -0.0536270   -0.0291000   -0.9092797   -0.3743618   -0.1818340
   0.0369029   -0.0532250   -0.0295788   -0.8967779   -0.1768978   -0.4055817
   0.0371526   -0.0532255   -0.0301340   -0.8697514   -0.0521498   -0.4907269
   0.0369637   -0.0538397   -0.0284974   -0.8717361   -0.4889966    0.0309598
   0.0411460   -0.0536161   -0.0352048   -0.4370763    0.1404436   -0.8883917
   0.0391873   -0.0535773   -0.0337287   -0.7500910   -0.2242503   -0.6221538
   0.0398335   -0.0537404   -0.0343042   -0.6132133   -0.0703961   -0.7867744
   0.0404457   -0.0539698   -0.0347122   -0.5773069    0.0257803   -0.8161202
   0.0388016   -0.0533140   -0.0332447   -0.8327883   -0.2793365   -0.4779484
   0.0376575   -0.0512740   -0.0323238   -0.8797544   -0.2721293   -0.3898435
   0.0372906   -0.0525885   -0.0303346   -0.9113326   -0.1569993   -0.3805576
   0.0435718   -0.0572994   -0.0288451    0.4719639   -0.3367403    0.8147736
   0.0429201   -0.0570804   -0.0284352    0.3378651   -0.3862404    0.8582922
   0.0443538   -0.0574044   -0.0294870    0.6896276   -0.2376258    0.6840670
   0.0449108   -0.0584742   -0.0305838    0.8528850   -0.1718675    0.4929997
   0.0452389   -0.0577063   -0.0310178    0.9356217   -0.1064974    0.3365566
   0.0454786   -0.0577889   -0.0321396    0.9895257    0.0007741    0.1443548
   0.0453480   -0.0570505   -0.0312957    0.9822275   -0.0401246    0.1833554
   0.0443105   -0.0609577   -0.0377101    0.5229719    0.3897535   -0.7580189
   0.0447778   -0.0596060   -0.0366475    0.6955269    0.3476999   -0.6287663
   0.0448819   -0.0578233   -0.0355752    0.8136879    0.2871025   -0.5054544
   0.0451651   -0.0565937   -0.0343001    0.9094915    0.1916593   -0.3689063
   0.0454843   -0.0573021   -0.0335451    0.9871477    0.0908614   -0.1314674
   0.0454223   -0.0568694   -0.0317626    0.9955444    0.0134219    0.0933338
   0.0428987   -0.0601542   -0.0380325    0.1827933    0.4683678   -0.8644178
   0.0436134   -0.0587216   -0.0370157    0.3160785    0.4041911   -0.8583262
   0.0434000   -0.0596373   -0.0376072    0.3587552    0.4377667   -0.8244119
   0.0434623   -0.0605445   -0.0380110    0.4223178    0.4211365   -0.8026779
   0.0439765   -0.0600647   -0.0374704    0.4758201    0.3920281   -0.7873431
   0.0427525   -0.0579070   -0.0369516    0.1481586    0.3463198   -0.9263431
   0.0424307   -0.0570482   -0.0366053   -0.1574164    0.3429857   -0.9260566
   0.0421503   -0.0566698   -0.0363745   -0.3691104    0.2842183   -0.8848601
   0.0420351   -0.0552506   -0.0359537   -0.2454650    0.2682810   -0.9315429
   0.0416373   -0.0534432   -0.0353305   -0.2472842    0.2628561   -0.9326077
   0.0430834   -0.0565587   -0.0282817    0.4039806   -0.3357806    0.8509119
   0.0430193   -0.0556453   -0.0278965    0.3857729   -0.3772027    0.8419605
   0.0408828   -0.0536480   -0.0260689    0.1590480   -0.5521449    0.8184374
   0.0423950   -0.0536086   -0.0265736    0.4221661   -0.4335102    0.7961437
   0.0416573   -0.0538612   -0.0264011    0.2798928   -0.4909242    0.8250172
   0.0427199   -0.0548462   -0.0273599    0.4291254   -0.3889122    0.8152292
   0.0402130   -0.0538172   -0.0260883    0.1149980   -0.5851756    0.8027110
   0.0413450   -0.0525793   -0.0254144    0.3396561   -0.5155149    0.7866881
   0.0405804   -0.0524682   -0.0250959    0.1690700   -0.5724620    0.8023107
   0.0365277   -0.0530137   -0.0275931   -0.7760200   -0.6050236    0.1781555
   0.0374109   -0.0532782   -0.0267053   -0.5714919   -0.6690401    0.4751656
   0.0387488   -0.0520625   -0.0247226   -0.0234833   -0.6843400    0.7287848
   0.0402893   -0.0516931   -0.0244850    0.1107851   -0.5791157    0.8076829
   0.0385020   -0.0528409   -0.0255509   -0.2029086   -0.7095089    0.6748520
   0.0366168   -0.0525916   -0.0292990   -0.9093396   -0.2329340   -0.3447365
   0.0370022   -0.0519500   -0.0298724   -0.8614485   -0.0228671   -0.5073299
   0.0365139   -0.0530215   -0.0281289   -0.8581733   -0.5095188   -0.0626825
   0.0413125   -0.0525781   -0.0350058   -0.1690205    0.1541406   -0.9734848
   0.0405259   -0.0523321   -0.0347782   -0.3915541    0.0254553   -0.9198029
   0.0388183   -0.0525477   -0.0337368   -0.7716142   -0.2928324   -0.5646775
   0.0393239   -0.0527238   -0.0341173   -0.5352596   -0.1636820   -0.8286769
   0.0398744   -0.0531824   -0.0343486   -0.4883798   -0.0558820   -0.8708400
   0.0384338   -0.0514138   -0.0337802   -0.7572316   -0.2693976   -0.5950002
   0.0379358   -0.0509764   -0.0329753   -0.8721626   -0.3875781   -0.2985224
   0.0371763   -0.0517070   -0.0305896   -0.9272156   -0.2413853   -0.2863641
   0.0440416   -0.0561517   -0.0287328    0.6052463   -0.2813613    0.7446561
   0.0447012   -0.0552882   -0.0291936    0.8083872   -0.1899487    0.5571621
   0.0449679   -0.0560293   -0.0299209    0.9018307   -0.1318819    0.4114711
   0.0452933   -0.0551989   -0.0305420    0.9654476   -0.0741282    0.2498320
   0.0453528   -0.0560352   -0.0311522    0.9886586   -0.0439983    0.1435909
   0.0441615   -0.0587028   -0.0366536    0.5293344    0.3845808   -0.7562425
   0.0446268   -0.0573510   -0.0355977    0.6575139    0.3700838   -0.6562876
   0.0448634   -0.0564985   -0.0348059    0.7865060    0.2960686   -0.5419887
   0.0454236   -0.0567697   -0.0335916    0.9728388    0.1107588   -0.2032661
   0.0453441   -0.0562424   -0.0336385    0.9660843    0.1411947   -0.2162062
   0.0451862   -0.0552693   -0.0334986    0.9060324    0.2295159   -0.3555667
   0.0454456   -0.0557697   -0.0318539    0.9992848    0.0369434    0.0080646
   0.0432801   -0.0578344   -0.0367618    0.4089393    0.3561527   -0.8401927
   0.0426517   -0.0565246   -0.0364128    0.0748788    0.3443462   -0.9358519
   0.0432086   -0.0568985   -0.0364447    0.3552063    0.3417198   -0.8700897
   0.0423243   -0.0556488   -0.0361178   -0.0944211    0.3125074   -0.9452110
   0.0422527   -0.0547169   -0.0357933    0.0275231    0.3426694   -0.9390528
   0.0418537   -0.0529072   -0.0351773    0.0520408    0.2456196   -0.9679684
   0.0432307   -0.0551012   -0.0277748    0.5105173   -0.3327252    0.7928846
   0.0413812   -0.0534048   -0.0260188    0.2643589   -0.5399626    0.7990962
   0.0435467   -0.0531080   -0.0271471    0.6030222   -0.3107655    0.7347034
   0.0431733   -0.0528174   -0.0267314    0.5835870   -0.3942526    0.7099233
   0.0414976   -0.0507887   -0.0244356    0.3416963   -0.4960080    0.7982604
   0.0407673   -0.0511141   -0.0242579    0.2850698   -0.4991803    0.8182629
   0.0363191   -0.0524623   -0.0268184   -0.6674444   -0.6572212    0.3501118
   0.0357573   -0.0518970   -0.0273439   -0.8813098   -0.4695570   -0.0530022
   0.0385065   -0.0524691   -0.0251340   -0.1258330   -0.7389609    0.6618934
   0.0382241   -0.0517393   -0.0243815   -0.0841856   -0.7143257    0.6947313
   0.0389823   -0.0511675   -0.0239207    0.0776526   -0.5697528    0.8181392
   0.0374196   -0.0521406   -0.0251775   -0.3235918   -0.7768946    0.5401140
   0.0376916   -0.0514289   -0.0241455   -0.1800874   -0.6856373    0.7053155
   0.0360008   -0.0521398   -0.0279968   -0.8910083   -0.3062279   -0.3351548
   0.0360448   -0.0514853   -0.0283184   -0.8720338   -0.0644602   -0.4851824
   0.0363471   -0.0517273   -0.0289266   -0.8569583   -0.0068363   -0.5153404
   0.0366822   -0.0510852   -0.0294960   -0.9103251   -0.1517112   -0.3850869
   0.0414201   -0.0510068   -0.0348523    0.0555258    0.1138108   -0.9919496
   0.0410678   -0.0500961   -0.0348010   -0.0700087   -0.0075225   -0.9975180
   0.0407227   -0.0517427   -0.0347935   -0.2549032    0.0119160   -0.9668932
   0.0397470   -0.0520502   -0.0344141   -0.4079864   -0.1041433   -0.9070288
   0.0401788   -0.0514037   -0.0346502   -0.3345869   -0.0419499   -0.9414307
   0.0387576   -0.0520575   -0.0338369   -0.5979116   -0.2232128   -0.7698557
   0.0390978   -0.0507390   -0.0343159   -0.4576174   -0.1293333   -0.8796927
   0.0379656   -0.0507906   -0.0334890   -0.7066879   -0.2690321   -0.6543806
   0.0370890   -0.0507286   -0.0312546   -0.9153894   -0.2300098   -0.3303903
   0.0372629   -0.0504417   -0.0319542   -0.9261340   -0.1754600   -0.3339005
   0.0373799   -0.0501575   -0.0323829   -0.8844308   -0.3666797   -0.2886660
   0.0368298   -0.0506160   -0.0302395   -0.9349747   -0.2381706   -0.2628633
   0.0377279   -0.0503851   -0.0333052   -0.8226112   -0.3722776   -0.4297908
   0.0442380   -0.0555456   -0.0287251    0.7176095   -0.2394257    0.6539969
   0.0439755   -0.0552340   -0.0283621    0.6602735   -0.2646335    0.7028570
   0.0444262   -0.0545058   -0.0285869    0.7849702   -0.2075446    0.5837354
   0.0448363   -0.0547066   -0.0292365    0.8531674   -0.1520591    0.4989823
   0.0450155   -0.0555119   -0.0298442    0.9045297   -0.1399280    0.4027979
   0.0453616   -0.0535395   -0.0306772    0.9939647   -0.0074995    0.1094441
   0.0451656   -0.0534460   -0.0295548    0.9351840   -0.0969601    0.3406313
   0.0451024   -0.0549424   -0.0298879    0.9274956   -0.1183041    0.3546209
   0.0454059   -0.0554742   -0.0311966    0.9950147   -0.0175678    0.0981685
   0.0439953   -0.0568745   -0.0359187    0.5931330    0.3386629   -0.7304113
   0.0450521   -0.0547745   -0.0334951    0.8783664    0.2443529   -0.4108091
   0.0445345   -0.0559874   -0.0349942    0.6874127    0.3003386   -0.6612567
   0.0443580   -0.0541441   -0.0343098    0.7240010    0.3028526   -0.6197603
   0.0453417   -0.0541531   -0.0319919    0.9900663    0.0941700   -0.1044064
   0.0425433   -0.0551237   -0.0359346    0.1153475    0.3493548   -0.9298635
   0.0436341   -0.0559524   -0.0357825    0.5654468    0.3361337   -0.7531827
   0.0429711   -0.0536697   -0.0352011    0.3116945    0.3523189   -0.8824500
   0.0420654   -0.0522985   -0.0349746    0.2201468    0.2505603   -0.9427380
   0.0441719   -0.0541857   -0.0281692    0.7323372   -0.2529492    0.6322174
   0.0445129   -0.0525866   -0.0279199    0.7708519   -0.2432036    0.5887608
   0.0441695   -0.0523202   -0.0274141    0.7010842   -0.3293450    0.6324657
   0.0417741   -0.0512081   -0.0247598    0.3964193   -0.4745194    0.7859282
   0.0427767   -0.0516582   -0.0257706    0.5734911   -0.4090228    0.7097946
   0.0429543   -0.0520211   -0.0261237    0.5718523   -0.3939829    0.7195571
   0.0432908   -0.0521723   -0.0264800    0.6446086   -0.3716546    0.6680963
   0.0435531   -0.0525539   -0.0269236    0.6578862   -0.4138671    0.6292057
   0.0412167   -0.0500885   -0.0238058    0.3271284   -0.4470485    0.8325471
   0.0407445   -0.0506824   -0.0239854    0.2399596   -0.4370447    0.8668399
   0.0419952   -0.0506851   -0.0245660    0.4626622   -0.4566420    0.7598827
   0.0362883   -0.0521326   -0.0262559   -0.6207804   -0.6726152    0.4027661
   0.0356718   -0.0515542   -0.0266642   -0.8213361   -0.5209289    0.2324655
   0.0353750   -0.0510617   -0.0269742   -0.9545930   -0.2588911   -0.1474027
   0.0392108   -0.0506643   -0.0236638    0.1402746   -0.4573825    0.8781368
   0.0365831   -0.0519007   -0.0255449   -0.5189999   -0.7017866    0.4879905
   0.0371557   -0.0517402   -0.0247266   -0.4035366   -0.7001939    0.5889708
   0.0371356   -0.0510574   -0.0241058   -0.4424419   -0.4977090    0.7460100
   0.0381949   -0.0509165   -0.0237056   -0.1405460   -0.4934798    0.8583266
   0.0355778   -0.0513479   -0.0275294   -0.8812341   -0.1742655   -0.4393837
   0.0359922   -0.0509716   -0.0283043   -0.8199787   -0.0305801   -0.5715765
   0.0363838   -0.0511707   -0.0289717   -0.8510140    0.0154648   -0.5249152
   0.0361692   -0.0503353   -0.0284763   -0.8540616   -0.1230076   -0.5054186
   0.0364243   -0.0506459   -0.0289216   -0.9163355   -0.1584216   -0.3677387
   0.0416357   -0.0505139   -0.0347506    0.2695403    0.0624637   -0.9609611
   0.0421555   -0.0503768   -0.0345790    0.3529407    0.1841004   -0.9173548
   0.0406307   -0.0485293   -0.0349304    0.0644349   -0.0528003   -0.9965241
   0.0401205   -0.0508773   -0.0346794   -0.2908077   -0.0760884   -0.9537512
   0.0393929   -0.0511604   -0.0344137   -0.3928848   -0.1152648   -0.9123352
   0.0393856   -0.0488543   -0.0346929   -0.3061812   -0.1052172   -0.9461408
   0.0386792   -0.0492513   -0.0343252   -0.4365956   -0.1326908   -0.8898187
   0.0371505   -0.0499326   -0.0317388   -0.9398155   -0.2270530   -0.2553306
   0.0365522   -0.0487691   -0.0312180   -0.8862991   -0.3349978   -0.3197662
   0.0368295   -0.0491319   -0.0314581   -0.8633084   -0.3688776   -0.3444239
   0.0364671   -0.0490222   -0.0305123   -0.9453476   -0.2474878   -0.2122914
   0.0371919   -0.0496702   -0.0327044   -0.9099617   -0.3844818   -0.1553813
   0.0362715   -0.0495702   -0.0293828   -0.9148655   -0.2356403   -0.3278640
   0.0362828   -0.0501016   -0.0290645   -0.9358938   -0.2489377   -0.2492646
   0.0372381   -0.0494184   -0.0331401   -0.8273944   -0.2489599   -0.5034257
   0.0376750   -0.0497702   -0.0335859   -0.7042444   -0.1914508   -0.6836567
   0.0445967   -0.0539247   -0.0286004    0.8338991   -0.1884167    0.5187596
   0.0449630   -0.0541260   -0.0292789    0.8766691   -0.1321603    0.4625851
   0.0451208   -0.0520587   -0.0289898    0.9485968   -0.0981049    0.3008981
   0.0452506   -0.0518634   -0.0294555    0.9918086   -0.0173227    0.1265530
   0.0447635   -0.0529934   -0.0285371    0.8796468   -0.1831007    0.4389711
   0.0434515   -0.0527256   -0.0344886    0.5903040    0.3565685   -0.7241548
   0.0443006   -0.0532259   -0.0339335    0.7628644    0.2947552   -0.5754627
   0.0450829   -0.0525774   -0.0321339    0.9188146    0.2031572   -0.3383888
   0.0452703   -0.0527584   -0.0314674    0.9763405    0.1122574   -0.1848174
   0.0452942   -0.0502909   -0.0293568    0.9982324    0.0132083    0.0579454
   0.0452624   -0.0513127   -0.0295007    0.9856568   -0.0305490    0.1659744
   0.0426969   -0.0522983   -0.0347597    0.4840319    0.2846170   -0.8274698
   0.0448218   -0.0519108   -0.0281038    0.8655985   -0.2103201    0.4544279
   0.0444389   -0.0512793   -0.0271453    0.7283819   -0.3137374    0.6091212
   0.0434846   -0.0513237   -0.0262010    0.6468510   -0.3313899    0.6868512
   0.0436367   -0.0498767   -0.0256581    0.7187218   -0.2763334    0.6380273
   0.0430412   -0.0497473   -0.0249438    0.6500368   -0.3519619    0.6734798
   0.0403632   -0.0489223   -0.0232150    0.1603135   -0.3179134    0.9344681
   0.0421870   -0.0497108   -0.0241597    0.5452347   -0.4037289    0.7346578
   0.0421526   -0.0491176   -0.0238142    0.5172823   -0.3252503    0.7916004
   0.0414048   -0.0491066   -0.0234267    0.2899250   -0.3118639    0.9048118
   0.0391533   -0.0497677   -0.0232240    0.0004779   -0.2786688    0.9603872
   0.0393620   -0.0492157   -0.0231269    0.1247261   -0.2721273    0.9541437
   0.0362952   -0.0514109   -0.0252633   -0.6327502   -0.5890040    0.5026942
   0.0360023   -0.0516177   -0.0259163   -0.7418457   -0.5386504    0.3994004
   0.0354640   -0.0508154   -0.0260811   -0.8742518   -0.3798667    0.3022995
   0.0352746   -0.0505402   -0.0270219   -0.9573337   -0.0404052   -0.2861462
   0.0357249   -0.0506284   -0.0279619   -0.8225141   -0.1117803   -0.5576519
   0.0384233   -0.0504139   -0.0234477   -0.0743809   -0.3754942    0.9238352
   0.0368675   -0.0513260   -0.0245351   -0.5750684   -0.5681998    0.5885961
   0.0373733   -0.0505797   -0.0237680   -0.3479902   -0.3212104    0.8807535
   0.0362921   -0.0510075   -0.0248922   -0.7088180   -0.4512391    0.5421811
   0.0368300   -0.0506110   -0.0240911   -0.6134490   -0.3802916    0.6921407
   0.0358822   -0.0499392   -0.0283015   -0.8086732   -0.2319147   -0.5406137
   0.0425664   -0.0508521   -0.0344311    0.5128642    0.1664078   -0.8421869
   0.0423767   -0.0498541   -0.0343850    0.4604758    0.1118509   -0.8805972
   0.0397931   -0.0479568   -0.0348976   -0.1716505   -0.0542329   -0.9836640
   0.0420400   -0.0492595   -0.0345436    0.5010434    0.0164287   -0.8652662
   0.0415545   -0.0473219   -0.0347875    0.3734262    0.0653223   -0.9253572
   0.0414394   -0.0487021   -0.0348023    0.1953080   -0.0448780   -0.9797146
   0.0408211   -0.0478932   -0.0349576    0.0714276   -0.0084139   -0.9974103
   0.0379279   -0.0491862   -0.0339049   -0.6019959   -0.1495122   -0.7843769
   0.0392608   -0.0477237   -0.0347590   -0.3297075   -0.0809610   -0.9406053
   0.0384969   -0.0476518   -0.0344773   -0.3543221   -0.1238015   -0.9268922
   0.0371121   -0.0493857   -0.0320483   -0.9263254   -0.3690861   -0.0754768
   0.0363203   -0.0485122   -0.0305606   -0.9484150   -0.2813179   -0.1461819
   0.0367328   -0.0486391   -0.0319819   -0.8840490   -0.4265358   -0.1911143
   0.0361297   -0.0483725   -0.0295690   -0.9489814   -0.2355965   -0.2095914
   0.0369923   -0.0491968   -0.0326880   -0.9163035   -0.3752042   -0.1400350
   0.0359455   -0.0479990   -0.0292538   -0.9154713   -0.1943497   -0.3523358
   0.0371328   -0.0465197   -0.0338277   -0.6960427   -0.0693613   -0.7146422
   0.0374767   -0.0474220   -0.0339545   -0.6058606   -0.1470491   -0.7818628
   0.0451018   -0.0511306   -0.0286126    0.9621277   -0.0479437    0.2683500
   0.0449248   -0.0529507   -0.0327149    0.8565841    0.2592594   -0.4461483
   0.0442101   -0.0514146   -0.0330905    0.7091113    0.2936132   -0.6410558
   0.0443915   -0.0518837   -0.0331306    0.7910772    0.2987467   -0.5338046
   0.0451454   -0.0521759   -0.0317095    0.9477285    0.1399792   -0.2867343
   0.0445148   -0.0514823   -0.0326584    0.8336438    0.2443681   -0.4953002
   0.0452857   -0.0495034   -0.0301058    0.9960693    0.0094932   -0.0880674
   0.0452838   -0.0489552   -0.0296165    0.9981887   -0.0054647    0.0599120
   0.0451797   -0.0483736   -0.0288387    0.9871199    0.0171884    0.1590561
   0.0451133   -0.0490180   -0.0285596    0.9722901   -0.0316492    0.2316255
   0.0429735   -0.0503375   -0.0340712    0.6718621    0.1371408   -0.7278693
   0.0447398   -0.0510795   -0.0274934    0.8708676   -0.1538323    0.4668246
   0.0449563   -0.0513287   -0.0281465    0.9415919   -0.1159094    0.3161798
   0.0441526   -0.0505126   -0.0265024    0.7535648   -0.2363837    0.6134026
   0.0440638   -0.0500953   -0.0262378    0.7809612   -0.1915007    0.5944974
   0.0438274   -0.0491549   -0.0255707    0.7884302   -0.2551034    0.5597321
   0.0428929   -0.0493725   -0.0246038    0.6582316   -0.3767618    0.6517527
   0.0397893   -0.0481294   -0.0228670    0.1360676   -0.2244632    0.9649362
   0.0408216   -0.0482883   -0.0231594    0.2011209   -0.2189853    0.9547753
   0.0421107   -0.0485300   -0.0235728    0.4420829   -0.2069861    0.8727654
   0.0416137   -0.0485516   -0.0233355    0.3572652   -0.1474758    0.9222865
   0.0392416   -0.0477804   -0.0227556   -0.0307000   -0.1580905    0.9869473
   0.0387308   -0.0479000   -0.0227987   -0.1798828   -0.1937023    0.9644281
   0.0356686   -0.0504786   -0.0253592   -0.8280040   -0.3042463    0.4710028
   0.0352164   -0.0502503   -0.0263654   -0.9938676   -0.1076913    0.0250968
   0.0353339   -0.0501028   -0.0257815   -0.9229948   -0.2576489    0.2858281
   0.0352676   -0.0499948   -0.0270675   -0.9854733   -0.0080365   -0.1696402
   0.0354621   -0.0497018   -0.0277663   -0.9160714   -0.1025253   -0.3876877
   0.0375963   -0.0500636   -0.0235548   -0.3040116   -0.1686721    0.9376175
   0.0381095   -0.0494666   -0.0233517   -0.3855733   -0.1316017    0.9132438
   0.0370850   -0.0501140   -0.0237955   -0.4932722   -0.1175360    0.8618978
   0.0362298   -0.0501224   -0.0244237   -0.6497116   -0.2615127    0.7137829
   0.0359621   -0.0504259   -0.0248966   -0.6958864   -0.4291913    0.5757925
   0.0428702   -0.0493189   -0.0340201    0.5809355    0.0749951   -0.8104873
   0.0424744   -0.0482614   -0.0343041    0.6158840    0.0319278   -0.7871896
   0.0417224   -0.0462516   -0.0345383    0.4609619    0.1987494   -0.8648773
   0.0399575   -0.0471007   -0.0349608   -0.0195914    0.0616728   -0.9979041
   0.0409937   -0.0470156   -0.0348839    0.1416486    0.1100518   -0.9837806
   0.0381844   -0.0471103   -0.0344213   -0.4151375   -0.0715192   -0.9069431
   0.0394099   -0.0467513   -0.0348500   -0.2426714    0.0882528   -0.9660859
   0.0363861   -0.0479487   -0.0321444   -0.9229926   -0.2831023   -0.2606488
   0.0360685   -0.0472390   -0.0313599   -0.9772107   -0.1639875   -0.1347860
   0.0362009   -0.0475908   -0.0317801   -0.9531825   -0.1915961   -0.2339531
   0.0366374   -0.0482447   -0.0326154   -0.8846282   -0.2570079   -0.3890756
   0.0357069   -0.0476741   -0.0288353   -0.9654871    0.0118706   -0.2601803
   0.0358275   -0.0474817   -0.0293017   -0.9651194   -0.1586171   -0.2082909
   0.0353834   -0.0486273   -0.0278591   -0.9392398   -0.0333098   -0.3416417
   0.0376308   -0.0465819   -0.0341614   -0.5197928   -0.0487508   -0.8529003
   0.0365727   -0.0470919   -0.0329446   -0.8806989   -0.1676522   -0.4430150
   0.0366477   -0.0464218   -0.0332883   -0.7945696   -0.0905588   -0.6003818
   0.0448517   -0.0494093   -0.0276283    0.9513197   -0.0481121    0.3044274
   0.0447913   -0.0499935   -0.0275202    0.9665595    0.0067952    0.2563525
   0.0448048   -0.0505154   -0.0275378    0.9497288   -0.0305028    0.3115842
   0.0449043   -0.0486736   -0.0276018    0.9563274   -0.0825715    0.2803923
   0.0438368   -0.0504175   -0.0331833    0.7528536    0.2131408   -0.6227218
   0.0450977   -0.0509217   -0.0311983    0.9421187    0.0749115   -0.3268037
   0.0447449   -0.0506132   -0.0319212    0.8657561    0.1433776   -0.4794885
   0.0437908   -0.0498869   -0.0330738    0.7779164    0.1423686   -0.6120272
   0.0453094   -0.0488686   -0.0303847    0.9822817   -0.0128863   -0.1869670
   0.0453360   -0.0479287   -0.0300067    0.9854298    0.0615388   -0.1585596
   0.0450560   -0.0480998   -0.0281834    0.9850005   -0.0216641    0.1711860
   0.0452627   -0.0469342   -0.0298652    0.9957100    0.0660593    0.0647895
   0.0435032   -0.0493742   -0.0333764    0.7783858    0.0598726   -0.6249247
   0.0433368   -0.0484017   -0.0335034    0.7288824    0.0703666   -0.6810132
   0.0444053   -0.0493796   -0.0265109    0.8413963   -0.1489340    0.5194911
   0.0446419   -0.0491580   -0.0269749    0.9405753   -0.0659486    0.3331198
   0.0434917   -0.0486189   -0.0247918    0.7538914   -0.2846467    0.5921352
   0.0428474   -0.0485102   -0.0240571    0.6694810   -0.2115805    0.7120596
   0.0438668   -0.0483607   -0.0252522    0.8465845   -0.1856743    0.4988183
   0.0396528   -0.0466270   -0.0225981   -0.0272532    0.1692311    0.9851995
   0.0399576   -0.0470948   -0.0226553    0.1509811   -0.1929784    0.9695174
   0.0409429   -0.0467590   -0.0228781    0.3530272   -0.0567785    0.9338886
   0.0425005   -0.0481818   -0.0237311    0.5628145   -0.1105919    0.8191516
   0.0425247   -0.0476477   -0.0237211    0.5004248   -0.0222462    0.8654941
   0.0391517   -0.0468308   -0.0226389   -0.2319640    0.1686177    0.9579983
   0.0384214   -0.0474426   -0.0228175   -0.3371900   -0.0101663    0.9413817
   0.0359029   -0.0495895   -0.0245530   -0.6203521   -0.0960494    0.7784201
   0.0352993   -0.0494893   -0.0254243   -0.9688878   -0.0719864    0.2368002
   0.0353461   -0.0490602   -0.0250938   -0.8980369   -0.0661401    0.4349199
   0.0352307   -0.0496180   -0.0266450   -0.9981306    0.0000634   -0.0611179
   0.0352049   -0.0489964   -0.0269254   -0.9926544   -0.0506702   -0.1098622
   0.0352538   -0.0488226   -0.0273934   -0.9822418   -0.0195100   -0.1866020
   0.0380764   -0.0479947   -0.0230207   -0.4611181   -0.1651974    0.8718256
   0.0369686   -0.0490498   -0.0238895   -0.5021753   -0.0470805    0.8634833
   0.0364603   -0.0496250   -0.0241496   -0.5249691   -0.0793109    0.8474180
   0.0434780   -0.0478200   -0.0332798    0.7579181    0.0223242   -0.6519676
   0.0427448   -0.0472170   -0.0340427    0.6336146    0.0737047   -0.7701300
   0.0420381   -0.0467249   -0.0344665    0.5509023    0.1699756   -0.8170771
   0.0411917   -0.0463194   -0.0347465    0.2502368    0.2211518   -0.9425887
   0.0419489   -0.0457455   -0.0342934    0.5106237    0.2360654   -0.8267627
   0.0399057   -0.0465952   -0.0349280   -0.1592209    0.1455271   -0.9764582
   0.0406648   -0.0463301   -0.0348461    0.1493848    0.1597297   -0.9757923
   0.0375696   -0.0458855   -0.0341417   -0.3865981    0.2510295   -0.8874266
   0.0388313   -0.0459470   -0.0345403   -0.2231515    0.2427526   -0.9440734
   0.0398239   -0.0456310   -0.0346996   -0.1650265    0.2882381   -0.9432312
   0.0359656   -0.0468802   -0.0309388   -0.9946829    0.0274411   -0.0992620
   0.0361586   -0.0464262   -0.0321066   -0.9690294   -0.0540205   -0.2409643
   0.0359439   -0.0471676   -0.0302526   -0.9910278   -0.0105741   -0.1332368
   0.0358061   -0.0469397   -0.0293476   -0.9782668    0.1208571   -0.1684865
   0.0356106   -0.0468464   -0.0282257   -0.9755680    0.1277220   -0.1787575
   0.0357818   -0.0465600   -0.0289249   -0.9521941    0.1995029   -0.2313546
   0.0353025   -0.0482632   -0.0274381   -0.9740240    0.1669886   -0.1529449
   0.0354727   -0.0476717   -0.0274798   -0.9767542    0.2057835   -0.0600368
   0.0364547   -0.0460269   -0.0330376   -0.8890261    0.1188734   -0.4421557
   0.0362799   -0.0462342   -0.0325732   -0.9523804   -0.0329509   -0.3031269
   0.0368332   -0.0457687   -0.0334990   -0.7509695    0.1294639   -0.6475213
   0.0372813   -0.0455181   -0.0338842   -0.6406654    0.2383737   -0.7298807
   0.0448128   -0.0475528   -0.0268735    0.9455545   -0.0871044    0.3135914
   0.0447358   -0.0481199   -0.0268295    0.9053805   -0.1314950    0.4037268
   0.0447929   -0.0496100   -0.0317099    0.8584305    0.0593391   -0.5094859
   0.0451412   -0.0487496   -0.0308567    0.9116484    0.0229255   -0.4103310
   0.0452234   -0.0482625   -0.0306663    0.9252090    0.0332349   -0.3779997
   0.0451268   -0.0462780   -0.0287871    0.9934849    0.0660889    0.0928444
   0.0451977   -0.0464033   -0.0299121    0.9863394    0.1444579   -0.0791615
   0.0448516   -0.0465290   -0.0267296    0.9529491   -0.0021851    0.3031225
   0.0449313   -0.0463469   -0.0271965    0.9846018   -0.0198423    0.1736825
   0.0449944   -0.0457026   -0.0274752    0.9863025    0.0284630    0.1624722
   0.0450501   -0.0459123   -0.0283658    0.9951206    0.0264197    0.0950633
   0.0436676   -0.0480265   -0.0248338    0.7867776   -0.1203403    0.6053918
   0.0434886   -0.0476251   -0.0245918    0.7294288   -0.0348758    0.6831671
   0.0443947   -0.0469695   -0.0258019    0.8569085   -0.0515839    0.5128810
   0.0404341   -0.0467236   -0.0227021    0.2321141    0.1841044    0.9551066
   0.0408752   -0.0462060   -0.0229901    0.2301025    0.7362977    0.6363320
   0.0430113   -0.0476152   -0.0240785    0.6564326   -0.0267030    0.7539119
   0.0424224   -0.0466306   -0.0236637    0.5848718    0.2329742    0.7769479
   0.0416572   -0.0464428   -0.0232515    0.3335735    0.5166425    0.7885488
   0.0383134   -0.0465676   -0.0229969   -0.4262104    0.4313491    0.7951620
   0.0379253   -0.0469386   -0.0231147   -0.4840298    0.1478513    0.8624704
   0.0378862   -0.0474958   -0.0230696   -0.5537743   -0.0057990    0.8326466
   0.0352115   -0.0487707   -0.0260334   -0.9945804    0.1027304    0.0160072
   0.0353395   -0.0485148   -0.0251397   -0.9353714    0.1586302    0.3160961
   0.0357715   -0.0483826   -0.0245879   -0.6543060    0.0900471    0.7508497
   0.0351957   -0.0485326   -0.0267371   -0.9967919    0.0765722   -0.0232920
   0.0362904   -0.0481016   -0.0242503   -0.5994320    0.0553109    0.7985123
   0.0446617   -0.0485494   -0.0318041    0.8615919    0.0429669   -0.5057798
   0.0434309   -0.0467351   -0.0333766    0.7402456    0.0350397   -0.6714229
   0.0440072   -0.0466279   -0.0325743    0.8314908    0.0275152   -0.5548567
   0.0430584   -0.0462045   -0.0336592    0.6355942    0.1597247   -0.7553199
   0.0417070   -0.0452932   -0.0342462    0.3036579    0.4009450   -0.8643119
   0.0424237   -0.0447872   -0.0336268    0.5123168    0.4128609   -0.7530454
   0.0401117   -0.0460327   -0.0348604    0.0203435    0.2123912   -0.9769729
   0.0405878   -0.0454468   -0.0346527    0.1199328    0.3292559   -0.9365931
   0.0390418   -0.0453995   -0.0344281   -0.2038018    0.4022309   -0.8925666
   0.0380107   -0.0452387   -0.0341364   -0.1602696    0.5139757   -0.8426996
   0.0402971   -0.0450402   -0.0345109   -0.0511148    0.4717084   -0.8802718
   0.0362015   -0.0457249   -0.0310251   -0.9544888    0.2971905    0.0250779
   0.0362102   -0.0458663   -0.0321516   -0.9763216    0.1420995   -0.1631066
   0.0360972   -0.0460180   -0.0300672   -0.9455604    0.3181474   -0.0685399
   0.0359959   -0.0459577   -0.0289662   -0.8656540    0.4880981   -0.1113706
   0.0356709   -0.0463645   -0.0280356   -0.9478835    0.3150071   -0.0478264
   0.0353088   -0.0480307   -0.0265435   -0.9578864    0.2787255    0.0690335
   0.0358872   -0.0462128   -0.0266568   -0.8637943    0.4873173    0.1279892
   0.0371068   -0.0451509   -0.0335386   -0.6035458    0.4347842   -0.6683526
   0.0448578   -0.0488020   -0.0313886    0.8935116    0.0537962   -0.4458061
   0.0450416   -0.0477552   -0.0309800    0.9022838    0.0394209   -0.4293366
   0.0449415   -0.0456791   -0.0306660    0.9375815    0.2008312   -0.2839152
   0.0448909   -0.0470917   -0.0312332    0.8819845    0.1040012   -0.4596598
   0.0449598   -0.0447236   -0.0281444    0.9706560    0.2198283    0.0974809
   0.0450798   -0.0455812   -0.0293025    0.9849737    0.1691896   -0.0346649
   0.0449775   -0.0453655   -0.0300079    0.9388346    0.2950874   -0.1775188
   0.0449898   -0.0450753   -0.0277550    0.9356343    0.2599754    0.2387492
   0.0448677   -0.0453747   -0.0269813    0.9322741    0.1958426    0.3041557
   0.0435468   -0.0470429   -0.0246925    0.7382846    0.0665319    0.6711999
   0.0401172   -0.0462182   -0.0227385    0.0642887    0.7204286    0.6905430
   0.0395658   -0.0460333   -0.0228848   -0.0376602    0.8728116    0.4866020
   0.0390577   -0.0461452   -0.0228876   -0.2604060    0.6649169    0.7000530
   0.0428808   -0.0463708   -0.0240667    0.5773007    0.3370078    0.7437403
   0.0422975   -0.0457827   -0.0240787    0.2839376    0.7920069    0.5404670
   0.0421043   -0.0460739   -0.0236465    0.4289323    0.6198057    0.6571590
   0.0382385   -0.0461411   -0.0233519   -0.3563460    0.8298778    0.4293254
   0.0374992   -0.0466346   -0.0234900   -0.5631045    0.4678076    0.6812263
   0.0353780   -0.0480507   -0.0257559   -0.9461961    0.3107160    0.0903802
   0.0356568   -0.0477030   -0.0251043   -0.8915988    0.3806548    0.2452623
   0.0361532   -0.0471108   -0.0246389   -0.7770645    0.3163631    0.5441370
   0.0367409   -0.0471825   -0.0239160   -0.6973484    0.2061818    0.6864360
   0.0436182   -0.0457492   -0.0330086    0.7541741    0.2245472   -0.6170899
   0.0437790   -0.0462628   -0.0329416    0.8091530    0.0744895   -0.5828574
   0.0441297   -0.0458682   -0.0322772    0.8459486    0.1747838   -0.5038072
   0.0431662   -0.0452435   -0.0332794    0.6288190    0.3312336   -0.7034707
   0.0426882   -0.0444939   -0.0332034    0.5586886    0.5335970   -0.6349341
   0.0418528   -0.0443737   -0.0337180    0.3862089    0.5683256   -0.7265319
   0.0379906   -0.0448167   -0.0338360   -0.1864170    0.6144467   -0.7666185
   0.0394430   -0.0448590   -0.0341490   -0.2298527    0.5724041   -0.7870967
   0.0385009   -0.0446297   -0.0337110   -0.1608569    0.6294139   -0.7602389
   0.0405330   -0.0445576   -0.0341888    0.0497857    0.5686244   -0.8210893
   0.0400202   -0.0446752   -0.0342422   -0.1781420    0.5731016   -0.7998874
   0.0363721   -0.0451391   -0.0318704   -0.9178952    0.3823018   -0.1063656
   0.0362836   -0.0456416   -0.0304645   -0.8922809    0.4501794    0.0342530
   0.0364573   -0.0450694   -0.0307813   -0.8726531    0.4736879    0.1187282
   0.0363569   -0.0455537   -0.0325711   -0.8947280    0.3424072   -0.2867389
   0.0362324   -0.0456550   -0.0296645   -0.8120230    0.5835619   -0.0086131
   0.0359236   -0.0458337   -0.0278417   -0.7739802    0.6314227    0.0475406
   0.0361187   -0.0456221   -0.0283065   -0.4426761    0.8963534    0.0242605
   0.0358252   -0.0470794   -0.0254002   -0.8935696    0.3433327    0.2892336
   0.0359351   -0.0462622   -0.0261467   -0.8306668    0.5074821    0.2290296
   0.0367763   -0.0448253   -0.0328453   -0.7512554    0.4936474   -0.4380955
   0.0373966   -0.0446111   -0.0333445   -0.4531113    0.6869470   -0.5681496
   0.0446813   -0.0455833   -0.0311394    0.8676081    0.3165745   -0.3834538
   0.0443815   -0.0459652   -0.0318030    0.8575526    0.2001371   -0.4738656
   0.0448778   -0.0443143   -0.0285059    0.9444850    0.3269783   -0.0321437
   0.0449604   -0.0450650   -0.0293509    0.9627773    0.2438968   -0.1165084
   0.0446977   -0.0444221   -0.0298697    0.8986411    0.3397318   -0.2775365
   0.0444840   -0.0447245   -0.0306986    0.8138068    0.4642942   -0.3494987
   0.0444963   -0.0459255   -0.0259216    0.8152286    0.1176286    0.5670677
   0.0446904   -0.0456370   -0.0263552    0.8845540    0.2248914    0.4086418
   0.0445596   -0.0447679   -0.0267936    0.6253549    0.6290000    0.4618335
   0.0400507   -0.0459105   -0.0231423    0.0678226    0.9583546    0.2774104
   0.0424931   -0.0455431   -0.0245322    0.1665832    0.8369560    0.5213009
   0.0415794   -0.0459459   -0.0235510    0.0036931    0.9253722    0.3790417
   0.0379264   -0.0460244   -0.0238130   -0.3853263    0.8923394    0.2350618
   0.0387378   -0.0459168   -0.0233028   -0.2021945    0.9210893    0.3327340
   0.0369376   -0.0466214   -0.0239720   -0.5764717    0.6758948    0.4591803
   0.0435569   -0.0448442   -0.0325972    0.7198469    0.4543670   -0.5247581
   0.0440310   -0.0449602   -0.0319015    0.8050960    0.3808416   -0.4547308
   0.0413165   -0.0444263   -0.0339743    0.2262467    0.5483690   -0.8050490
   0.0421150   -0.0439625   -0.0331707    0.4473023    0.5994666   -0.6637473
   0.0415660   -0.0438564   -0.0333860    0.3173254    0.6264045   -0.7119846
   0.0410345   -0.0439615   -0.0336514    0.1529282    0.6321453   -0.7596086
   0.0379801   -0.0439211   -0.0328466   -0.3715540    0.7595437   -0.5338923
   0.0389706   -0.0436606   -0.0330909   -0.2875087    0.6041856   -0.7431679
   0.0400080   -0.0442675   -0.0338891   -0.1429361    0.6145135   -0.7758495
   0.0384681   -0.0434940   -0.0326832   -0.4467494    0.7341130   -0.5113639
   0.0365758   -0.0446935   -0.0319743   -0.7910342    0.6100226   -0.0462319
   0.0365553   -0.0451976   -0.0297733   -0.7003745    0.7045523    0.1143749
   0.0367183   -0.0448037   -0.0304284   -0.6210931    0.7078344    0.3364727
   0.0363802   -0.0454140   -0.0290451   -0.5724606    0.8126767    0.1088367
   0.0360225   -0.0465359   -0.0254636   -0.7990872    0.4381739    0.4116591
   0.0362223   -0.0460312   -0.0255431   -0.5472271    0.7869258    0.2851144
   0.0363633   -0.0456593   -0.0264727   -0.2991021    0.9332330    0.1990328
   0.0360708   -0.0457934   -0.0270364   -0.6414639    0.7468334    0.1753965
   0.0370189   -0.0442988   -0.0323856   -0.6918910    0.6696372   -0.2699498
   0.0446929   -0.0442821   -0.0276766    0.6715427    0.6350814    0.3817094
   0.0446563   -0.0439043   -0.0283214    0.6252908    0.7216618    0.2970113
   0.0436388   -0.0441272   -0.0315316    0.7797544    0.4538976   -0.4312309
   0.0445441   -0.0436095   -0.0292612    0.8284587    0.5596307   -0.0216712
   0.0445015   -0.0439254   -0.0299195    0.8155164    0.4691554   -0.3388603
   0.0444146   -0.0452783   -0.0260668    0.6749584    0.4426227    0.5903528
   0.0440887   -0.0447719   -0.0262219    0.2129728    0.8350382    0.5073004
   0.0433602   -0.0460770   -0.0245533    0.6028028    0.4034479    0.6883739
   0.0402339   -0.0457933   -0.0239111    0.0524256    0.9963215    0.0677862
   0.0392465   -0.0457988   -0.0232972   -0.0705956    0.9942163    0.0809338
   0.0410352   -0.0458659   -0.0237405    0.0095224    0.9776258    0.2101361
   0.0417254   -0.0456340   -0.0245052   -0.1282869    0.9663866    0.2227990
   0.0426937   -0.0453613   -0.0250092   -0.0578577    0.9180870    0.3921335
   0.0384304   -0.0458402   -0.0237800   -0.1061712    0.9943469   -0.0014092
   0.0374304   -0.0462990   -0.0238826   -0.4562277    0.7367588    0.4990418
   0.0363516   -0.0465920   -0.0247128   -0.6575705    0.5460234    0.5190949
   0.0368744   -0.0463659   -0.0243974   -0.3836729    0.7737712    0.5040568
   0.0432433   -0.0437796   -0.0318924    0.6858502    0.4669227   -0.5582049
   0.0429566   -0.0439847   -0.0324660    0.6154347    0.5517348   -0.5628756
   0.0420338   -0.0427341   -0.0321696    0.4794594    0.5985281   -0.6417809
   0.0418129   -0.0431552   -0.0326597    0.3774041    0.6053461   -0.7008011
   0.0407111   -0.0424360   -0.0324994    0.0883959    0.7324813   -0.6750240
   0.0394560   -0.0431658   -0.0328821   -0.2912396    0.6366745   -0.7140203
   0.0402050   -0.0428659   -0.0328720   -0.1631192    0.6524084   -0.7401050
   0.0394511   -0.0427818   -0.0324580   -0.4022256    0.7746729   -0.4879512
   0.0389644   -0.0429441   -0.0322664   -0.5035436    0.8484574   -0.1629844
   0.0369023   -0.0443865   -0.0308088   -0.6269467    0.7259041    0.2828447
   0.0370507   -0.0449074   -0.0296970   -0.3278548    0.8713894    0.3649544
   0.0366743   -0.0452988   -0.0284888   -0.2354199    0.9593985    0.1553449
   0.0362641   -0.0455193   -0.0274758   -0.2772914    0.9489497    0.1503460
   0.0373163   -0.0439005   -0.0314479   -0.5712721    0.8147051    0.0995180
   0.0375202   -0.0437751   -0.0319483   -0.5700895    0.8159782   -0.0957993
   0.0441570   -0.0440052   -0.0275198    0.1706190    0.8531308    0.4930081
   0.0440764   -0.0434061   -0.0302081    0.7777699    0.4963183   -0.3856711
   0.0439291   -0.0452228   -0.0255902    0.3042322    0.7213070    0.6222210
   0.0435126   -0.0456743   -0.0249371    0.4195386    0.6472566    0.6364324
   0.0439915   -0.0443651   -0.0268505    0.1318771    0.8630675    0.4875684
   0.0404024   -0.0458013   -0.0249966   -0.1356635    0.9881631    0.0716175
   0.0407060   -0.0458078   -0.0244903   -0.0728773    0.9927353    0.0957369
   0.0412415   -0.0457643   -0.0242504   -0.1393867    0.9751701    0.1720891
   0.0431178   -0.0450039   -0.0257010   -0.1733571    0.9094318    0.3779963
   0.0389444   -0.0458085   -0.0238099    0.0076675    0.9986777   -0.0508335
   0.0381340   -0.0459344   -0.0243278   -0.2515783    0.9533169    0.1670185
   0.0388648   -0.0459667   -0.0249360   -0.0004954    0.9982343   -0.0593979
   0.0382790   -0.0459181   -0.0256684    0.1447587    0.9889317    0.0325426
   0.0364673   -0.0461173   -0.0250641   -0.3513659    0.8281305    0.4367400
   0.0373342   -0.0460238   -0.0246758   -0.2064376    0.8761719    0.4355528
   0.0432072   -0.0431689   -0.0315566    0.7702749    0.4227340   -0.4774647
   0.0429051   -0.0426416   -0.0314035    0.5743396    0.6763331   -0.4612023
   0.0415129   -0.0421638   -0.0318955    0.2414674    0.8946546   -0.3758812
   0.0420504   -0.0423442   -0.0317459    0.3452151    0.8395107   -0.4195812
   0.0407145   -0.0420754   -0.0320026   -0.1487539    0.9685752   -0.1993350
   0.0399434   -0.0424955   -0.0324331   -0.3496128    0.8610889   -0.3691839
   0.0382374   -0.0432891   -0.0320782   -0.5327524    0.8378899   -0.1188082
   0.0372084   -0.0444359   -0.0303204   -0.3146714    0.7844402    0.5344488
   0.0371876   -0.0452515   -0.0285124   -0.0631143    0.9664430    0.2490072
   0.0375880   -0.0448891   -0.0294674   -0.1541904    0.9009368    0.4056330
   0.0370031   -0.0453308   -0.0277278   -0.0072054    0.9911485    0.1325621
   0.0364118   -0.0457005   -0.0259590   -0.4439015    0.8765867    0.1858689
   0.0376532   -0.0456423   -0.0265727    0.2254563    0.9660138    0.1264389
   0.0370543   -0.0454366   -0.0272412    0.0561780    0.9763322    0.2088528
   0.0435831   -0.0438142   -0.0279288   -0.1515244    0.8563079    0.4937379
   0.0442942   -0.0435591   -0.0284188    0.2801300    0.8610401    0.4244256
   0.0434736   -0.0428513   -0.0307347    0.6583480    0.7143802   -0.2371472
   0.0438121   -0.0430073   -0.0300249    0.4907346    0.8678476   -0.0775889
   0.0441552   -0.0431941   -0.0295950    0.5094119    0.8555322    0.0925429
   0.0442057   -0.0432649   -0.0290934    0.6215185    0.7450659    0.2420570
   0.0435100   -0.0445273   -0.0266091   -0.2131026    0.8870327    0.4095854
   0.0387742   -0.0459434   -0.0259870   -0.0161986    0.9947458    0.1010860
   0.0400777   -0.0458198   -0.0257786   -0.1890530    0.9741325    0.1237934
   0.0422756   -0.0449996   -0.0264305   -0.2818202    0.9172153    0.2815911
   0.0380506   -0.0458558   -0.0261584    0.2184482    0.9708816    0.0983330
   0.0372341   -0.0457545   -0.0255155   -0.0128506    0.9776100    0.2100322
   0.0423562   -0.0421905   -0.0311754    0.2304668    0.9704024   -0.0721401
   0.0402045   -0.0422255   -0.0320784   -0.3513280    0.9245915   -0.1473061
   0.0378130   -0.0436306   -0.0313801   -0.3940490    0.8441682    0.3634631
   0.0387540   -0.0429693   -0.0317247   -0.4874504    0.8148334    0.3137492
   0.0392261   -0.0426767   -0.0319128   -0.4875232    0.8655468    0.1146731
   0.0376184   -0.0438949   -0.0309368   -0.3175808    0.8347320    0.4498498
   0.0377503   -0.0444749   -0.0301141   -0.1512693    0.8172609    0.5560596
   0.0381901   -0.0440453   -0.0305113   -0.1967488    0.7642171    0.6142167
   0.0381570   -0.0449943   -0.0290230   -0.1261308    0.9309879    0.3425676
   0.0377578   -0.0453725   -0.0280747    0.0310682    0.9678454    0.2496198
   0.0388927   -0.0447621   -0.0292573   -0.1615760    0.8970007    0.4114401
   0.0381791   -0.0457774   -0.0266713    0.0869344    0.9673708    0.2379833
   0.0424718   -0.0447625   -0.0268849   -0.3133889    0.8691231    0.3826386
   0.0430193   -0.0437887   -0.0284057   -0.4037063    0.7968696    0.4494665
   0.0433943   -0.0430613   -0.0292107   -0.1424491    0.8817224    0.4497486
   0.0437750   -0.0435220   -0.0283605    0.0391967    0.8562817    0.5150197
   0.0432479   -0.0425848   -0.0303411    0.1950848    0.9438198    0.2667325
   0.0392625   -0.0458664   -0.0262634   -0.0659415    0.9811376    0.1817163
   0.0400026   -0.0457025   -0.0265258   -0.2571998    0.9227896    0.2868929
   0.0412104   -0.0451646   -0.0269425   -0.2838797    0.8857459    0.3672417
   0.0404797   -0.0454699   -0.0267384   -0.2885509    0.8887223    0.3562458
   0.0429313   -0.0423934   -0.0307713    0.3135148    0.9474468    0.0636629
   0.0418089   -0.0420673   -0.0313467    0.0438815    0.9638393    0.2628465
   0.0410301   -0.0420116   -0.0312597   -0.1521437    0.8919261    0.4258170
   0.0424057   -0.0422606   -0.0306737   -0.0480996    0.9030271    0.4268824
   0.0404964   -0.0420695   -0.0315058   -0.4095253    0.8224667    0.3947626
   0.0383374   -0.0435145   -0.0311824   -0.3359601    0.7583067    0.5586607
   0.0397228   -0.0424070   -0.0318451   -0.4629547    0.8603399    0.2132795
   0.0385160   -0.0443716   -0.0301364   -0.1346322    0.7761094    0.6160587
   0.0391347   -0.0434452   -0.0308812   -0.2910720    0.6817609    0.6711774
   0.0386663   -0.0456864   -0.0269421   -0.0372022    0.9414871    0.3349896
   0.0390551   -0.0443740   -0.0299150   -0.2534501    0.7734460    0.5809856
   0.0404410   -0.0444471   -0.0289915   -0.2532335    0.8330646    0.4918091
   0.0394677   -0.0457507   -0.0267677   -0.1362078    0.9356798    0.3255007
   0.0416574   -0.0448248   -0.0273762   -0.2825651    0.8789856    0.3841110
   0.0421338   -0.0445874   -0.0275869   -0.3275629    0.8589164    0.3936561
   0.0426783   -0.0435571   -0.0290847   -0.3897325    0.7605735    0.5192654
   0.0430801   -0.0428929   -0.0296505   -0.2567118    0.7725572    0.5807362
   0.0403942   -0.0452124   -0.0274283   -0.2753548    0.8816172    0.3833157
   0.0415408   -0.0444487   -0.0282826   -0.2909259    0.8582727    0.4227648
   0.0416077   -0.0422335   -0.0308633   -0.2159557    0.6637177    0.7161299
   0.0427234   -0.0424658   -0.0302492   -0.1440280    0.7774494    0.6122323
   0.0400285   -0.0424410   -0.0313501   -0.4233546    0.6939797    0.5823770
   0.0410316   -0.0434474   -0.0299715   -0.2867001    0.6695157    0.6852385
   0.0401430   -0.0432365   -0.0306132   -0.3344749    0.6266836    0.7038425
   0.0413781   -0.0438450   -0.0294497   -0.2478688    0.7517627    0.6110761
   0.0405308   -0.0447593   -0.0283242   -0.2460595    0.8730789    0.4209369
   0.0420205   -0.0437083   -0.0293585   -0.3085892    0.7534950    0.5805325
