NORM_ASCII
1279 2588
  -0.0058640   -0.0805876   -0.0175352    0.8270438    0.5408549   -0.1532142
  -0.0064913   -0.0796677   -0.0177084    0.7470728    0.6199770   -0.2398139
  -0.0091965   -0.0824771   -0.0268559   -0.2388052    0.9332812   -0.2682504
  -0.0106525   -0.0786753   -0.0091682    0.0083186   -0.8282889    0.5602395
  -0.0115768   -0.0786366   -0.0093030   -0.2019019   -0.8308103    0.5186424
  -0.0086294   -0.0779953   -0.0088689    0.3625525   -0.7135845    0.5994605
  -0.0056107   -0.0795507   -0.0133717    0.9336521   -0.1177742    0.3382648
  -0.0060212   -0.0789592   -0.0122114    0.8138415   -0.3559703    0.4592899
  -0.0067898   -0.0782671   -0.0106251    0.6542674   -0.5171673    0.5517900
  -0.0081963   -0.0772094   -0.0082849    0.4576240   -0.6624223    0.5931079
  -0.0071894   -0.0772509   -0.0092191    0.6016437   -0.5611304    0.5684694
  -0.0113392   -0.0807928   -0.0131721   -0.5200375   -0.7742526    0.3606854
  -0.0113199   -0.0803910   -0.0123693   -0.5257553   -0.7731614    0.3546869
  -0.0114880   -0.0799648   -0.0116075   -0.5063321   -0.7794475    0.3689029
  -0.0121515   -0.0787063   -0.0098612   -0.4968794   -0.7716533    0.3970669
  -0.0124750   -0.0796250   -0.0141135   -0.8631830   -0.4948044    0.1004175
  -0.0122146   -0.0796472   -0.0124499   -0.7831434   -0.5996772    0.1645411
  -0.0118176   -0.0799756   -0.0121759   -0.6173542   -0.7254393    0.3043214
  -0.0123788   -0.0775251   -0.0182570   -0.8160499    0.3389377   -0.4681707
  -0.0129620   -0.0786427   -0.0148526   -0.9439537   -0.3275331   -0.0409083
  -0.0130850   -0.0780745   -0.0152617   -0.9750563   -0.1579631   -0.1559258
  -0.0132658   -0.0777530   -0.0144263   -0.9697812   -0.1914121   -0.1512805
  -0.0125788   -0.0762801   -0.0169885   -0.6634109    0.5111522   -0.5464516
  -0.0130114   -0.0757560   -0.0157852   -0.9035944    0.2183795   -0.3685478
  -0.0134900   -0.0758940   -0.0141265   -0.9636197   -0.0306980   -0.2655082
  -0.0135056   -0.0752815   -0.0140140   -0.9470352    0.0974890   -0.3059742
  -0.0127110   -0.0791696   -0.0139174   -0.8864877   -0.4591885    0.0573189
  -0.0049989   -0.0807738   -0.0162282    0.8823213    0.4205387   -0.2113203
  -0.0053569   -0.0798810   -0.0141923    0.9573576    0.2847487    0.0488332
  -0.0078037   -0.0785995   -0.0180628    0.5455239    0.7616401   -0.3497257
  -0.0111360   -0.0789066   -0.0209298   -0.1971904    0.7145247   -0.6712454
  -0.0107570   -0.0777866   -0.0195072    0.3306507    0.7565111   -0.5642349
  -0.0106958   -0.0768814   -0.0174324    0.5850658    0.7366572   -0.3391670
  -0.0077006   -0.0782879   -0.0171880    0.5218907    0.7695840   -0.3679274
  -0.0089051   -0.0772054   -0.0164594    0.4477285    0.7968714   -0.4056293
  -0.0067761   -0.0792522   -0.0174888    0.6644423    0.6801807   -0.3096297
  -0.0060195   -0.0800857   -0.0168226    0.7292812    0.5869022   -0.3517026
  -0.0098713   -0.0780736   -0.0084187    0.0972112   -0.8219379    0.5612202
  -0.0108254   -0.0781768   -0.0084574   -0.0064938   -0.8248960    0.5652473
  -0.0094689   -0.0777172   -0.0080796    0.2984180   -0.7564893    0.5819542
  -0.0116106   -0.0779233   -0.0081849   -0.1822218   -0.8305542    0.5262841
  -0.0057172   -0.0788696   -0.0127777    0.9811424    0.1319241    0.1412643
  -0.0058797   -0.0783665   -0.0120680    0.9834061    0.0474131    0.1751124
  -0.0060535   -0.0782880   -0.0116042    0.8191935   -0.3416276    0.4606655
  -0.0074013   -0.0767570   -0.0085068    0.6187994   -0.5627390    0.5480986
  -0.0080329   -0.0765488   -0.0076460    0.4793200   -0.6855436    0.5479801
  -0.0065510   -0.0770180   -0.0098455    0.8572583   -0.2877187    0.4269967
  -0.0070379   -0.0767996   -0.0089752    0.7524316   -0.4166326    0.5101608
  -0.0062362   -0.0773555   -0.0106529    0.9004795   -0.2138070    0.3787127
  -0.0067773   -0.0776004   -0.0100069    0.7147829   -0.4479574    0.5370471
  -0.0120603   -0.0796317   -0.0119033   -0.6501465   -0.7073531    0.2774187
  -0.0124764   -0.0786960   -0.0104443   -0.7036582   -0.6688436    0.2398194
  -0.0121003   -0.0778208   -0.0083114   -0.3661560   -0.8108993    0.4564779
  -0.0126256   -0.0778690   -0.0088793   -0.5556104   -0.7486742    0.3616408
  -0.0129430   -0.0778229   -0.0094871   -0.7248109   -0.6517374    0.2233550
  -0.0127214   -0.0783422   -0.0101799   -0.7547662   -0.6215458    0.2097826
  -0.0128564   -0.0787154   -0.0126333   -0.8582801   -0.5075840    0.0755891
  -0.0124007   -0.0792101   -0.0116961   -0.7740707   -0.6086502    0.1742398
  -0.0115507   -0.0784472   -0.0202187   -0.5306909    0.6015857   -0.5970443
  -0.0118031   -0.0779531   -0.0195134   -0.4638347    0.6243024   -0.6285729
  -0.0123134   -0.0766816   -0.0177582   -0.5163034    0.6152678   -0.5957150
  -0.0119742   -0.0767802   -0.0181884   -0.3989061    0.6748403   -0.6208578
  -0.0131136   -0.0783250   -0.0140116   -0.9313597   -0.3632379   -0.0250474
  -0.0129564   -0.0749103   -0.0152860   -0.7323009    0.4479015   -0.5129519
  -0.0136105   -0.0768013   -0.0135102   -0.9691531   -0.1695927   -0.1788311
  -0.0139871   -0.0746240   -0.0123677   -0.9594070   -0.0030915   -0.2820083
  -0.0133693   -0.0743184   -0.0141260   -0.8467961    0.3186093   -0.4259396
  -0.0052617   -0.0802540   -0.0160793    0.6460720    0.6553639   -0.3912661
  -0.0052622   -0.0797660   -0.0148016    0.8748444    0.4660732   -0.1319966
  -0.0111314   -0.0780116   -0.0199342   -0.0545748    0.7433501   -0.6666725
  -0.0110581   -0.0774491   -0.0192377   -0.0204777    0.7638631   -0.6450534
  -0.0107927   -0.0770820   -0.0183815    0.6941290    0.6518327   -0.3054490
  -0.0079662   -0.0777719   -0.0164988    0.5474141    0.7558267   -0.3592545
  -0.0092112   -0.0768922   -0.0161738    0.4217939    0.7792806   -0.4634777
  -0.0110900   -0.0767050   -0.0181386    0.3176214    0.8012632   -0.5070443
  -0.0112649   -0.0762365   -0.0174051    0.0982960    0.8441847   -0.5269631
  -0.0111241   -0.0757989   -0.0160744    0.5665964    0.7110544   -0.4163774
  -0.0115316   -0.0759260   -0.0171138    0.4938537    0.7726293   -0.3989392
  -0.0101736   -0.0757834   -0.0151278    0.4121639    0.7574570   -0.5063396
  -0.0055497   -0.0798553   -0.0158507    0.5220764    0.7418148   -0.4208885
  -0.0064738   -0.0793702   -0.0168336    0.8021295    0.5498499   -0.2329238
  -0.0101319   -0.0773305   -0.0073465    0.1545418   -0.8110419    0.5642055
  -0.0107013   -0.0771591   -0.0069908    0.0250203   -0.8306437    0.5562418
  -0.0092357   -0.0768430   -0.0070417    0.3342112   -0.7618317    0.5549012
  -0.0082983   -0.0761600   -0.0068669    0.4815202   -0.7163289    0.5049863
  -0.0115609   -0.0774741   -0.0074121   -0.1260560   -0.8371170    0.5323016
  -0.0068250   -0.0762369   -0.0088024    0.8258240   -0.3427061    0.4478473
  -0.0070039   -0.0757644   -0.0080709    0.7671413   -0.4778230    0.4279945
  -0.0078134   -0.0761496   -0.0073575    0.5938560   -0.6244274    0.5073711
  -0.0064241   -0.0764229   -0.0097043    0.9827887    0.0555703    0.1761771
  -0.0059981   -0.0776843   -0.0114774    0.9625835    0.2709329   -0.0053240
  -0.0131293   -0.0779802   -0.0110176   -0.8306628   -0.5442261    0.1175470
  -0.0131866   -0.0767851   -0.0075390   -0.5985206   -0.7245864    0.3416836
  -0.0125078   -0.0766678   -0.0064632   -0.3133470   -0.8289823    0.4632515
  -0.0132181   -0.0771482   -0.0083688   -0.7038584   -0.6622217    0.2569937
  -0.0135083   -0.0769734   -0.0090636   -0.8281880   -0.5443483    0.1333774
  -0.0136264   -0.0770088   -0.0101302   -0.8494963   -0.5182576    0.0988182
  -0.0134121   -0.0773914   -0.0103805   -0.8378098   -0.5341848    0.1127891
  -0.0134331   -0.0775604   -0.0129607   -0.9249094   -0.3789072   -0.0311778
  -0.0131640   -0.0780901   -0.0120231   -0.8822147   -0.4689914    0.0417640
  -0.0116960   -0.0769444   -0.0185829   -0.1912035    0.7467943   -0.6369769
  -0.0116932   -0.0763889   -0.0178884   -0.2218687    0.7735978   -0.5935661
  -0.0125423   -0.0752317   -0.0160937   -0.3306919    0.7201721   -0.6099139
  -0.0127944   -0.0744483   -0.0150480   -0.4236322    0.6525613   -0.6282512
  -0.0136645   -0.0769213   -0.0128921   -0.9649841   -0.2222938   -0.1392520
  -0.0141880   -0.0750954   -0.0115248   -0.9753844   -0.1071682   -0.1927179
  -0.0143818   -0.0745883   -0.0108208   -0.9737307   -0.1355014   -0.1829972
  -0.0139997   -0.0759706   -0.0119729   -0.9726196   -0.1552917   -0.1729037
  -0.0135553   -0.0738125   -0.0134211   -0.8262430    0.3146089   -0.4672726
  -0.0138323   -0.0734792   -0.0126054   -0.8927560    0.1733910   -0.4158392
  -0.0143515   -0.0732437   -0.0112117   -0.9362177    0.0453585   -0.3484809
  -0.0140790   -0.0734990   -0.0119094   -0.9199362    0.1053697   -0.3776434
  -0.0146017   -0.0738934   -0.0102503   -0.9656512   -0.1238636   -0.2284195
  -0.0056013   -0.0792255   -0.0146745    0.7478208    0.6146932   -0.2508313
  -0.0075824   -0.0777615   -0.0159205    0.6372582    0.6968613   -0.3290688
  -0.0066470   -0.0788714   -0.0161207    0.7801385    0.5797817   -0.2350257
  -0.0113711   -0.0771682   -0.0189289   -0.0359863    0.7681490   -0.6392591
  -0.0116162   -0.0752637   -0.0159656    0.3476889    0.7980086   -0.4922344
  -0.0105846   -0.0750232   -0.0143932    0.4590001    0.7271679   -0.5104368
  -0.0115730   -0.0749273   -0.0151828    0.5747744    0.6987523   -0.4258868
  -0.0062765   -0.0793256   -0.0157634    0.7125852    0.6518006   -0.2595735
  -0.0063288   -0.0793793   -0.0162709    0.7602699    0.5918280   -0.2678234
  -0.0059011   -0.0788826   -0.0144091    0.6138083    0.7037773   -0.3576827
  -0.0061105   -0.0790505   -0.0148570    0.4822831    0.7757732   -0.4069139
  -0.0093511   -0.0758551   -0.0055825    0.3126825   -0.8037607    0.5061605
  -0.0099301   -0.0755452   -0.0047873    0.1958591   -0.8359506    0.5126654
  -0.0112583   -0.0762332   -0.0055411    0.0603352   -0.8616166    0.5039607
  -0.0121846   -0.0758122   -0.0048623   -0.2039429   -0.8491208    0.4872382
  -0.0079152   -0.0751701   -0.0058919    0.6339060   -0.6574776    0.4072916
  -0.0088459   -0.0756716   -0.0056522    0.4193621   -0.7761538    0.4708724
  -0.0076498   -0.0755025   -0.0067108    0.6369594   -0.6287355    0.4460655
  -0.0054604   -0.0792581   -0.0140984    0.9268970    0.3717664   -0.0514951
  -0.0056169   -0.0787552   -0.0133863    0.7796753    0.5782576   -0.2402593
  -0.0057928   -0.0782500   -0.0126784    0.8492521    0.4884815   -0.2003915
  -0.0066828   -0.0756659   -0.0086419    0.9664160   -0.1283667    0.2226255
  -0.0072544   -0.0751826   -0.0068877    0.7337039   -0.5471629    0.4028540
  -0.0067344   -0.0745085   -0.0072942    0.8871785   -0.3850361    0.2542864
  -0.0062273   -0.0767462   -0.0105358    0.9574495    0.2841213   -0.0506512
  -0.0136314   -0.0771233   -0.0111317   -0.8958539   -0.4426088    0.0392834
  -0.0137791   -0.0754955   -0.0058050   -0.6310076   -0.7163403    0.2978020
  -0.0138435   -0.0760856   -0.0075608   -0.7942001   -0.5781974    0.1869060
  -0.0140564   -0.0755762   -0.0068613   -0.8002745   -0.5771264    0.1627447
  -0.0127751   -0.0759562   -0.0053701   -0.4305086   -0.8140191    0.3899169
  -0.0138459   -0.0764985   -0.0094315   -0.8807924   -0.4683062    0.0699578
  -0.0142817   -0.0755351   -0.0085325   -0.9189775   -0.3934511    0.0260108
  -0.0145595   -0.0747760   -0.0074742   -0.8891035   -0.4552771    0.0470917
  -0.0139393   -0.0763611   -0.0100769   -0.9086503   -0.4172860    0.0150715
  -0.0134908   -0.0774393   -0.0119741   -0.9039704   -0.4275945    0.0006078
  -0.0119466   -0.0756328   -0.0168252   -0.0897055    0.7924997   -0.6032389
  -0.0123736   -0.0748790   -0.0157808   -0.0560870    0.7799675   -0.6233017
  -0.0126164   -0.0740508   -0.0147655    0.0159035    0.7698422   -0.6380361
  -0.0129213   -0.0735787   -0.0140483   -0.2635585    0.7343729   -0.6254865
  -0.0138355   -0.0766014   -0.0120554   -0.9485566   -0.3106408   -0.0611775
  -0.0141304   -0.0758404   -0.0110012   -0.9567884   -0.2835798   -0.0643311
  -0.0145139   -0.0748261   -0.0095913   -0.9631556   -0.2496491   -0.1000327
  -0.0131480   -0.0730679   -0.0133523   -0.4514782    0.5550501   -0.6986321
  -0.0134995   -0.0729669   -0.0129220   -0.7463633    0.3569495   -0.5617195
  -0.0139166   -0.0721907   -0.0118924   -0.8723330    0.1823054   -0.4536517
  -0.0136467   -0.0722809   -0.0123369   -0.7276868    0.3380085   -0.5968435
  -0.0141164   -0.0721083   -0.0114318   -0.9049798    0.1264023   -0.4062437
  -0.0147991   -0.0730162   -0.0098017   -0.9504542   -0.0433741   -0.3078237
  -0.0146930   -0.0739812   -0.0096605   -0.9619694   -0.2029403   -0.1828388
  -0.0150748   -0.0726704   -0.0089664   -0.9599102   -0.1196879   -0.2534705
  -0.0075788   -0.0773349   -0.0151393    0.6613975    0.6627714   -0.3511231
  -0.0072932   -0.0777463   -0.0153585    0.7933363    0.5578229   -0.2438258
  -0.0091282   -0.0764772   -0.0153744    0.4720290    0.7602937   -0.4462535
  -0.0119983   -0.0746496   -0.0153558    0.4601294    0.7442235   -0.4841614
  -0.0079632   -0.0762648   -0.0137690    0.4914650    0.7237584   -0.4843924
  -0.0100275   -0.0741642   -0.0127680    0.4725199    0.6880322   -0.5507600
  -0.0120233   -0.0738938   -0.0142651    0.4302098    0.7270864   -0.5350373
  -0.0069750   -0.0777890   -0.0147542    0.7795726    0.5653288   -0.2695737
  -0.0064782   -0.0785786   -0.0146869    0.8126757    0.5400030   -0.2189863
  -0.0063332   -0.0782976   -0.0137863    0.5005515    0.7381075   -0.4523776
  -0.0093975   -0.0751844   -0.0044352    0.2417790   -0.8656514    0.4383955
  -0.0103441   -0.0754366   -0.0043704    0.1902733   -0.8583396    0.4764969
  -0.0120888   -0.0749296   -0.0033064   -0.1338420   -0.8519876    0.5061655
  -0.0113428   -0.0755823   -0.0043840    0.0396913   -0.8715327    0.4887284
  -0.0087940   -0.0752118   -0.0048878    0.4216119   -0.8072792    0.4129694
  -0.0080750   -0.0746976   -0.0048162    0.5952077   -0.7295689    0.3368339
  -0.0056834   -0.0788040   -0.0138990    0.8018241    0.5540080   -0.2239491
  -0.0058458   -0.0783010   -0.0131892    0.6617651    0.6631800   -0.3496560
  -0.0059951   -0.0775801   -0.0120882    0.7421576    0.5966617   -0.3052818
  -0.0074667   -0.0750990   -0.0064306    0.6586491   -0.6193068    0.4273645
  -0.0066047   -0.0748805   -0.0086384    0.9986856    0.0281358   -0.0428419
  -0.0067917   -0.0742023   -0.0064340    0.8061284   -0.5129854    0.2949627
  -0.0065041   -0.0736852   -0.0067618    0.9287738   -0.3469789    0.1303264
  -0.0063280   -0.0763079   -0.0103132    0.9011546    0.4088099   -0.1442046
  -0.0061631   -0.0770562   -0.0113916    0.7600605    0.5777496   -0.2975122
  -0.0136935   -0.0769883   -0.0117720   -0.9253373   -0.3790050   -0.0103016
  -0.0142183   -0.0748475   -0.0052274   -0.7413213   -0.6371925    0.2107805
  -0.0144241   -0.0748623   -0.0063187   -0.8084899   -0.5655014    0.1629483
  -0.0144677   -0.0749149   -0.0068283   -0.8687195   -0.4904343    0.0692864
  -0.0133959   -0.0753687   -0.0047711   -0.5144015   -0.7754642    0.3661234
  -0.0141521   -0.0759079   -0.0098784   -0.9237076   -0.3830919   -0.0022008
  -0.0148044   -0.0739383   -0.0091633   -0.9582067   -0.2542207   -0.1311936
  -0.0149669   -0.0737446   -0.0076977   -0.9306940   -0.3634171   -0.0416743
  -0.0149919   -0.0736157   -0.0083289   -0.9450175   -0.3153403   -0.0866165
  -0.0148764   -0.0740694   -0.0069234   -0.9090262   -0.4158641   -0.0269876
  -0.0122988   -0.0743088   -0.0150875    0.1824201    0.7667867   -0.6154357
  -0.0141150   -0.0710721   -0.0110731   -0.7970549    0.2430183   -0.5528522
  -0.0134972   -0.0715998   -0.0120544   -0.4826365    0.4945888   -0.7228028
  -0.0146851   -0.0724776   -0.0101642   -0.9307407    0.0223180   -0.3649983
  -0.0148564   -0.0723988   -0.0096982   -0.9477844   -0.0225868   -0.3181109
  -0.0148607   -0.0716036   -0.0097124   -0.9150721   -0.0129503   -0.4030823
  -0.0153171   -0.0725395   -0.0080371   -0.9432313   -0.2853699   -0.1699374
  -0.0077822   -0.0761063   -0.0133192    0.6282943    0.6582312   -0.4147023
  -0.0081730   -0.0746596   -0.0116702    0.5713912    0.6546396   -0.4949334
  -0.0095349   -0.0738252   -0.0118688    0.5032189    0.6816724   -0.5311247
  -0.0101049   -0.0729989   -0.0114296    0.5042222    0.6722429   -0.5420788
  -0.0114720   -0.0730157   -0.0126156    0.5153122    0.6414052   -0.5683772
  -0.0106828   -0.0730813   -0.0119785    0.4845279    0.6736573   -0.5580489
  -0.0111365   -0.0736533   -0.0130533    0.4949680    0.6766745   -0.5450856
  -0.0123156   -0.0735159   -0.0140240    0.3467414    0.7601784   -0.5494535
  -0.0119623   -0.0733918   -0.0135300    0.4713951    0.6813818   -0.5599157
  -0.0065790   -0.0779073   -0.0135475    0.7010648    0.6171671   -0.3572296
  -0.0073714   -0.0763680   -0.0130885    0.7575113    0.5642148   -0.3283874
  -0.0074669   -0.0767522   -0.0139119    0.6663652    0.6468229   -0.3709144
  -0.0104905   -0.0747563   -0.0029704    0.0185296   -0.9086700    0.4171037
  -0.0108179   -0.0750900   -0.0035874    0.0579934   -0.8817566    0.4681262
  -0.0089874   -0.0744621   -0.0031648    0.3474741   -0.8652346    0.3614288
  -0.0097614   -0.0746889   -0.0029930    0.2130390   -0.8882279    0.4070203
  -0.0116648   -0.0742548   -0.0021070   -0.0896869   -0.8516343    0.5164062
  -0.0134220   -0.0749422   -0.0039918   -0.3883707   -0.8008396    0.4558773
  -0.0133949   -0.0742751   -0.0028320   -0.3802289   -0.7794818    0.4978294
  -0.0081335   -0.0743043   -0.0038231    0.5418413   -0.7777038    0.3187237
  -0.0084565   -0.0742874   -0.0033311    0.4420236   -0.8240224    0.3544040
  -0.0071278   -0.0737581   -0.0046480    0.6487984   -0.7188896    0.2495162
  -0.0067689   -0.0735910   -0.0050735    0.6904024   -0.6777319    0.2530297
  -0.0074744   -0.0739618   -0.0042736    0.6261078   -0.7324680    0.2673567
  -0.0061067   -0.0776638   -0.0125831    0.5426572    0.7046615   -0.4571382
  -0.0064979   -0.0758037   -0.0096047    0.9552369    0.2864908   -0.0737939
  -0.0065634   -0.0742184   -0.0080164    0.9948229   -0.0626037   -0.0800516
  -0.0065883   -0.0735600   -0.0057787    0.8534988   -0.4989224    0.1503868
  -0.0063720   -0.0732753   -0.0064916    0.9706753   -0.2366396   -0.0423218
  -0.0064280   -0.0766214   -0.0112461    0.7408974    0.5715101   -0.3527709
  -0.0065149   -0.0758586   -0.0101073    0.8262898    0.5076578   -0.2439853
  -0.0148847   -0.0738968   -0.0054264   -0.8609393   -0.5012634    0.0867089
  -0.0148577   -0.0738425   -0.0049207   -0.7993988   -0.5701979    0.1893037
  -0.0141967   -0.0745304   -0.0043666   -0.6911132   -0.6601337    0.2942551
  -0.0152874   -0.0730391   -0.0071467   -0.9292392   -0.3551403   -0.1019305
  -0.0126254   -0.0732188   -0.0137260    0.1598933    0.7353856   -0.6585151
  -0.0127776   -0.0726206   -0.0130799    0.1689462    0.6714548   -0.7215300
  -0.0131562   -0.0719914   -0.0124824   -0.0650536    0.5890344   -0.8054853
  -0.0151424   -0.0709008   -0.0091536   -0.8914676   -0.0550466   -0.4497281
  -0.0154873   -0.0715161   -0.0081764   -0.9265911   -0.1541537   -0.3430242
  -0.0156283   -0.0723293   -0.0066006   -0.9168252   -0.3764000   -0.1332461
  -0.0162829   -0.0709700   -0.0060021   -0.9112912   -0.3624278   -0.1954340
  -0.0158885   -0.0716866   -0.0065376   -0.9129594   -0.3843873   -0.1369366
  -0.0079447   -0.0753006   -0.0122789    0.6206967    0.6516830   -0.4359413
  -0.0081780   -0.0738104   -0.0106437    0.5241436    0.6378867   -0.5642465
  -0.0091231   -0.0731176   -0.0106185    0.5112197    0.6584235   -0.5523883
  -0.0106084   -0.0725157   -0.0112834    0.5017559    0.6587426   -0.5606239
  -0.0113225   -0.0719259   -0.0112365    0.5136219    0.6420380   -0.5691922
  -0.0122325   -0.0720329   -0.0123464    0.4172062    0.6060944   -0.6771917
  -0.0119265   -0.0717384   -0.0116533    0.6207267    0.5657337   -0.5428110
  -0.0067172   -0.0773981   -0.0129655    0.8021719    0.5156465   -0.3010465
  -0.0068767   -0.0766787   -0.0122766    0.8430880    0.4548565   -0.2868940
  -0.0072332   -0.0759984   -0.0122500    0.7784127    0.5311727   -0.3345584
  -0.0106406   -0.0744808   -0.0023709    0.0399205   -0.8832393    0.4672202
  -0.0112923   -0.0740400   -0.0016740   -0.1025283   -0.8565686    0.5057452
  -0.0091370   -0.0743141   -0.0025836    0.3036649   -0.8716961    0.3846212
  -0.0086862   -0.0740577   -0.0024403    0.4083633   -0.8440000    0.3477116
  -0.0128379   -0.0734167   -0.0012066   -0.2296983   -0.7840715    0.5766026
  -0.0140286   -0.0744412   -0.0038702   -0.6201908   -0.6955047    0.3628176
  -0.0135248   -0.0731680   -0.0013033   -0.4846165   -0.6580294    0.5763194
  -0.0079995   -0.0735854   -0.0022533    0.5121515   -0.7873875    0.3431062
  -0.0075610   -0.0734656   -0.0027212    0.5793301   -0.7456827    0.3291414
  -0.0074655   -0.0736406   -0.0033642    0.5920677   -0.7569386    0.2765859
  -0.0064088   -0.0730782   -0.0045558    0.7499529   -0.6565587    0.0806313
  -0.0070899   -0.0731544   -0.0028812    0.6181926   -0.7390813    0.2675756
  -0.0067677   -0.0766082   -0.0117744    0.7603635    0.5456631   -0.3522770
  -0.0067056   -0.0754089   -0.0099020    0.8391342    0.4479076   -0.3085977
  -0.0066885   -0.0749292   -0.0091542    0.9250284    0.2891954   -0.2463503
  -0.0067744   -0.0740921   -0.0087282    0.8969356    0.2651367   -0.3538489
  -0.0062002   -0.0728133   -0.0057140    0.8930000   -0.4492346   -0.0271917
  -0.0066540   -0.0758986   -0.0106347    0.7520623    0.5656008   -0.3383757
  -0.0158527   -0.0720726   -0.0046470   -0.8712886   -0.4886302    0.0457896
  -0.0156997   -0.0723905   -0.0054878   -0.8880295   -0.4597865    0.0000182
  -0.0154907   -0.0727145   -0.0046975   -0.8601706   -0.5005996    0.0975018
  -0.0151349   -0.0732382   -0.0042938   -0.8421805   -0.5218816    0.1355420
  -0.0144530   -0.0737662   -0.0033091   -0.7061748   -0.6422495    0.2980482
  -0.0149610   -0.0732895   -0.0036994   -0.7942990   -0.5630374    0.2282062
  -0.0161013   -0.0715455   -0.0055801   -0.9024520   -0.4196091   -0.0975119
  -0.0126159   -0.0722700   -0.0127401    0.1810636    0.6491440   -0.7388017
  -0.0149280   -0.0695793   -0.0095082   -0.8344593    0.0451930   -0.5492133
  -0.0140050   -0.0704752   -0.0109356   -0.6231978    0.3162298   -0.7152785
  -0.0135570   -0.0705876   -0.0113447   -0.3292194    0.4761409   -0.8154167
  -0.0129147   -0.0711503   -0.0119587    0.2813553    0.6160071   -0.7357815
  -0.0155364   -0.0705532   -0.0083618   -0.8946897   -0.0778955   -0.4398439
  -0.0158359   -0.0710126   -0.0075385   -0.9119000   -0.2271529   -0.3418185
  -0.0161988   -0.0708534   -0.0066127   -0.9160171   -0.2822894   -0.2850007
  -0.0165127   -0.0705151   -0.0058034   -0.9285339   -0.3078941   -0.2074270
  -0.0074576   -0.0753373   -0.0117331    0.6829538    0.5902250   -0.4303587
  -0.0073920   -0.0739614   -0.0100037    0.6450629    0.5682334   -0.5108861
  -0.0078112   -0.0737170   -0.0102032    0.5321222    0.6343886   -0.5607112
  -0.0084674   -0.0725429   -0.0093988    0.4881977    0.6402008   -0.5931323
  -0.0107469   -0.0718529   -0.0106817    0.4815733    0.6574790   -0.5794899
  -0.0104591   -0.0713788   -0.0098975    0.5275460    0.6147764   -0.5862979
  -0.0094697   -0.0715557   -0.0091229    0.5177334    0.6278096   -0.5812119
  -0.0111879   -0.0716424   -0.0108052    0.5402659    0.6200084   -0.5689485
  -0.0123731   -0.0709759   -0.0114791    0.5516652    0.5740665   -0.6050729
  -0.0120808   -0.0708864   -0.0109684    0.6746108    0.5158590   -0.5280055
  -0.0102658   -0.0742542   -0.0019469    0.0825599   -0.8714769    0.4834376
  -0.0110051   -0.0735688   -0.0008885   -0.0692781   -0.7560726    0.6508108
  -0.0093278   -0.0740448   -0.0018332    0.2671964   -0.8724019    0.4092932
  -0.0083964   -0.0735752   -0.0016634    0.4181011   -0.8205227    0.3897871
  -0.0115850   -0.0731123   -0.0004587   -0.1578354   -0.6641417    0.7307556
  -0.0127288   -0.0729493   -0.0006559   -0.3024563   -0.6572153    0.6903537
  -0.0141235   -0.0737534   -0.0027395   -0.5787913   -0.6880901    0.4376444
  -0.0141138   -0.0730652   -0.0017874   -0.5609551   -0.6589680    0.5010894
  -0.0139943   -0.0727772   -0.0012979   -0.5802481   -0.6185281    0.5298444
  -0.0132054   -0.0727347   -0.0006447   -0.4557446   -0.6113133    0.6469875
  -0.0083194   -0.0731432   -0.0008756    0.4507927   -0.7342950    0.5075399
  -0.0067641   -0.0732564   -0.0041456    0.5905803   -0.7785739    0.2122204
  -0.0061704   -0.0728296   -0.0040806    0.6711588   -0.7296233    0.1311326
  -0.0058773   -0.0724877   -0.0046754    0.8079139   -0.5868085   -0.0541379
  -0.0071446   -0.0726656   -0.0017400    0.6157718   -0.6762401    0.4043815
  -0.0064601   -0.0728716   -0.0034351    0.6270239   -0.7255925    0.2834725
  -0.0063852   -0.0728495   -0.0073277    0.9319567    0.0243834   -0.3617486
  -0.0068867   -0.0734406   -0.0085936    0.8165011    0.3017068   -0.4922387
  -0.0069623   -0.0746773   -0.0099003    0.8910674    0.3274865   -0.3142476
  -0.0061158   -0.0726966   -0.0063246    0.9350868   -0.3251983   -0.1409211
  -0.0068562   -0.0754205   -0.0103908    0.8501439    0.4240314   -0.3121741
  -0.0072040   -0.0749325   -0.0108304    0.7974794    0.4542265   -0.3971207
  -0.0162906   -0.0712120   -0.0042155   -0.8760792   -0.4769957    0.0704294
  -0.0155729   -0.0724187   -0.0038348   -0.8468058   -0.5026921    0.1738409
  -0.0148161   -0.0730625   -0.0027600   -0.7179373   -0.5896064    0.3700409
  -0.0153855   -0.0724464   -0.0032535   -0.8193023   -0.5142238    0.2536092
  -0.0163375   -0.0712176   -0.0047571   -0.8978792   -0.4368245   -0.0547477
  -0.0144274   -0.0692742   -0.0100780   -0.6044895    0.2671703   -0.7504749
  -0.0151232   -0.0688004   -0.0092098   -0.7892168    0.0600719   -0.6111695
  -0.0155500   -0.0693510   -0.0085774   -0.8767122   -0.0386724   -0.4794582
  -0.0159772   -0.0703843   -0.0074513   -0.9047669   -0.1277276   -0.4063035
  -0.0167287   -0.0703742   -0.0048479   -0.9174631   -0.3812212   -0.1137181
  -0.0163797   -0.0704050   -0.0064060   -0.9199230   -0.1997204   -0.3374218
  -0.0167323   -0.0696934   -0.0058616   -0.9368402   -0.1907582   -0.2931584
  -0.0072699   -0.0736812   -0.0095250    0.6472292    0.5224871   -0.5550690
  -0.0076819   -0.0734586   -0.0097556    0.5110312    0.6668414   -0.5423741
  -0.0073622   -0.0718976   -0.0080540    0.4824791    0.5543291   -0.6781837
  -0.0084814   -0.0715158   -0.0083166    0.4022770    0.6453442   -0.6493875
  -0.0074759   -0.0724934   -0.0086024    0.6630764    0.4557199   -0.5938427
  -0.0102352   -0.0705489   -0.0088315    0.5495756    0.5749251   -0.6061582
  -0.0116053   -0.0704738   -0.0099949    0.5762075    0.5643636   -0.5911672
  -0.0111434   -0.0697739   -0.0089342    0.5625483    0.5548917   -0.6128904
  -0.0111007   -0.0711057   -0.0101625    0.5454990    0.5901633   -0.5950951
  -0.0089617   -0.0711437   -0.0082715    0.4939871    0.6040108   -0.6254180
  -0.0125039   -0.0704483   -0.0111306    0.3781368    0.5531489   -0.7423199
  -0.0099810   -0.0737953   -0.0011523    0.0778047   -0.8574623    0.5086304
  -0.0095939   -0.0735102   -0.0007660    0.1175146   -0.8015288    0.5862950
  -0.0101505   -0.0732796   -0.0004525    0.0160810   -0.6728335    0.7396192
  -0.0090115   -0.0736207   -0.0011629    0.2510660   -0.8426989    0.4762609
  -0.0114389   -0.0726116   -0.0000439   -0.1333256   -0.6068138    0.7835824
  -0.0117363   -0.0721866    0.0002240   -0.1810712   -0.5886837    0.7878228
  -0.0128180   -0.0724490   -0.0002588   -0.2642817   -0.5779090    0.7721246
  -0.0145302   -0.0727447   -0.0018696   -0.6294739   -0.6054195    0.4870624
  -0.0142792   -0.0722883   -0.0010702   -0.5698957   -0.5691877    0.5926586
  -0.0136507   -0.0725073   -0.0007490   -0.5054567   -0.5688356    0.6487986
  -0.0081117   -0.0727428   -0.0005903    0.5841733   -0.5841321    0.5634991
  -0.0087003   -0.0730365   -0.0004536    0.1703532   -0.7010233    0.6924926
  -0.0058768   -0.0724394   -0.0037771    0.8134593   -0.5523882    0.1820751
  -0.0076343   -0.0724037   -0.0007698    0.5955753   -0.5749155    0.5610367
  -0.0064451   -0.0718462   -0.0015585    0.7577773   -0.5052871    0.4128662
  -0.0069982   -0.0722587   -0.0013371    0.6167870   -0.6279864    0.4745597
  -0.0068625   -0.0729598   -0.0082562    0.7773421    0.2540687   -0.5754896
  -0.0061860   -0.0720997   -0.0070810    0.8502248    0.0639906   -0.5225160
  -0.0055664   -0.0719818   -0.0045989    0.9290099   -0.3668074   -0.0489172
  -0.0059175   -0.0715571   -0.0065531    0.8445596    0.0620238   -0.5318573
  -0.0159783   -0.0716517   -0.0036373   -0.8301773   -0.5152662    0.2128530
  -0.0165202   -0.0706547   -0.0035514   -0.8612620   -0.4817624    0.1616563
  -0.0152515   -0.0717555   -0.0018659   -0.7837748   -0.4830638    0.3903159
  -0.0147865   -0.0722870   -0.0016779   -0.6898201   -0.5158178    0.5080160
  -0.0156244   -0.0719947   -0.0032030   -0.8055670   -0.4930892    0.3285192
  -0.0147793   -0.0685887   -0.0095736   -0.6481273    0.2620839   -0.7150126
  -0.0154335   -0.0684229   -0.0087515   -0.8134766    0.1117622   -0.5707583
  -0.0162621   -0.0694973   -0.0070226   -0.9068271   -0.0836832   -0.4131123
  -0.0135734   -0.0689910   -0.0105437   -0.2025211    0.4693183   -0.8594914
  -0.0132122   -0.0700640   -0.0111303   -0.0089646    0.4712913   -0.8819321
  -0.0128747   -0.0706375   -0.0115663    0.1055732    0.6350699   -0.7652062
  -0.0171260   -0.0696572   -0.0043128   -0.9171078   -0.3984676    0.0116949
  -0.0166928   -0.0705058   -0.0042129   -0.8923098   -0.4493132    0.0435984
  -0.0164950   -0.0694113   -0.0065699   -0.9108061   -0.1063027   -0.3989134
  -0.0173395   -0.0690202   -0.0042402   -0.9893097   -0.1278322   -0.0701805
  -0.0170813   -0.0683717   -0.0052005   -0.9385797   -0.0143744   -0.3447631
  -0.0165793   -0.0687720   -0.0064427   -0.9171681   -0.0362763   -0.3968460
  -0.0070919   -0.0724394   -0.0082339    0.6492786    0.4342242   -0.6244090
  -0.0079208   -0.0710740   -0.0076598    0.3429214    0.6139167   -0.7109931
  -0.0067271   -0.0722603   -0.0077765    0.6471572    0.3782314   -0.6619128
  -0.0067882   -0.0716662   -0.0074736    0.5174860    0.4574846   -0.7231294
  -0.0085934   -0.0709477   -0.0078248    0.3966713    0.6225499   -0.6745988
  -0.0089849   -0.0698029   -0.0071149    0.4859552    0.5347865   -0.6912676
  -0.0116755   -0.0687681   -0.0086164    0.6576455    0.4651207   -0.5925919
  -0.0109272   -0.0686874   -0.0078064    0.6136136    0.4981674   -0.6126236
  -0.0100615   -0.0692556   -0.0075174    0.5301869    0.5146262   -0.6738410
  -0.0122380   -0.0687296   -0.0092068    0.7374567    0.4299453   -0.5208692
  -0.0094599   -0.0730180   -0.0003056    0.0643598   -0.6387472    0.7667202
  -0.0099766   -0.0729003   -0.0001565    0.0063859   -0.5948055    0.8038443
  -0.0107311   -0.0725028    0.0000189   -0.0475176   -0.6050004    0.7948060
  -0.0113391   -0.0718544    0.0005789   -0.1141102   -0.5679331    0.8151263
  -0.0122175   -0.0719517    0.0002549   -0.2379170   -0.5344202    0.8110429
  -0.0145368   -0.0717553   -0.0009387   -0.6071103   -0.4659684    0.6436541
  -0.0131010   -0.0720254   -0.0000463   -0.4228368   -0.5408753    0.7270921
  -0.0078722   -0.0719200   -0.0000550    0.4877629   -0.4454660    0.7507645
  -0.0085437   -0.0725694   -0.0000812    0.2980087   -0.5360900    0.7898090
  -0.0057014   -0.0720656   -0.0034788    0.8265771   -0.4799184    0.2940215
  -0.0055711   -0.0716254   -0.0032296    0.9194828   -0.3332924    0.2084889
  -0.0057191   -0.0712760   -0.0024098    0.8950461   -0.2710502    0.3541529
  -0.0065994   -0.0713963   -0.0008097    0.6995462   -0.4405142    0.5626566
  -0.0053156   -0.0712177   -0.0045608    0.9757527   -0.1982345   -0.0927886
  -0.0054563   -0.0711183   -0.0051852    0.9721294   -0.1074278   -0.2083837
  -0.0055479   -0.0708349   -0.0057100    0.9113709    0.1199971   -0.3937053
  -0.0170013   -0.0698002   -0.0036609   -0.8854247   -0.4311487    0.1735911
  -0.0165861   -0.0702724   -0.0029890   -0.8554780   -0.3651410    0.3671914
  -0.0149132   -0.0717614   -0.0013306   -0.7329901   -0.4249539    0.5311682
  -0.0158479   -0.0710480   -0.0022462   -0.8063460   -0.4539126    0.3791693
  -0.0162460   -0.0708155   -0.0028678   -0.8314814   -0.4178240    0.3661445
  -0.0140411   -0.0685818   -0.0100968   -0.3470219    0.4494556   -0.8231436
  -0.0155859   -0.0675520   -0.0082950   -0.7849501    0.2059039   -0.5843432
  -0.0161088   -0.0679835   -0.0075167   -0.8878501    0.0662000   -0.4553457
  -0.0160405   -0.0686020   -0.0076169   -0.9124354   -0.0401495   -0.4072464
  -0.0131027   -0.0691809   -0.0106513    0.2756529    0.5289318   -0.8026498
  -0.0171928   -0.0675061   -0.0047370   -0.9716810    0.0894157   -0.2187255
  -0.0167749   -0.0679135   -0.0060227   -0.9286571    0.0233138   -0.3702060
  -0.0164798   -0.0676910   -0.0066840   -0.8854214    0.1487603   -0.4403401
  -0.0073156   -0.0708618   -0.0071980    0.3391618    0.5848726   -0.7368129
  -0.0083204   -0.0701281   -0.0069430    0.3002935    0.5790233   -0.7579946
  -0.0092607   -0.0692623   -0.0069144    0.4726570    0.4844671   -0.7361297
  -0.0081722   -0.0696279   -0.0065361    0.3047739    0.4951463   -0.8135988
  -0.0086527   -0.0690360   -0.0064624    0.4092600    0.5051766   -0.7598045
  -0.0118775   -0.0670867   -0.0076490    0.7101090    0.4256811   -0.5608394
  -0.0122218   -0.0672647   -0.0081832    0.7470975    0.3648046   -0.5556644
  -0.0109605   -0.0681229   -0.0073630    0.5598954    0.4970022   -0.6629525
  -0.0099416   -0.0685146   -0.0069723    0.4852853    0.5201448   -0.7028141
  -0.0125993   -0.0698151   -0.0106935    0.5789019    0.4667809   -0.6685718
  -0.0127094   -0.0690172   -0.0101813    0.6857402    0.4706110   -0.5552347
  -0.0106981   -0.0713570    0.0009401    0.0375149   -0.4709539    0.8813598
  -0.0093517   -0.0721147    0.0003016    0.0863810   -0.5166480    0.8518293
  -0.0120495   -0.0715143    0.0005813   -0.2717191   -0.2641900    0.9254039
  -0.0129497   -0.0714274    0.0003627   -0.3310185   -0.3883022    0.8600280
  -0.0141417   -0.0717619   -0.0006178   -0.5399709   -0.4892306    0.6848977
  -0.0137671   -0.0715839   -0.0001978   -0.5104933   -0.4969085    0.7017681
  -0.0090356   -0.0726942   -0.0000535    0.0532375   -0.5964271    0.8008998
  -0.0069085   -0.0708753   -0.0001297    0.6721573   -0.2524805    0.6960302
  -0.0054301   -0.0710318   -0.0030846    0.9554201   -0.1828411    0.2318224
  -0.0054964   -0.0703562   -0.0024838    0.9453300   -0.0109062    0.3259328
  -0.0056700   -0.0702779   -0.0020197    0.9113298    0.0208872    0.4111468
  -0.0058874   -0.0708043   -0.0016793    0.8817827   -0.1828409    0.4347741
  -0.0062781   -0.0711980   -0.0012020    0.8085699   -0.2827389    0.5160168
  -0.0064554   -0.0708039   -0.0006662    0.8018837   -0.1846424    0.5682339
  -0.0052384   -0.0704088   -0.0041100    0.9992292   -0.0368894   -0.0134218
  -0.0064434   -0.0711467   -0.0068986    0.4770609    0.4987020   -0.7236776
  -0.0058577   -0.0710257   -0.0063753    0.5932480    0.4439671   -0.6715282
  -0.0053269   -0.0704967   -0.0046915    0.9780071    0.0707470   -0.1962064
  -0.0056841   -0.0703077   -0.0057761    0.6690323    0.3964342   -0.6286778
  -0.0171446   -0.0693563   -0.0034459   -0.8853620   -0.2789344    0.3719271
  -0.0168742   -0.0693329   -0.0028926   -0.8442773   -0.1880684    0.5018228
  -0.0164863   -0.0696346   -0.0023816   -0.8495200   -0.2529961    0.4629349
  -0.0159140   -0.0705497   -0.0019364   -0.8136634   -0.3323668    0.4769530
  -0.0151709   -0.0710618   -0.0011789   -0.7699507   -0.3727935    0.5178812
  -0.0148666   -0.0706769   -0.0004684   -0.6670990   -0.3605012    0.6519338
  -0.0149543   -0.0668600   -0.0087016   -0.5811071    0.3771526   -0.7211591
  -0.0143059   -0.0675363   -0.0094167   -0.3398565    0.4418145   -0.8302394
  -0.0159835   -0.0672038   -0.0075037   -0.8519893    0.2670559   -0.4503282
  -0.0155027   -0.0669516   -0.0081630   -0.7712131    0.3109970   -0.5554379
  -0.0134146   -0.0683854   -0.0101618    0.2439974    0.5820461   -0.7756853
  -0.0135145   -0.0676514   -0.0096956    0.1725699    0.5553103   -0.8135417
  -0.0130186   -0.0696331   -0.0109017    0.2233134    0.4895013   -0.8429233
  -0.0173842   -0.0685316   -0.0035066   -0.9681287    0.0832519    0.2362115
  -0.0169740   -0.0667956   -0.0052052   -0.9408538    0.2951639   -0.1663503
  -0.0167225   -0.0671250   -0.0060244   -0.8758266    0.2114499   -0.4338394
  -0.0087628   -0.0682377   -0.0059503    0.4310612    0.5240929   -0.7345154
  -0.0109906   -0.0669891   -0.0064552    0.6110756    0.5252311   -0.5922152
  -0.0109143   -0.0673855   -0.0067906    0.6085921    0.5165513   -0.6023209
  -0.0129646   -0.0681045   -0.0097655    0.6685193    0.4781523   -0.5696071
  -0.0106444   -0.0678712   -0.0069614    0.5135787    0.5578616   -0.6519413
  -0.0098958   -0.0675910   -0.0061287    0.4794390    0.5646643   -0.6717831
  -0.0091129   -0.0673329   -0.0054252    0.4436853    0.6178605   -0.6491469
  -0.0096926   -0.0714616    0.0007610    0.1615680   -0.4710525    0.8671824
  -0.0111799   -0.0712204    0.0009613   -0.1986224   -0.2862215    0.9373507
  -0.0084092   -0.0714521    0.0004546    0.2997468   -0.3663729    0.8808648
  -0.0125138   -0.0711378    0.0005666   -0.2954298   -0.0570857    0.9536574
  -0.0133963   -0.0711030    0.0002749   -0.4366274   -0.1923045    0.8788490
  -0.0142077   -0.0712773   -0.0003103   -0.5559858   -0.4328574    0.7095874
  -0.0073741   -0.0704795    0.0002965    0.5144874   -0.0208236    0.8572451
  -0.0053071   -0.0700680   -0.0032019    0.9817025   -0.0060604    0.1903247
  -0.0058971   -0.0701920   -0.0015645    0.8872592    0.0120319    0.4611141
  -0.0053248   -0.0693276   -0.0037167    0.9820414    0.1198046    0.1457448
  -0.0053999   -0.0693188   -0.0042724    0.9518369    0.2350155   -0.1969118
  -0.0062751   -0.0707937   -0.0065837    0.4495476    0.4867645   -0.7489775
  -0.0058973   -0.0705548   -0.0061687    0.5929562    0.4414648   -0.6734328
  -0.0168686   -0.0682302   -0.0025777   -0.9027948   -0.0847414    0.4216401
  -0.0165702   -0.0688064   -0.0019639   -0.8721994   -0.2520227    0.4192288
  -0.0154322   -0.0702608   -0.0010025   -0.7546211   -0.3385784    0.5620602
  -0.0150440   -0.0701243   -0.0005112   -0.5646578    0.0314271    0.8247266
  -0.0144719   -0.0705577   -0.0001308   -0.4144712   -0.0278889    0.9096350
  -0.0144224   -0.0666118   -0.0088639   -0.2750880    0.4996711   -0.8213741
  -0.0162942   -0.0665975   -0.0063430   -0.8426598    0.3428824   -0.4151580
  -0.0133557   -0.0672328   -0.0093375    0.3882908    0.4918637   -0.7792948
  -0.0139293   -0.0664903   -0.0088961   -0.0583939    0.5224653   -0.8506587
  -0.0172354   -0.0674278   -0.0038091   -0.9521573    0.2402760    0.1888489
  -0.0160047   -0.0654395   -0.0060343   -0.8436957    0.4435401   -0.3024065
  -0.0165795   -0.0660492   -0.0051380   -0.7878047    0.6109523   -0.0781090
  -0.0168737   -0.0663246   -0.0044423   -0.8426989    0.5375081   -0.0307176
  -0.0170207   -0.0669865   -0.0034589   -0.8961431    0.4000168    0.1921302
  -0.0169059   -0.0664474   -0.0038196   -0.8658416    0.4879649    0.1104925
  -0.0076705   -0.0701191   -0.0066748    0.1983002    0.5877207   -0.7843860
  -0.0068760   -0.0694548   -0.0059671    0.3337311    0.5588657   -0.7591395
  -0.0077927   -0.0691778   -0.0060989    0.3410246    0.5220944   -0.7817414
  -0.0076785   -0.0686238   -0.0055576    0.3429543    0.5936082   -0.7280190
  -0.0124795   -0.0662739   -0.0079961    0.7034718    0.4284561   -0.5670563
  -0.0113685   -0.0663679   -0.0064706    0.7137217    0.4796738   -0.5104061
  -0.0109977   -0.0663570   -0.0058974    0.6066785    0.6097236   -0.5100768
  -0.0124183   -0.0655237   -0.0072301    0.6782602    0.5397544   -0.4986263
  -0.0125880   -0.0671768   -0.0086037    0.6692671    0.4004138   -0.6258996
  -0.0103513   -0.0672402   -0.0061790    0.4869978    0.6021109   -0.6326891
  -0.0103763   -0.0663764   -0.0052723    0.5054031    0.6950470   -0.5113486
  -0.0097328   -0.0665007   -0.0048000    0.4301825    0.7473044   -0.5064377
  -0.0087496   -0.0671217   -0.0049587    0.3815454    0.7144573   -0.5864928
  -0.0095120   -0.0707703    0.0010718    0.1712748   -0.3211593    0.9314084
  -0.0107379   -0.0706579    0.0011760   -0.1716492   -0.0400289    0.9843446
  -0.0113977   -0.0706380    0.0009482   -0.3405927    0.3111237    0.8872421
  -0.0079158   -0.0704583    0.0005290    0.4350065   -0.0887465    0.8960432
  -0.0084547   -0.0707845    0.0007072    0.4087342   -0.2239429    0.8847519
  -0.0089745   -0.0710703    0.0008208    0.3247004   -0.2819143    0.9028256
  -0.0120735   -0.0708617    0.0007518   -0.2614480    0.4111710    0.8732602
  -0.0129612   -0.0708115    0.0004820   -0.2828049    0.1536910    0.9467843
  -0.0140428   -0.0708312    0.0000284   -0.5204531   -0.2830886    0.8055988
  -0.0067764   -0.0699121   -0.0002439    0.6945060    0.2053191    0.6895690
  -0.0056061   -0.0693289   -0.0025939    0.8911065    0.1310167    0.4344696
  -0.0063602   -0.0696515   -0.0009150    0.8054611    0.2533254    0.5357785
  -0.0054661   -0.0686995   -0.0036295    0.9325402    0.3607872    0.0141946
  -0.0055423   -0.0696573   -0.0051322    0.7555472    0.4359163   -0.4890044
  -0.0055645   -0.0687450   -0.0041497    0.6920747    0.5800860   -0.4295728
  -0.0065569   -0.0703659   -0.0063752    0.4143510    0.5321778   -0.7383089
  -0.0062728   -0.0692496   -0.0054984    0.4362060    0.5801629   -0.6878483
  -0.0161466   -0.0699367   -0.0018897   -0.8144223   -0.1749563    0.5532691
  -0.0161830   -0.0694875   -0.0016248   -0.7962823   -0.3086894    0.5202360
  -0.0171336   -0.0676702   -0.0033193   -0.9301616    0.1269240    0.3445138
  -0.0167286   -0.0678157   -0.0021499   -0.8711982    0.0842904    0.4836412
  -0.0164439   -0.0685382   -0.0015022   -0.7702043    0.0683382    0.6341256
  -0.0165857   -0.0681783   -0.0018275   -0.8231623    0.1116990    0.5567110
  -0.0158302   -0.0698783   -0.0012644   -0.7459759   -0.3154796    0.5865089
  -0.0146980   -0.0658869   -0.0082689   -0.3578135    0.5092263   -0.7827248
  -0.0151361   -0.0657947   -0.0078874   -0.7064432    0.4197910   -0.5698363
  -0.0157139   -0.0660162   -0.0072189   -0.8533534    0.3343381   -0.4000074
  -0.0135722   -0.0656199   -0.0083238    0.0465905    0.5794158   -0.8136994
  -0.0167354   -0.0669070   -0.0024016   -0.7620816    0.4077106    0.5029947
  -0.0160166   -0.0653047   -0.0054200   -0.8092940    0.5835619   -0.0670726
  -0.0155710   -0.0649395   -0.0063308   -0.8109132    0.4794199   -0.3355239
  -0.0159549   -0.0653723   -0.0038526   -0.5877826    0.8006732    0.1159056
  -0.0158159   -0.0651985   -0.0043550   -0.7398223    0.6505211    0.1717125
  -0.0165757   -0.0659352   -0.0041383   -0.7450235    0.6670215    0.0047147
  -0.0163495   -0.0657214   -0.0037208   -0.7504979    0.6433314    0.1512536
  -0.0074960   -0.0697370   -0.0063801    0.2481316    0.5963781   -0.7633897
  -0.0070077   -0.0687586   -0.0053851    0.2417286    0.6033096   -0.7599900
  -0.0076752   -0.0673721   -0.0045109    0.4331312    0.6789592   -0.5928000
  -0.0075681   -0.0679780   -0.0049893    0.3813907    0.5180271   -0.7656299
  -0.0128362   -0.0665049   -0.0084907    0.5216161    0.4705212   -0.7117067
  -0.0131922   -0.0653699   -0.0079153    0.4720289    0.6185436   -0.6281661
  -0.0129190   -0.0658388   -0.0080971    0.5792387    0.5290413   -0.6201595
  -0.0117005   -0.0658191   -0.0063506    0.6928554    0.5965725   -0.4050341
  -0.0125810   -0.0649136   -0.0065429    0.6354193    0.6816571   -0.3627478
  -0.0113374   -0.0654337   -0.0049588    0.5806818    0.7824521   -0.2248940
  -0.0106207   -0.0660111   -0.0050146    0.5189357    0.7187837   -0.4626615
  -0.0084117   -0.0668354   -0.0043863    0.3641381    0.7727807   -0.5198206
  -0.0100277   -0.0705351    0.0012310   -0.1140027    0.0346913    0.9928746
  -0.0115304   -0.0703049    0.0005859   -0.3078065    0.7148983    0.6278340
  -0.0087436   -0.0699451    0.0009943    0.3904113    0.1223962    0.9124682
  -0.0133800   -0.0705687    0.0002792   -0.1624538    0.4720861    0.8664545
  -0.0068840   -0.0692411   -0.0004888    0.6649662    0.4338607    0.6079349
  -0.0079792   -0.0696490    0.0005131    0.4888731    0.3082832    0.8160665
  -0.0072825   -0.0695842    0.0000629    0.5823349    0.3434709    0.7368269
  -0.0056490   -0.0687474   -0.0025399    0.9402487    0.0767871    0.3317170
  -0.0063819   -0.0689123   -0.0014337    0.7451188    0.2793894    0.6055902
  -0.0059785   -0.0685841   -0.0020055    0.8579761    0.1503777    0.4911858
  -0.0067656   -0.0689649   -0.0009005    0.6899891    0.4364792    0.5774088
  -0.0056498   -0.0681940   -0.0029244    0.9023976    0.4152466    0.1151034
  -0.0062022   -0.0678275   -0.0037818    0.6736104    0.6543878   -0.3435488
  -0.0059029   -0.0690479   -0.0050579    0.5309872    0.6069974   -0.5912756
  -0.0162434   -0.0690269   -0.0014131   -0.6925298   -0.1194271    0.7114349
  -0.0158593   -0.0692116   -0.0010736   -0.6135892   -0.0626750    0.7871341
  -0.0152581   -0.0696416   -0.0006764   -0.2574195    0.3781745    0.8892240
  -0.0144455   -0.0700534   -0.0001684   -0.1311065    0.5199267    0.8440896
  -0.0140240   -0.0703036    0.0000234   -0.1820023    0.3468082    0.9201083
  -0.0143560   -0.0653599   -0.0080562   -0.3297063    0.5957874   -0.7323463
  -0.0150896   -0.0653552   -0.0076048   -0.5564475    0.5573326   -0.6162357
  -0.0155972   -0.0655035   -0.0070214   -0.7800122    0.4308737   -0.4537937
  -0.0139360   -0.0649591   -0.0077794    0.0688404    0.7447119   -0.6638262
  -0.0167106   -0.0664696   -0.0029542   -0.8133435    0.5281148    0.2440636
  -0.0162058   -0.0657999   -0.0029619   -0.5779510    0.7334137    0.3578783
  -0.0155878   -0.0647034   -0.0051509   -0.7708608    0.6276152    0.1089625
  -0.0152450   -0.0648527   -0.0068924   -0.6552129    0.5790722   -0.4851510
  -0.0152376   -0.0645668   -0.0064502   -0.6131081    0.7255568   -0.3125152
  -0.0152446   -0.0649585   -0.0037621   -0.4312198    0.7929658    0.4304123
  -0.0156083   -0.0653580   -0.0033478   -0.2978526    0.8311896    0.4694760
  -0.0152345   -0.0644626   -0.0046423   -0.5978689    0.7114857    0.3692436
  -0.0073134   -0.0684432   -0.0051005    0.2050559    0.5029973   -0.8396105
  -0.0071611   -0.0678945   -0.0047013    0.3917619    0.6381514   -0.6627861
  -0.0083038   -0.0665244   -0.0038500    0.3164735    0.8665446   -0.3859339
  -0.0131225   -0.0648238   -0.0072063    0.4634957    0.7458777   -0.4783704
  -0.0123727   -0.0647242   -0.0055713    0.6092732    0.7677025   -0.1985423
  -0.0100691   -0.0660524   -0.0043830    0.4200592    0.8451053   -0.3306769
  -0.0087868   -0.0663732   -0.0038228    0.2698573    0.9074253   -0.3221123
  -0.0092873   -0.0700961    0.0012132    0.0458969    0.2849594    0.9574401
  -0.0104294   -0.0700509    0.0009957   -0.3979649    0.6109709    0.6843526
  -0.0086663   -0.0693221    0.0007472    0.1968913    0.5358199    0.8210547
  -0.0121380   -0.0701467    0.0001791   -0.1544176    0.7575694    0.6342269
  -0.0074333   -0.0689067   -0.0001896    0.5432992    0.4701903    0.6955193
  -0.0058806   -0.0679977   -0.0023012    0.8691323    0.4055067    0.2831490
  -0.0066975   -0.0684461   -0.0012518    0.6589066    0.2217303    0.7188030
  -0.0062926   -0.0680099   -0.0016582    0.6520910    0.2297725    0.7224832
  -0.0059791   -0.0676608   -0.0027936    0.7934585    0.6037866   -0.0765856
  -0.0061883   -0.0686355   -0.0048371    0.5119704    0.6350833   -0.5784077
  -0.0066865   -0.0681278   -0.0047089    0.4485643    0.6625643   -0.5998321
  -0.0066945   -0.0672918   -0.0036710    0.6119914    0.6997890   -0.3684587
  -0.0163463   -0.0673692   -0.0017254   -0.4989161    0.3527108    0.7916298
