NORM_ASCII
806 1608
  -0.0327342   -0.1016642   -0.0122003   -0.8772724    0.0937929   -0.4707400
  -0.0328279   -0.0991016   -0.0112037   -0.9951702    0.0607572    0.0771029
  -0.0327118   -0.0988296   -0.0122971   -0.9033196   -0.0243792   -0.4282750
  -0.0327239   -0.0975695   -0.0107515   -0.9952722    0.0439325    0.0866208
  -0.0327952   -0.0977287   -0.0121206   -0.9953524    0.0182220   -0.0945600
  -0.0327039   -0.0969758   -0.0108843   -0.9944374    0.1036704    0.0186199
  -0.0326880   -0.0994111   -0.0122521    0.7971837   -0.0589273   -0.6008542
  -0.0325890   -0.0993806   -0.0124614   -0.7277812   -0.0465041   -0.6842309
  -0.0321657   -0.1010688   -0.0129027   -0.6984525   -0.0171821   -0.7154501
  -0.0321422   -0.0999424   -0.0129283   -0.7066610   -0.0153102   -0.7073866
  -0.0325780   -0.0995896   -0.0124431   -0.8276922   -0.0502351   -0.5589294
  -0.0329325   -0.1016332   -0.0101020   -0.9770408    0.0610853    0.2041074
  -0.0330780   -0.1032630   -0.0101603   -0.9793559    0.0753867    0.1875605
  -0.0332415   -0.1034824   -0.0112168   -0.9943092    0.0996867   -0.0375729
  -0.0330329   -0.1032936   -0.0121033   -0.9369996    0.1191495   -0.3283827
  -0.0326077   -0.1016494   -0.0123843   -0.7873691    0.0669981   -0.6128304
  -0.0327809   -0.1032635   -0.0124723   -0.7607506    0.1075518   -0.6400712
  -0.0327056   -0.0976290   -0.0105622   -0.9967102    0.0298007    0.0753698
  -0.0326612   -0.0972560   -0.0099325   -0.9951419    0.0577887    0.0797066
  -0.0326753   -0.0990789   -0.0094384   -0.9832204    0.0282970    0.1802135
  -0.0319725   -0.0988118   -0.0131198   -0.4978200   -0.0345905   -0.8665903
  -0.0323319   -0.0970751   -0.0129198   -0.7164539   -0.0057972   -0.6976104
  -0.0327357   -0.0971075   -0.0123896   -0.9247945    0.0260490   -0.3795741
  -0.0327037   -0.0970604   -0.0105840   -0.9621578    0.0846102    0.2590240
  -0.0327037   -0.0970604   -0.0105840    0.9998227    0.0180334    0.0054129
  -0.0327352   -0.0966209   -0.0121130   -0.9740991    0.2113727   -0.0803274
  -0.0327037   -0.0970604   -0.0105840    0.9941126    0.0882431    0.0628747
  -0.0326789   -0.0965037   -0.0105850   -0.9917574    0.1274412   -0.0132656
  -0.0324615   -0.0957998   -0.0113093   -0.9322135    0.3509234   -0.0884921
  -0.0321298   -0.0995486   -0.0129338   -0.4843331   -0.0477224   -0.8735811
  -0.0321380   -0.0993745   -0.0129481   -0.6556982   -0.0646329   -0.7522516
  -0.0323619   -0.1021842   -0.0127359   -0.6518585    0.0519005   -0.7565625
  -0.0319512   -0.0993924   -0.0130769   -0.0217659   -0.0297726   -0.9993197
  -0.0319722   -0.1022894   -0.0129763   -0.3937594   -0.0198261   -0.9189997
  -0.0326258   -0.1008571   -0.0091718   -0.9308320    0.0259367    0.3645259
  -0.0326074   -0.1002961   -0.0091789   -0.9416292   -0.0026249    0.3366417
  -0.0328723   -0.1023374   -0.0096603   -0.9482301    0.0687844    0.3100458
  -0.0325466   -0.1015049   -0.0089444   -0.8707034    0.0044313    0.4917886
  -0.0331867   -0.1042849   -0.0104192   -0.9768832    0.0647051    0.2037461
  -0.0330026   -0.1039666   -0.0097353   -0.9333410    0.0424579    0.3564715
  -0.0332816   -0.1039926   -0.0113619   -0.9966724    0.0812926   -0.0059730
  -0.0328820   -0.1029093   -0.0096128   -0.9228725    0.0418020    0.3828302
  -0.0332620   -0.1049610   -0.0119431   -0.9505161    0.0298319   -0.3092396
  -0.0330329   -0.1043476   -0.0123568   -0.7672937    0.0371022   -0.6402217
  -0.0333148   -0.1045030   -0.0115150   -0.9943099    0.0812162   -0.0689325
  -0.0327058   -0.1043573   -0.0126571   -0.5217046   -0.0095172   -0.8530731
  -0.0325426   -0.0981377   -0.0089136   -0.9753006   -0.0079040    0.2207401
  -0.0325738   -0.0970375   -0.0087903   -0.9848895    0.0319462    0.1702118
  -0.0326709   -0.0965929   -0.0102774   -0.9925808    0.0915999    0.0799554
  -0.0324485   -0.0966239   -0.0083913   -0.9630949    0.1731971    0.2060365
  -0.0325834   -0.0997824   -0.0090321   -0.9394643   -0.0326154    0.3410911
  -0.0317476   -0.0972525   -0.0132800   -0.3796576   -0.0066512   -0.9251032
  -0.0317454   -0.0991044   -0.0132016   -0.1976259   -0.0480188   -0.9791007
  -0.0319512   -0.0993924   -0.0130769    0.9434737   -0.0301766   -0.3300707
  -0.0319512   -0.0993924   -0.0130769    0.7493396   -0.0706639   -0.6584048
  -0.0321206   -0.0965362   -0.0130498   -0.5622342    0.0963912   -0.8213412
  -0.0325927   -0.0965310   -0.0125823   -0.8613172    0.2087545   -0.4632001
  -0.0326730   -0.0965490   -0.0104277   -0.9872084    0.1407889    0.0748198
  -0.0325339   -0.0960813   -0.0119551   -0.8946461    0.4220311   -0.1466223
  -0.0325814   -0.0960370   -0.0103397   -0.9608284    0.2709742    0.0581535
  -0.0321420   -0.0955533   -0.0125167   -0.7561029    0.5555791   -0.3458906
  -0.0320499   -0.0952204   -0.0117938   -0.7272815    0.6481028   -0.2258860
  -0.0322720   -0.0953240   -0.0111951   -0.8568433    0.5109424   -0.0689748
  -0.0317316   -0.0999690   -0.0131537   -0.3604143   -0.0514726   -0.9313711
  -0.0317478   -0.0994201   -0.0131903   -0.3798397   -0.0517984   -0.9236009
  -0.0314561   -0.1012019   -0.0131526   -0.1501045   -0.0243686   -0.9883698
  -0.0317379   -0.1022719   -0.0130642   -0.1146627   -0.0770198   -0.9904143
  -0.0315791   -0.1005977   -0.0131743   -0.1040079   -0.0532074   -0.9931522
  -0.0323611   -0.1001990   -0.0086662   -0.8844631   -0.0274170    0.4658039
  -0.0320668   -0.1015587   -0.0083473   -0.7327778   -0.0694576    0.6769139
  -0.0321940   -0.1012481   -0.0084738   -0.8134512   -0.0577455    0.5787595
  -0.0318498   -0.1024879   -0.0081665   -0.6936122   -0.0198340    0.7200755
  -0.0325910   -0.1037234   -0.0090225   -0.8459635    0.0335737    0.5321828
  -0.0329370   -0.1051811   -0.0094904   -0.8821238    0.0224549    0.4704821
  -0.0333915   -0.1064259   -0.0106014   -0.9826969    0.0891327    0.1623643
  -0.0332870   -0.1047152   -0.0107894   -0.9944731    0.0722354    0.0761928
  -0.0330821   -0.1062022   -0.0097079   -0.9280284    0.0527849    0.3687507
  -0.0330495   -0.1060477   -0.0123013   -0.8156899    0.0321023   -0.5775980
  -0.0333155   -0.1050170   -0.0116916   -0.9756122    0.0530031   -0.2130061
  -0.0328481   -0.1055631   -0.0124376   -0.5463984    0.0138719   -0.8374105
  -0.0326515   -0.1055266   -0.0125603   -0.3474818   -0.0766397   -0.9345495
  -0.0322399   -0.1044449   -0.0128298   -0.1025455   -0.1271500   -0.9865684
  -0.0323900   -0.0988566   -0.0085181   -0.9098241   -0.0622940    0.4102920
  -0.0325419   -0.0970840   -0.0086597   -0.9507456   -0.0250905    0.3089552
  -0.0322469   -0.0968139   -0.0079168   -0.8840750    0.0067936    0.4672956
  -0.0319974   -0.0963965   -0.0076564   -0.8291449    0.2351791    0.5071583
  -0.0322745   -0.0958350   -0.0090654   -0.8367616    0.5336252    0.1227766
  -0.0323457   -0.0960138   -0.0086656   -0.9110889    0.3476420    0.2214994
  -0.0315081   -0.0977304   -0.0133426   -0.1457540   -0.0629453   -0.9873164
  -0.0312692   -0.0972388   -0.0134287   -0.1440023   -0.0350326   -0.9889571
  -0.0314696   -0.0966371   -0.0133640   -0.3025462    0.0518236   -0.9517248
  -0.0314857   -0.1000473   -0.0132272   -0.1485043   -0.0515108   -0.9875693
  -0.0314272   -0.0960924   -0.0133381   -0.3283357    0.1951618   -0.9241794
  -0.0320361   -0.0960140   -0.0129954   -0.5894385    0.3203140   -0.7415937
  -0.0323525   -0.0960080   -0.0126860   -0.7874715    0.3602108   -0.5001368
  -0.0323857   -0.0955102   -0.0103640   -0.8353128    0.5322119    0.1378514
  -0.0317630   -0.0951818   -0.0124894   -0.6013926    0.7290804   -0.3267549
  -0.0317089   -0.0955391   -0.0130192   -0.5349578    0.4980889   -0.6824424
  -0.0320967   -0.0950969   -0.0113084   -0.6685233    0.7387136   -0.0859005
  -0.0312144   -0.0948680   -0.0126051   -0.4136206    0.8448669   -0.3392904
  -0.0317642   -0.0949075   -0.0116128   -0.4416947    0.8889473   -0.1211548
  -0.0321769   -0.0952073   -0.0104864   -0.6038520    0.7885322    0.1165325
  -0.0320456   -0.0950657   -0.0109679   -0.5022739    0.8551314    0.1283404
  -0.0314450   -0.1017790   -0.0131190    0.1569139   -0.1311697   -0.9788629
  -0.0314555   -0.1012022   -0.0131527   -0.0647867   -0.0038094   -0.9978919
  -0.0314554   -0.1012002   -0.0131526    0.0006009    0.0124052   -0.9999229
  -0.0316108   -0.1034802   -0.0129008    0.3288918   -0.1527367   -0.9319344
  -0.0313538   -0.1025669   -0.0130053    0.4508355   -0.2384421   -0.8601702
  -0.0312893   -0.1024143   -0.0130210    0.3212889   -0.1599899   -0.9333685
  -0.0310606   -0.1001735   -0.0132149    0.1292448   -0.0750568   -0.9887680
  -0.0311541   -0.1012933   -0.0131412    0.1767848   -0.0934997   -0.9797984
  -0.0317158   -0.0998395   -0.0077150   -0.6943275   -0.1437620    0.7051538
  -0.0315707   -0.1019352   -0.0078886   -0.6446271   -0.0748959    0.7608196
  -0.0312083   -0.1006307   -0.0074241   -0.5638185   -0.1223114    0.8167917
  -0.0320765   -0.0996156   -0.0081397   -0.8214948   -0.0988394    0.5615845
  -0.0325299   -0.1043474   -0.0088658   -0.8069976    0.0195855    0.5902298
  -0.0322310   -0.1045359   -0.0085011   -0.6955447   -0.0192845    0.7182240
  -0.0315900   -0.1031869   -0.0079480   -0.5488187   -0.0306361    0.8353798
  -0.0307956   -0.1024428   -0.0074078   -0.4333310   -0.0840334    0.8973085
  -0.0311338   -0.1017461   -0.0075386   -0.5335157   -0.1032507    0.8394643
  -0.0331000   -0.1073208   -0.0097192   -0.8492259   -0.0413488    0.5264082
  -0.0327744   -0.1058816   -0.0091630   -0.7647079   -0.0079558    0.6443280
  -0.0334684   -0.1069370   -0.0107055   -0.9767041    0.1041363    0.1876290
  -0.0334300   -0.1061766   -0.0114500   -0.9916862    0.1202302   -0.0458599
  -0.0335508   -0.1080567   -0.0106445   -0.9285576    0.0721629    0.3641061
  -0.0330529   -0.1071006   -0.0125572   -0.5191110    0.2003127   -0.8309023
  -0.0332997   -0.1060785   -0.0119308   -0.8979079    0.1503615   -0.4137061
  -0.0326764   -0.1063719   -0.0125474   -0.1978331    0.0200698   -0.9800302
  -0.0323657   -0.1055728   -0.0125996    0.0579242   -0.1379839   -0.9887392
  -0.0316505   -0.1040495   -0.0128376    0.3347796   -0.2069245   -0.9192959
  -0.0320996   -0.0985358   -0.0079537   -0.8537723   -0.1136531    0.5080905
  -0.0320419   -0.0974299   -0.0076057   -0.8456939   -0.0086853    0.5335976
  -0.0317382   -0.0965870   -0.0072471   -0.7134471    0.2528214    0.6535095
  -0.0319819   -0.0959888   -0.0079078   -0.7067889    0.4946648    0.5057233
  -0.0322011   -0.0959100   -0.0084037   -0.7974266    0.5132790    0.3172625
  -0.0318248   -0.0952889   -0.0089826   -0.6141803    0.7687893    0.1781727
  -0.0316944   -0.0951510   -0.0094647   -0.3476705    0.9347981    0.0726479
  -0.0319260   -0.0956889   -0.0082455   -0.6697798    0.6694902    0.3212132
  -0.0308881   -0.0996604   -0.0132179    0.2500356   -0.0821156   -0.9647483
  -0.0308352   -0.0986738   -0.0132954    0.1607048   -0.1147697   -0.9803070
  -0.0307813   -0.0985394   -0.0133060    0.1263342   -0.1240310   -0.9842032
  -0.0308901   -0.0962185   -0.0134459   -0.0364535    0.0702953   -0.9968599
  -0.0309174   -0.0972122   -0.0134295    0.0727393   -0.0557966   -0.9957890
  -0.0308154   -0.0956988   -0.0133657   -0.0729372    0.3194823   -0.9447810
  -0.0312370   -0.0954774   -0.0131934   -0.2567669    0.4271967   -0.8669335
  -0.0316057   -0.0951297   -0.0126474   -0.5423234    0.7065336   -0.4546379
  -0.0313274   -0.0952042   -0.0129891   -0.3872623    0.6417491   -0.6619562
  -0.0318786   -0.0949653   -0.0111192   -0.3263330    0.9414861    0.0843247
  -0.0306513   -0.0947015   -0.0124057   -0.1345271    0.9909079    0.0020205
  -0.0309468   -0.0949946   -0.0129543   -0.1160424    0.7384600   -0.6642372
  -0.0315799   -0.0950912   -0.0099579   -0.1082923    0.9823982    0.1522057
  -0.0315242   -0.0948839   -0.0111024   -0.0807966    0.9794113    0.1850012
  -0.0307635   -0.1020871   -0.0127198    0.5704249   -0.2461602   -0.7835947
  -0.0307382   -0.1014794   -0.0129076    0.5556259   -0.2281954   -0.7995041
  -0.0313873   -0.1038779   -0.0126844    0.6239527   -0.2083220   -0.7531832
  -0.0309770   -0.1032102   -0.0125118    0.6446694   -0.2318308   -0.7284613
  -0.0302198   -0.1026266   -0.0119896    0.6460623   -0.2227120   -0.7300704
  -0.0307617   -0.1008725   -0.0130406    0.4497626   -0.1182933   -0.8852798
  -0.0308930   -0.0991918   -0.0068563   -0.5540169   -0.2062970    0.8065401
  -0.0314561   -0.0984028   -0.0070851   -0.6606139   -0.1569564    0.7341349
  -0.0319962   -0.0991411   -0.0079100   -0.7924992   -0.1410062    0.5933483
  -0.0307522   -0.1003047   -0.0070446   -0.5099132   -0.1777636    0.8416583
  -0.0307062   -0.0997947   -0.0069061   -0.5022877   -0.2160430    0.8372769
  -0.0303772   -0.1015109   -0.0071458   -0.3507511   -0.1774482    0.9195030
  -0.0305390   -0.1019944   -0.0072609   -0.3620555   -0.1123428    0.9253620
  -0.0317893   -0.1058696   -0.0082178   -0.5838749   -0.0592238    0.8096806
  -0.0315617   -0.1054209   -0.0080418   -0.5048555   -0.0680580    0.8605167
  -0.0313871   -0.1043981   -0.0078567   -0.4782213   -0.0645454    0.8758643
  -0.0307484   -0.1035586   -0.0074914   -0.3577511   -0.0760866    0.9307121
  -0.0306461   -0.1030465   -0.0074158   -0.3579355   -0.0829665    0.9300531
  -0.0297467   -0.1028081   -0.0071827   -0.1899174   -0.1460913    0.9708701
  -0.0326911   -0.1078956   -0.0092367   -0.7511768   -0.0536369    0.6579183
  -0.0325179   -0.1076984   -0.0089721   -0.6692577   -0.0834661    0.7383275
  -0.0321978   -0.1067696   -0.0086000   -0.6718321   -0.0468516    0.7392202
  -0.0319379   -0.1063518   -0.0083511   -0.5836326   -0.0576670    0.8099676
  -0.0336671   -0.1077567   -0.0115964   -0.9658239    0.2530454   -0.0561450
  -0.0337666   -0.1084741   -0.0109429   -0.8815130    0.2310429    0.4117695
  -0.0331269   -0.1081152   -0.0128780   -0.3838285    0.3479509   -0.8553396
  -0.0333384   -0.1075979   -0.0124956   -0.7636553    0.2844160   -0.5796016
  -0.0327144   -0.1076855   -0.0128241    0.0027419    0.2616986   -0.9651458
  -0.0323775   -0.1065619   -0.0125691    0.0746108    0.0981293   -0.9923728
  -0.0318895   -0.1051736   -0.0126015    0.3967083   -0.1925851   -0.8975152
  -0.0315483   -0.1064782   -0.0123151    0.3667468   -0.0026953   -0.9303169
  -0.0318235   -0.1045879   -0.0127483    0.3401331   -0.2570203   -0.9045717
  -0.0315345   -0.1048132   -0.0124812    0.5571652   -0.2291956   -0.7981456
  -0.0319387   -0.0978577   -0.0074959   -0.8231503   -0.1460756    0.5487126
  -0.0316245   -0.0981892   -0.0072017   -0.7236950   -0.1548690    0.6725185
  -0.0317787   -0.0977055   -0.0072332   -0.7334881   -0.1069732    0.6712317
  -0.0317110   -0.0971933   -0.0071182   -0.7151968   -0.0024840    0.6989188
  -0.0312496   -0.0968691   -0.0067451   -0.5442484    0.1115400    0.8314761
  -0.0310489   -0.0963540   -0.0067793   -0.4878984    0.3382610    0.8046954
  -0.0313658   -0.0957798   -0.0073663   -0.5523399    0.5902980    0.5886160
  -0.0315656   -0.0956062   -0.0078485   -0.4983521    0.7395772    0.4524055
  -0.0312502   -0.0950646   -0.0087751   -0.2344611    0.9657194    0.1114184
  -0.0315920   -0.0953025   -0.0084777   -0.4864362    0.8119975    0.3225519
  -0.0308964   -0.0952688   -0.0096366    0.2020225    0.9767785    0.0713483
  -0.0305235   -0.0950303   -0.0084235    0.2211737    0.9573124   -0.1861053
  -0.0302864   -0.0985760   -0.0131058    0.4312062   -0.1539662   -0.8890195
  -0.0302871   -0.1006588   -0.0127237    0.5800591   -0.1545587   -0.7997768
  -0.0304175   -0.0975118   -0.0133330    0.3118760   -0.1070205   -0.9440762
  -0.0303268   -0.0963930   -0.0134038    0.2512877   -0.0314483   -0.9674014
  -0.0302141   -0.0958806   -0.0133395    0.2771978    0.1743829   -0.9448556
  -0.0305497   -0.0952652   -0.0131807    0.1071108    0.4678656   -0.8772850
  -0.0311898   -0.0949011   -0.0110998    0.1005914    0.9639102    0.2464924
  -0.0307012   -0.0948791   -0.0112569    0.0446582    0.9434534    0.3284835
  -0.0303657   -0.0948906   -0.0112534   -0.0980169    0.9281578    0.3590485
  -0.0303064   -0.0946665   -0.0123956   -0.0080899    0.9410561   -0.3381537
  -0.0300639   -0.0946319   -0.0118838   -0.0616712    0.9978765    0.0209579
  -0.0301039   -0.0947045   -0.0116203   -0.1608431    0.9403358    0.2998300
  -0.0303789   -0.0948733   -0.0127481   -0.0381863    0.8482274   -0.5282538
  -0.0302740   -0.0950063   -0.0129452    0.1559789    0.6737635   -0.7222973
  -0.0300971   -0.1006408   -0.0125452    0.6914495   -0.2052729   -0.6926475
  -0.0311636   -0.1049395   -0.0121744    0.5768409   -0.1451354   -0.8038596
  -0.0309480   -0.1035999   -0.0123038    0.6331087   -0.2228623   -0.7412865
  -0.0301062   -0.1036786   -0.0117381    0.5834512   -0.1820971   -0.7914704
  -0.0294416   -0.1002622   -0.0119849    0.6184159   -0.2275246   -0.7521930
  -0.0287795   -0.1019093   -0.0110293    0.6473364   -0.2136641   -0.7316442
  -0.0305412   -0.0977518   -0.0063294   -0.5118191   -0.1005677    0.8531866
  -0.0303300   -0.0983750   -0.0063339   -0.3903370   -0.1981173    0.8991032
  -0.0301662   -0.1000044   -0.0067134   -0.3443207   -0.2311246    0.9099586
  -0.0295260   -0.1012754   -0.0068594   -0.2119285   -0.2159621    0.9531247
  -0.0309810   -0.1062100   -0.0078331   -0.3837698   -0.0944732    0.9185834
  -0.0309474   -0.1056739   -0.0077705   -0.3335005   -0.0901928    0.9384256
  -0.0305951   -0.1041577   -0.0075182   -0.2172692   -0.1145071    0.9693721
  -0.0293913   -0.1039938   -0.0073388   -0.0457154   -0.1902236    0.9806758
  -0.0281712   -0.1022123   -0.0069154    0.0379036   -0.2594106    0.9650230
  -0.0290365   -0.1014243   -0.0068314   -0.1033637   -0.2152185    0.9710803
  -0.0327933   -0.1086271   -0.0093943   -0.7825414   -0.0060067    0.6225695
  -0.0325642   -0.1082083   -0.0091104    0.9650562   -0.0383110    0.2592273
  -0.0325642   -0.1082083   -0.0091104    0.3658134   -0.0627398    0.9285711
  -0.0325642   -0.1082083   -0.0091104    0.7503607   -0.1231640    0.6494532
  -0.0324032   -0.1083037   -0.0089414   -0.7124834   -0.1245429    0.6905479
  -0.0322233   -0.1083958   -0.0087924   -0.6332063   -0.0820621    0.7696204
  -0.0314672   -0.1076522   -0.0082091   -0.4604313   -0.0707662    0.8848702
  -0.0337778   -0.1090663   -0.0128277   -0.7318139    0.3693226   -0.5727558
  -0.0339833   -0.1086947   -0.0119399   -0.8958585    0.3965776   -0.2004091
  -0.0338317   -0.1082785   -0.0115692   -0.9292704    0.3556108    0.0999875
  -0.0342427   -0.1092216   -0.0114574   -0.9249413    0.3573835    0.1294629
  -0.0341366   -0.1095016   -0.0109093   -0.7899626    0.2480933    0.5607217
  -0.0332408   -0.1094604   -0.0099733   -0.7581529    0.1226020    0.6404474
  -0.0330524   -0.1091263   -0.0133630   -0.1489206    0.3769819   -0.9141703
  -0.0328968   -0.1086662   -0.0131555    0.0000961    0.3666043   -0.9303770
  -0.0322905   -0.1078292   -0.0127545    0.3356724    0.2292719   -0.9136512
  -0.0321386   -0.1068065   -0.0125440    0.3210825    0.1316277   -0.9378594
  -0.0310965   -0.1054723   -0.0120628    0.5267308   -0.0738323   -0.8468196
  -0.0307974   -0.1062430   -0.0119158    0.5231779   -0.0094398   -0.8521712
  -0.0320904   -0.1073729   -0.0125760    0.4599982    0.0484951   -0.8865945
  -0.0307863   -0.0968965   -0.0065057   -0.3992494    0.2044889    0.8937473
  -0.0302009   -0.0973326   -0.0061703   -0.2823642    0.1011605    0.9539586
  -0.0311782   -0.0957968   -0.0071980   -0.4333930    0.5919356    0.6795460
  -0.0302028   -0.0967253   -0.0063280   -0.2716121    0.3170396    0.9086874
  -0.0306629   -0.0960784   -0.0067260   -0.2537732    0.5336642    0.8067228
  -0.0308108   -0.0956521   -0.0071723   -0.3098911    0.7430772    0.5931305
  -0.0309997   -0.0954247   -0.0076467   -0.3869361    0.7572167    0.5262160
  -0.0304420   -0.0950664   -0.0077562   -0.2857828    0.8846012    0.3685225
  -0.0302869   -0.0950255   -0.0079158    0.2932683    0.9559922    0.0085177
  -0.0303939   -0.0953958   -0.0094787    0.2327733    0.9711638    0.0515509
  -0.0303196   -0.0953153   -0.0103051    0.1158856    0.9753844    0.1876053
  -0.0305228   -0.0951586   -0.0107899    0.0532128    0.9284405    0.3676501
  -0.0301542   -0.0953761   -0.0089691    0.4340665    0.8635535   -0.2566352
  -0.0301067   -0.0994241   -0.0128526    0.6137780   -0.1664316   -0.7717364
  -0.0300071   -0.0990766   -0.0128353    0.5680574   -0.1510152   -0.8090149
  -0.0299857   -0.0976975   -0.0131170    0.5174541   -0.1469186   -0.8430043
  -0.0299869   -0.0968992   -0.0132037    0.4517592   -0.1151089   -0.8846827
  -0.0298777   -0.0965769   -0.0132066    0.4703149   -0.0645160   -0.8801373
  -0.0297706   -0.0960646   -0.0131361    0.5385217    0.1606718   -0.8271511
  -0.0299532   -0.0954611   -0.0130909    0.4028715    0.3582794   -0.8422176
  -0.0296490   -0.0951223   -0.0106036   -0.1874689    0.8956544    0.4033095
  -0.0301755   -0.0947426   -0.0125718    0.1541651    0.8819626   -0.4453932
  -0.0297199   -0.0946006   -0.0118740   -0.0603620    0.9904332    0.1240906
  -0.0299757   -0.0951981   -0.0129674    0.4001529    0.5869823   -0.7037965
  -0.0306137   -0.1046129   -0.0119005    0.5520725   -0.0785587   -0.8300870
  -0.0304665   -0.1040470   -0.0118552    0.5431608   -0.1622636   -0.8238003
  -0.0294562   -0.1052263   -0.0109037    0.6717805   -0.1209329   -0.7308120
  -0.0288266   -0.1032155   -0.0106915    0.7179970   -0.1786373   -0.6727325
  -0.0279263   -0.1006453   -0.0107476    0.6126844   -0.2804365   -0.7389000
  -0.0292772   -0.0986786   -0.0123517    0.5964177   -0.1913030   -0.7795442
  -0.0285684   -0.0990532   -0.0117462    0.5350107   -0.2303098   -0.8128474
  -0.0286095   -0.0997150   -0.0115607    0.5475059   -0.2775742   -0.7894237
  -0.0285375   -0.1028081   -0.0104793    0.6928383   -0.2121967   -0.6891644
  -0.0279913   -0.1017917   -0.0103299    0.5510935   -0.2479793   -0.7967447
  -0.0298035   -0.0980284   -0.0061063   -0.2202819   -0.1404294    0.9652748
  -0.0298699   -0.0985392   -0.0062220   -0.1786587   -0.2436964    0.9532540
  -0.0303132   -0.1047977   -0.0075363   -0.1307980   -0.1065689    0.9856647
  -0.0305912   -0.1084009   -0.0079323   -0.1582260   -0.0434804    0.9864451
  -0.0295129   -0.1044972   -0.0074265    0.0141949   -0.1663498    0.9859646
  -0.0278017   -0.1028159   -0.0071533    0.3223914   -0.3360243    0.8849585
  -0.0272226   -0.1011412   -0.0067049    0.2737761   -0.3442297    0.8980827
  -0.0281639   -0.1011628   -0.0066555   -0.0406198   -0.2388760    0.9702001
  -0.0271873   -0.1016837   -0.0069474    0.4368389   -0.3727251    0.8186866
  -0.0289074   -0.0998695   -0.0064839   -0.0766694   -0.2088846    0.9749303
  -0.0326411   -0.1098383   -0.0092461   -0.7314748    0.0465070    0.6802806
  -0.0324706   -0.1088141   -0.0090559   -0.7202202   -0.0328709    0.6929664
  -0.0324086   -0.1083815   -0.0089643   -0.5894146   -0.0954260    0.8021747
  -0.0322193   -0.1095142   -0.0088286   -0.6411757    0.0101318    0.7673272
  -0.0310940   -0.1082758   -0.0080908   -0.4097475   -0.0270190    0.9117987
  -0.0340450   -0.1095760   -0.0127483   -0.8718237    0.2769111   -0.4040344
  -0.0337543   -0.1100499   -0.0133590   -0.6443599    0.2928873   -0.7064116
  -0.0341981   -0.1091755   -0.0120123   -0.9195754    0.3397426   -0.1973729
  -0.0344079   -0.1098820   -0.0112812   -0.9493218    0.1991077    0.2431959
  -0.0344319   -0.1097852   -0.0116031   -0.9709547    0.2249274   -0.0815758
  -0.0336616   -0.1103915   -0.0102324   -0.6974595    0.0788529    0.7122728
  -0.0342953   -0.1106222   -0.0107621   -0.7988090    0.0723393    0.5972195
  -0.0342970   -0.1100149   -0.0109199   -0.8844428    0.1600465    0.4383447
  -0.0333759   -0.1100893   -0.0136121   -0.3263375    0.2584734   -0.9092279
  -0.0329568   -0.1096639   -0.0135517    0.1280801    0.2777175   -0.9520864
  -0.0325918   -0.1090358   -0.0132515    0.4294350    0.2460386   -0.8689365
  -0.0325836   -0.1087576   -0.0131567    0.3865540    0.2454569   -0.8890033
  -0.0306297   -0.1074538   -0.0117845    0.5831182    0.0366677   -0.8115594
  -0.0316758   -0.1086165   -0.0125833    0.5114338    0.1313334   -0.8492273
  -0.0300338   -0.1056635   -0.0114020    0.6139850   -0.0514982   -0.7876359
  -0.0302351   -0.1065233   -0.0114959    0.6581428   -0.0633568   -0.7502226
  -0.0298666   -0.0966374   -0.0062882   -0.1471662    0.3342818    0.9309123
  -0.0288699   -0.0977803   -0.0059436   -0.0759575    0.0016915    0.9971096
  -0.0292859   -0.0973150   -0.0060376   -0.1485680    0.1486512    0.9776658
  -0.0301571   -0.0961907   -0.0065660   -0.2431249    0.4424292    0.8632188
  -0.0303356   -0.0960095   -0.0067332   -0.3238585    0.4341181    0.8406290
  -0.0304708   -0.0958573   -0.0068600   -0.2947798    0.5611233    0.7734633
  -0.0301989   -0.0953129   -0.0073496   -0.0187439    0.7726992    0.6344956
  -0.0302612   -0.0951169   -0.0075929    0.0205937    0.8668357    0.4981684
  -0.0299700   -0.0954080   -0.0088029    0.5067331    0.8531176   -0.1241445
  -0.0300010   -0.0952109   -0.0079215    0.6366081    0.7705264   -0.0319244
  -0.0297909   -0.0954019   -0.0074572    0.6380995    0.7632323    0.1015160
  -0.0294024   -0.0955090   -0.0094811   -0.1608488    0.9254670    0.3429847
  -0.0294284   -0.0954115   -0.0098016   -0.1727187    0.9358145    0.3072777
  -0.0293139   -0.0956046   -0.0092304    0.0453866    0.8820792    0.4689098
  -0.0293626   -0.0957395   -0.0088396    0.4058670    0.8934215    0.1925358
  -0.0295882   -0.0977495   -0.0128124    0.5650824   -0.1553456   -0.8102775
  -0.0288388   -0.0966741   -0.0124840    0.5598636   -0.0677459   -0.8258107
  -0.0288985   -0.0953187   -0.0122968    0.5414066    0.3811091   -0.7494230
  -0.0293480   -0.0952324   -0.0125298    0.5148086    0.4775767   -0.7119639
  -0.0290850   -0.0949502   -0.0104031   -0.3272282    0.8532224    0.4061197
  -0.0298623   -0.0948620   -0.0125837    0.3889255    0.7402703   -0.5483948
  -0.0293978   -0.0946771   -0.0118799    0.3052257    0.9055918   -0.2945180
  -0.0287254   -0.0948427   -0.0103828   -0.1671701    0.9091892    0.3813517
  -0.0282309   -0.0947929   -0.0105359    0.3057743    0.9423786    0.1357372
  -0.0286060   -0.0950406   -0.0117504    0.4831554    0.6744611   -0.5582679
  -0.0291239   -0.1048494   -0.0105798    0.7852753   -0.1471838   -0.6013981
  -0.0295093   -0.1057810   -0.0108793    0.7149758   -0.0939218   -0.6928119
  -0.0273710   -0.1001970   -0.0104342    0.5024849   -0.2687730   -0.8217481
  -0.0273520   -0.0997107   -0.0106605    0.5679851   -0.3016107   -0.7657832
  -0.0277981   -0.0988190   -0.0113691    0.5536988   -0.2343298   -0.7990665
  -0.0286962   -0.1049466   -0.0099401    0.7044330   -0.2060441   -0.6792054
  -0.0280144   -0.1024699   -0.0101708    0.4693514   -0.2467902   -0.8478230
  -0.0273662   -0.1021400   -0.0100064    0.3889487   -0.1990629   -0.8994959
  -0.0289897   -0.0982842   -0.0060298   -0.0593866   -0.2030853    0.9773585
  -0.0291789   -0.0987503   -0.0061798   -0.1344089   -0.2692647    0.9536408
  -0.0274894   -0.1002826   -0.0064695   -0.0007458   -0.2022622    0.9793311
  -0.0301755   -0.1059271   -0.0076635   -0.0228670   -0.1283861    0.9914606
  -0.0296178   -0.1055501   -0.0075797    0.0161886   -0.1417715    0.9897670
  -0.0311580   -0.1088925   -0.0081221   -0.4319839    0.0536643    0.9002833
  -0.0305966   -0.1091156   -0.0079077   -0.2305670    0.1146295    0.9662810
  -0.0293851   -0.1061511   -0.0076807    0.0592418   -0.1208431    0.9909023
  -0.0294710   -0.1077682   -0.0078475    0.0780456   -0.1103777    0.9908207
  -0.0298757   -0.1087698   -0.0078712    0.0624688    0.0730244    0.9953718
  -0.0295559   -0.1082922   -0.0079014    0.6360205   -0.0343131    0.7709089
  -0.0282953   -0.1042555   -0.0075349    0.3859312   -0.2946057    0.8742223
  -0.0287911   -0.1052078   -0.0076421    0.3272454   -0.1663953    0.9301737
  -0.0277365   -0.1043066   -0.0079231    0.6751952   -0.3942135    0.6234638
  -0.0275980   -0.1033283   -0.0075432    0.5819218   -0.3864996    0.7155313
  -0.0270855   -0.1018992   -0.0071444    0.6114301   -0.4062268    0.6790678
  -0.0273857   -0.1008487   -0.0065666    0.1243209   -0.2519333    0.9597259
  -0.0267332   -0.1014388   -0.0071448    0.6733989   -0.4062317    0.6176647
  -0.0267701   -0.1004467   -0.0066261    0.3694071   -0.3031201    0.8784399
  -0.0270838   -0.1018939   -0.0071429    0.7399093   -0.3628953    0.5664284
  -0.0325243   -0.1110785   -0.0089563   -0.7313110    0.0400221    0.6808689
  -0.0316602   -0.1104019   -0.0082456   -0.6113588    0.1102421    0.7836371
  -0.0339907   -0.1105762   -0.0132517   -0.8446159    0.1576419   -0.5116376
  -0.0342389   -0.1101308   -0.0125740   -0.9150813    0.1709106   -0.3652612
  -0.0344453   -0.1102338   -0.0119931   -0.9609727    0.1371429   -0.2402569
  -0.0337810   -0.1110908   -0.0136362   -0.6720109    0.1444775   -0.7263110
  -0.0345092   -0.1103119   -0.0116505   -0.9976098    0.0655803   -0.0217685
  -0.0344983   -0.1106847   -0.0113291   -0.9757231    0.0410509    0.2151262
  -0.0342234   -0.1112283   -0.0106832   -0.7806111   -0.0533246    0.6227381
  -0.0334119   -0.1122079   -0.0100335   -0.7276056   -0.1625891    0.6664495
  -0.0344161   -0.1121464   -0.0111951   -0.9394342   -0.0688549    0.3357416
  -0.0343671   -0.1105580   -0.0109204   -0.9322752    0.0431472    0.3591674
  -0.0329349   -0.1101958   -0.0136836    0.1319054    0.1784473   -0.9750680
  -0.0333771   -0.1106189   -0.0137290   -0.1666355    0.1753133   -0.9703081
  -0.0335859   -0.1111134   -0.0137574   -0.3513225    0.0992787   -0.9309760
  -0.0326884   -0.1102218   -0.0135855    0.4359822    0.1617194   -0.8853058
  -0.0324893   -0.1103803   -0.0134830    0.5326857    0.1512057   -0.8326961
  -0.0313937   -0.1098258   -0.0125810    0.6144649    0.1735283   -0.7696238
  -0.0313530   -0.1093139   -0.0124355    0.6003315    0.1176929   -0.7910439
  -0.0305469   -0.1080597   -0.0117180    0.6832787    0.0359657   -0.7292714
  -0.0294376   -0.1069937   -0.0106402    0.8082590   -0.0709408   -0.5845381
  -0.0289104   -0.0971313   -0.0060064   -0.0484358    0.3109716    0.9491842
  -0.0294563   -0.0960667   -0.0065380    0.0443486    0.6087050    0.7921562
  -0.0285562   -0.0978679   -0.0059562    0.0922684   -0.0455161    0.9946933
  -0.0285759   -0.0971466   -0.0060035    0.0921661    0.2280318    0.9692816
  -0.0301120   -0.0957535   -0.0068401   -0.1285544    0.6465949    0.7519234
  -0.0291400   -0.0961714   -0.0065477    0.3010809    0.7381930    0.6036733
  -0.0294600   -0.0957157   -0.0083347    0.6406105    0.7677240    0.0147656
  -0.0294806   -0.0957195   -0.0086494    0.5552972    0.8274624    0.0833722
  -0.0292683   -0.0959959   -0.0078826    0.6853974    0.7254871    0.0624406
  -0.0286975   -0.0965682   -0.0064323    0.5723176    0.7825515    0.2450830
  -0.0290037   -0.0962826   -0.0071295    0.6985024    0.7149322    0.0310853
  -0.0292400   -0.0960086   -0.0075332    0.7074402    0.7064495    0.0213880
  -0.0287322   -0.0959596   -0.0088603    0.2990287    0.8020796    0.5169625
  -0.0288331   -0.0957878   -0.0090689    0.1562143    0.7505851    0.6420429
  -0.0287112   -0.0954236   -0.0094566    0.0279635    0.7668342    0.6412358
  -0.0290124   -0.0961123   -0.0082150    0.5944529    0.7918657    0.1399089
  -0.0287257   -0.0961440   -0.0085506    0.3838002    0.8060157    0.4505952
  -0.0283972   -0.0966227   -0.0079411    0.4438950    0.8551306    0.2677852
  -0.0275574   -0.0965785   -0.0115766    0.6367482    0.0009553   -0.7710712
  -0.0274715   -0.0977922   -0.0113541    0.6431964   -0.1317147   -0.7542875
  -0.0284999   -0.0959532   -0.0122109    0.5410952    0.1242641   -0.8317298
  -0.0276686   -0.0959745   -0.0116119    0.6602088    0.2694499   -0.7010857
  -0.0279475   -0.0953389   -0.0114461    0.6443586    0.5592789   -0.5215448
  -0.0285269   -0.0948718   -0.0113904    0.4254316    0.8177203   -0.3877389
  -0.0280986   -0.0948636   -0.0107115    0.4846093    0.8600710   -0.1594734
  -0.0283654   -0.0949513   -0.0100569    0.0264982    0.8795610    0.4750477
  -0.0276708   -0.0952950   -0.0100151    0.5286084    0.7831912    0.3273906
  -0.0276721   -0.0952100   -0.0103164    0.6121129    0.7893774    0.0469148
  -0.0280406   -0.0950128   -0.0100604    0.3171888    0.7945908    0.5177033
  -0.0280416   -0.0950825   -0.0112442    0.5888989    0.7308897   -0.3449614
  -0.0290031   -0.1055530   -0.0102063    0.8928407   -0.1886041   -0.4089792
  -0.0267797   -0.1018124   -0.0097734    0.5718138   -0.2041037   -0.7945884
  -0.0266421   -0.1006922   -0.0098968    0.6289138   -0.2101047   -0.7485476
  -0.0274950   -0.0985061   -0.0112080    0.6394745   -0.2131205   -0.7386826
  -0.0271099   -0.0984899   -0.0108642    0.6491864   -0.1691059   -0.7415930
  -0.0284498   -0.1053239   -0.0095863    0.6564430   -0.2700102   -0.7043984
  -0.0284106   -0.1047152   -0.0097896    0.5389542   -0.2641196   -0.7998558
  -0.0278167   -0.1043861   -0.0095642    0.6168076   -0.3489794   -0.7055223
  -0.0271917   -0.1023339   -0.0098896    0.4730425   -0.2478580   -0.8454568
  -0.0269932   -0.1029356   -0.0095658    0.7592684   -0.3046443   -0.5750681
  -0.0273831   -0.1039953   -0.0093991    0.6137277   -0.3873151   -0.6879864
  -0.0280799   -0.0985284   -0.0060963    0.1477657   -0.1572411    0.9764428
  -0.0268901   -0.0998965   -0.0064594    0.2145928   -0.1583351    0.9637842
  -0.0274553   -0.0986556   -0.0062866    0.2680416   -0.1029704    0.9578887
  -0.0311220   -0.1093428   -0.0080712   -0.4202329    0.1538147    0.8942848
  -0.0307441   -0.1096531   -0.0078411   -0.2324100    0.2157048    0.9483971
  -0.0300419   -0.1101643   -0.0076657    0.0644818    0.1267128    0.9898414
  -0.0294251   -0.1077783   -0.0078569    0.3251413   -0.1102657    0.9392149
  -0.0297321   -0.1088060   -0.0078943    0.3575431    0.0215375    0.9336483
  -0.0294959   -0.1100151   -0.0078398    0.2748396    0.0651775    0.9592784
  -0.0295559   -0.1082922   -0.0079014    0.8577228   -0.0096853    0.5140212
  -0.0295559   -0.1082922   -0.0079014    0.7587989   -0.0444699    0.6498051
  -0.0281758   -0.1052903   -0.0079786    0.7373999   -0.2714204    0.6185243
  -0.0280854   -0.1047859   -0.0078652    0.6921721   -0.3240484    0.6448957
  -0.0292737   -0.1083610   -0.0079432    0.2451842   -0.0858184    0.9656707
  -0.0287822   -0.1078921   -0.0081160    0.6978939   -0.1365045    0.7030722
  -0.0286562   -0.1076979   -0.0083084    0.9264624   -0.1510277    0.3447580
  -0.0279787   -0.1056084   -0.0086789    0.8766739   -0.4305040    0.2147303
  -0.0274605   -0.1042888   -0.0082703    0.8086388   -0.4018317    0.4296913
  -0.0266380   -0.1023639   -0.0082076    0.8731905   -0.4010349    0.2769646
  -0.0261838   -0.1013668   -0.0079616    0.8189187   -0.4479801    0.3587283
  -0.0269605   -0.1023685   -0.0076064    0.6955727   -0.4026562    0.5950181
  -0.0269375   -0.1018957   -0.0073086    0.9167310   -0.2225173    0.3317987
  -0.0267868   -0.1018931   -0.0074708    0.7038334   -0.4955437    0.5089745
  -0.0260614   -0.1004969   -0.0071766    0.7313661   -0.4207759    0.5367042
  -0.0269375   -0.1018957   -0.0073086    0.9788878   -0.1332941    0.1549557
  -0.0269375   -0.1018957   -0.0073086    0.9401954   -0.2248031    0.2559221
  -0.0262215   -0.1000094   -0.0067466    0.5631787   -0.2763129    0.7787689
  -0.0327344   -0.1120751   -0.0092035   -0.7187321   -0.1379706    0.6814604
  -0.0325178   -0.1117077   -0.0089245   -0.7469067    0.0336719    0.6640758
  -0.0311276   -0.1106818   -0.0077924   -0.4680739    0.1215286    0.8752929
  -0.0316417   -0.1110091   -0.0081070   -0.6212693    0.0850163    0.7789716
  -0.0341517   -0.1111405   -0.0130759   -0.8801433    0.0819024   -0.4675892
  -0.0342956   -0.1106607   -0.0126315   -0.9437833    0.0774140   -0.3213724
  -0.0344459   -0.1118864   -0.0121220   -0.9892287   -0.0077273   -0.1461741
  -0.0338611   -0.1121856   -0.0136627   -0.5672201    0.0183841   -0.8233610
  -0.0344969   -0.1120280   -0.0115688   -0.9976079   -0.0429872    0.0541340
  -0.0341618   -0.1123452   -0.0107838   -0.7259148   -0.2387632    0.6450115
  -0.0343096   -0.1125574   -0.0110827   -0.8683241   -0.1997773    0.4539848
  -0.0331625   -0.1132696   -0.0103252   -0.6702417   -0.4485984    0.5912153
  -0.0328978   -0.1129994   -0.0097504   -0.7670651   -0.3227422    0.5544805
  -0.0329044   -0.1124450   -0.0095359   -0.5996982   -0.2823706    0.7487516
  -0.0344332   -0.1126312   -0.0114870   -0.9598265   -0.1656142    0.2265061
  -0.0331366   -0.1112208   -0.0138389    0.1162522    0.0737967   -0.9904744
  -0.0328632   -0.1107703   -0.0137187    0.3796082    0.0879456   -0.9209578
  -0.0336542   -0.1125688   -0.0137582   -0.1595812   -0.0953094   -0.9825731
  -0.0334048   -0.1122660   -0.0138449   -0.1016814   -0.0577512   -0.9931393
  -0.0312781   -0.1109397   -0.0127409    0.6653820    0.0856702   -0.7415709
  -0.0321722   -0.1115881   -0.0135193    0.5115429    0.0506087   -0.8577660
  -0.0310674   -0.1104845   -0.0124227    0.6317171    0.0980624   -0.7689716
  -0.0298942   -0.1089447   -0.0112400    0.7297437    0.1028667   -0.6759383
  -0.0299949   -0.1099139   -0.0114883    0.6343807    0.1406430   -0.7601189
  -0.0294836   -0.1081123   -0.0106199    0.8254724    0.0227859   -0.5639824
  -0.0288478   -0.1074703   -0.0095524    0.8830384   -0.0568444   -0.4658453
  -0.0293674   -0.1082077   -0.0104004    0.8911330   -0.0017729   -0.4537387
  -0.0292257   -0.1065768   -0.0103375    0.9315843   -0.1628367   -0.3250152
  -0.0289647   -0.1068013   -0.0098068    0.8583388   -0.0872523   -0.5056101
  -0.0286983   -0.0968117   -0.0061265    0.1669774    0.5553674    0.8146690
  -0.0274815   -0.0981184   -0.0061715    0.3281160   -0.0270501    0.9442501
  -0.0282676   -0.0972901   -0.0060186    0.2015273    0.2364020    0.9505266
  -0.0279769   -0.0975190   -0.0060460    0.2729699    0.1538011    0.9496487
  -0.0283851   -0.0969309   -0.0061382    0.3549267    0.6260882    0.6942914
  -0.0286366   -0.0965765   -0.0072673    0.5711913    0.8173396    0.0754742
  -0.0281217   -0.0968600   -0.0067954    0.4476673    0.8818446    0.1481352
  -0.0284134   -0.0958351   -0.0091738    0.2572434    0.6858361    0.6807750
  -0.0282759   -0.0963115   -0.0087345    0.3287488    0.7938999    0.5115146
  -0.0280686   -0.0955823   -0.0094688    0.2420529    0.6550435    0.7157712
  -0.0278562   -0.0969958   -0.0071455    0.3825409    0.9211007    0.0723599
  -0.0275996   -0.0969563   -0.0078072    0.1933302    0.9190885    0.3433653
  -0.0268148   -0.0964428   -0.0108187    0.7518083    0.1123931   -0.6497323
  -0.0269983   -0.0960843   -0.0108640    0.7393960    0.4099986   -0.5340363
  -0.0271858   -0.0955694   -0.0104599    0.6628691    0.7421627   -0.0989904
  -0.0267383   -0.0959640   -0.0103402    0.7688950    0.5774689   -0.2744633
  -0.0261880   -0.0965084   -0.0092328    0.4497388    0.8650743    0.2222193
  -0.0275437   -0.0961483   -0.0091135    0.1783444    0.7719627    0.6101368
  -0.0262227   -0.0964616   -0.0095625    0.7132017    0.6880230   -0.1340434
  -0.0290815   -0.1058941   -0.0102452    0.9660861   -0.1914262   -0.1733023
  -0.0287609   -0.1057436   -0.0097782    0.7954579   -0.2372988   -0.5576163
  -0.0268353   -0.1024591   -0.0095660    0.7803580   -0.3217566   -0.5362034
  -0.0264728   -0.1014071   -0.0095821    0.7383157   -0.2002487   -0.6440422
  -0.0260146   -0.0980310   -0.0099972    0.7444660   -0.0823129   -0.6625669
  -0.0256165   -0.0983150   -0.0093938    0.8510638   -0.1357906   -0.5071995
  -0.0260587   -0.1004617   -0.0093100    0.8084705   -0.1794509   -0.5605112
  -0.0284420   -0.1057877   -0.0093819    0.6472202   -0.4005384   -0.6485947
  -0.0282416   -0.1057415   -0.0092045    0.7050922   -0.4296521   -0.5641313
  -0.0280146   -0.1055653   -0.0090087    0.8210267   -0.4307476   -0.3746622
  -0.0274911   -0.1046605   -0.0088752    0.8480285   -0.4667849   -0.2509173
  -0.0270336   -0.1036421   -0.0090113    0.9345340   -0.3319824   -0.1281951
  -0.0272372   -0.1039204   -0.0092716    0.8055621   -0.4097511   -0.4279880
  -0.0269360   -0.1032286   -0.0085806    0.9304259   -0.3651165   -0.0315836
  -0.0265687   -0.0994175   -0.0064886    0.3610944    0.0003022    0.9325292
  -0.0267890   -0.0982278   -0.0064925    0.3767942    0.0330675    0.9257066
  -0.0272687   -0.0980736   -0.0062799    0.4175404    0.0183712    0.9084726
  -0.0307472   -0.1103105   -0.0076968   -0.3212432    0.1591642    0.9335253
  -0.0304835   -0.1103525   -0.0076237   -0.0686442    0.1138430    0.9911245
  -0.0297909   -0.1110941   -0.0076995    0.2230983   -0.0182251    0.9746256
  -0.0295873   -0.1088427   -0.0079071    0.1910132    0.0215630    0.9813506
  -0.0290830   -0.1106593   -0.0079743    0.5019717    0.0063695    0.8648606
  -0.0291864   -0.1094966   -0.0079956    0.2277995    0.0222261    0.9734544
  -0.0293646   -0.1088947   -0.0079560    0.4168901   -0.0142637    0.9088450
  -0.0293147   -0.1087628   -0.0079629    0.2062074   -0.0367598    0.9778176
  -0.0283105   -0.1062719   -0.0083550    0.9500119   -0.2957036    0.1001840
  -0.0290342   -0.1084071   -0.0080239    0.5148072   -0.0311044    0.8567415
  -0.0286294   -0.1089971   -0.0088238    0.9772469   -0.0587291    0.2038120
  -0.0285909   -0.1078778   -0.0088355    0.9728923   -0.0258869   -0.2298052
  -0.0285500   -0.1071953   -0.0088271    0.9783852   -0.1751454   -0.1099385
  -0.0275350   -0.1047339   -0.0086151    0.8790273   -0.4373104    0.1899227
  -0.0282711   -0.1061025   -0.0089196    0.8497750   -0.3640578   -0.3812406
  -0.0272770   -0.1042210   -0.0087022    0.9151501   -0.3861681    0.1156483
  -0.0262545   -0.1017640   -0.0084828    0.8992695   -0.4168461    0.1324906
  -0.0267926   -0.1019051   -0.0074754    0.8085051   -0.3955929    0.4356900
  -0.0256542   -0.0999809   -0.0074272    0.8838045   -0.3290057    0.3326333
  -0.0256784   -0.1003355   -0.0081469    0.9418518   -0.3355250    0.0183888
  -0.0261243   -0.0994917   -0.0066815    0.5951321   -0.0931650    0.7982093
  -0.0255358   -0.0994765   -0.0073422    0.8832896   -0.1973029    0.4252893
  -0.0321115   -0.1124512   -0.0085018   -0.7047512   -0.1511652    0.6931629
  -0.0322850   -0.1131508   -0.0089535   -0.7545277   -0.2619386    0.6017276
  -0.0325973   -0.1126783   -0.0091972   -0.7990481   -0.2049630    0.5652542
  -0.0327422   -0.1125847   -0.0093850    0.9600457   -0.0894815    0.2651516
  -0.0327422   -0.1125847   -0.0093850    0.7658971   -0.2322911    0.5995352
  -0.0320575   -0.1119400   -0.0083719   -0.6799667   -0.0140510    0.7331083
  -0.0310525   -0.1112889   -0.0077176   -0.3905078    0.0173075    0.9204369
  -0.0306904   -0.1108556   -0.0076236   -0.1629434    0.0473231    0.9854998
  -0.0314787   -0.1122202   -0.0079707   -0.5369598   -0.0599631    0.8414741
  -0.0341331   -0.1122070   -0.0133116   -0.8563311    0.0314731   -0.5154672
  -0.0342384   -0.1128025   -0.0130847   -0.9220456   -0.0950135   -0.3752390
  -0.0343737   -0.1127197   -0.0126162   -0.9779065   -0.0644313   -0.1988656
  -0.0344084   -0.1130459   -0.0120407   -0.9793770   -0.1983489   -0.0384506
  -0.0344489   -0.1128040   -0.0117902   -0.9880414   -0.1476375    0.0444678
  -0.0338411   -0.1127659   -0.0136208    0.9459771   -0.0303826   -0.3228068
  -0.0338411   -0.1127659   -0.0136208    0.7456903   -0.0977208   -0.6590877
  -0.0340070   -0.1127592   -0.0134730   -0.7713514   -0.0802861   -0.6313249
  -0.0341100   -0.1132325   -0.0111735   -0.6805595   -0.4649064    0.5663045
  -0.0342447   -0.1132681   -0.0114215   -0.8745511   -0.3778539    0.3039519
  -0.0321436   -0.1138904   -0.0093892   -0.7179226   -0.5624450    0.4101741
  -0.0330757   -0.1135613   -0.0105322   -0.5503372   -0.7068276    0.4444364
  -0.0336499   -0.1135459   -0.0110373   -0.5370005   -0.6355806    0.5546780
  -0.0325828   -0.1131877   -0.0094037   -0.7914345   -0.3393971    0.5083711
  -0.0327422   -0.1125847   -0.0093850    0.3256643   -0.3591582    0.8746132
  -0.0325790   -0.1119803   -0.0137115    0.4068881   -0.0266543   -0.9130890
  -0.0328843   -0.1124296   -0.0138024    0.2222008   -0.1227421   -0.9672441
  -0.0336309   -0.1127979   -0.0137282   -0.2347819   -0.2009991   -0.9510399
  -0.0331116   -0.1129452   -0.0137385    0.1066284   -0.2737077   -0.9558841
  -0.0338411   -0.1127659   -0.0136208    0.2725059   -0.2626750   -0.9256038
  -0.0301532   -0.1121070   -0.0117423    0.5799294   -0.1321438   -0.8038781
  -0.0309689   -0.1122881   -0.0122607    0.6396944   -0.2810696   -0.7153957
  -0.0313455   -0.1114501   -0.0128555    0.7228110   -0.0213174   -0.6907169
  -0.0314680   -0.1119630   -0.0129086    0.6845111   -0.1589746   -0.7114574
  -0.0321011   -0.1121939   -0.0134395    0.6015155   -0.2015500   -0.7730179
  -0.0299074   -0.1116450   -0.0116353    0.5590216   -0.0635724   -0.8267124
  -0.0293378   -0.1113626   -0.0112259    0.6836019    0.0737515   -0.7261192
  -0.0297697   -0.1095495   -0.0112199    0.7579935    0.1727645   -0.6289661
  -0.0293104   -0.1093229   -0.0104947    0.8787162    0.1371034   -0.4572314
  -0.0294116   -0.1087184   -0.0105412    0.9069509    0.0558878   -0.4175125
  -0.0292995   -0.1108517   -0.0110780    0.7488377    0.1832322   -0.6369208
  -0.0293713   -0.1082383   -0.0104073    0.8780036    0.0271803   -0.4778817
  -0.0292312   -0.1083023   -0.0102030    0.8491799    0.0140731   -0.5279162
  -0.0288146   -0.1080767   -0.0094300    0.9169570   -0.0323822   -0.3976697
  -0.0291093   -0.1083979   -0.0099899    0.8786205    0.0016978   -0.4775176
  -0.0287771   -0.1063505   -0.0096003    0.8371533   -0.1270774   -0.5320016
  -0.0292981   -0.1088129   -0.0103184    0.9607842    0.0104426   -0.2771004
  -0.0292981   -0.1088129   -0.0103184    0.9785059    0.0137319   -0.2057611
  -0.0277842   -0.0972941   -0.0061793    0.4343576    0.3834015    0.8150686
  -0.0280796   -0.0970874   -0.0061553    0.3805021    0.6201311    0.6860434
  -0.0276341   -0.0970595   -0.0066478    0.4007579    0.8608826    0.3134872
  -0.0279524   -0.0961648   -0.0090446    0.1817106    0.6975881    0.6930744
  -0.0276295   -0.0964535   -0.0087443    0.0908124    0.8286969    0.5522813
  -0.0273961   -0.0971131   -0.0073227    0.1061076    0.9564629    0.2718823
  -0.0270125   -0.0973222   -0.0066747    0.3552897    0.8120920    0.4628994
  -0.0271161   -0.0967444   -0.0082736    0.0058595    0.9018935    0.4319188
  -0.0260701   -0.0974246   -0.0100946    0.8031370    0.0707498   -0.5915787
  -0.0263685   -0.0967398   -0.0102744    0.8151418    0.3320044   -0.4746756
  -0.0264516   -0.0965812   -0.0085762    0.1767827    0.8933154    0.4132015
  -0.0257279   -0.0968437   -0.0091049    0.7120574    0.6980369   -0.0756222
  -0.0260950   -0.0966017   -0.0089862    0.4393617    0.8797053    0.1818787
  -0.0257896   -0.0969270   -0.0094526    0.8083007    0.3600725   -0.4658302
  -0.0264430   -0.1020986   -0.0091013    0.8789337   -0.3900881   -0.2744208
  -0.0263394   -0.1014888   -0.0093768    0.8584263   -0.2652714   -0.4390165
  -0.0254712   -0.0978690   -0.0091293    0.9103459    0.0126153   -0.4136560
  -0.0257289   -0.1001409   -0.0087898    0.9280633   -0.2345599   -0.2892751
  -0.0254344   -0.0985062   -0.0088982    0.9534096   -0.1153459   -0.2787569
  -0.0262261   -0.1016815   -0.0088040    0.9259551   -0.3512020   -0.1387960
  -0.0262126   -0.0983106   -0.0067879    0.5282731    0.2186089    0.8204497
  -0.0266169   -0.0979717   -0.0065912    0.5187802    0.1885116    0.8338648
  -0.0259439   -0.0986972   -0.0068491    0.5533988    0.1388846    0.8212557
  -0.0270638   -0.0977891   -0.0064048    0.4611618    0.2523262    0.8506829
  -0.0293190   -0.1111838   -0.0078672    0.3412700   -0.0746631    0.9369953
  -0.0305321   -0.1114723   -0.0076010    0.0022266   -0.0471674    0.9988845
  -0.0297339   -0.1116479   -0.0077947    0.2525981   -0.1236919    0.9596325
