NORM_ASCII
1111 2218
   0.0326152   -0.1490814    0.0185561    0.7348575   -0.6351151   -0.2379355
   0.0299295   -0.1486150    0.0194970   -0.2757145   -0.2445237    0.9296180
   0.0302948   -0.1481242    0.0196215   -0.1036898    0.0247177    0.9943025
   0.0304320   -0.1492448    0.0193809   -0.1839520   -0.5772621    0.7955690
   0.0303203   -0.1490074    0.0194672   -0.2427783   -0.3915914    0.8875330
   0.0305802   -0.1494343    0.0192212   -0.2226917   -0.7161739    0.6614404
   0.0318289   -0.1472585    0.0195397    0.0681544    0.2378118    0.9689172
   0.0313392   -0.1475787    0.0195451   -0.0373475    0.1237865    0.9916058
   0.0324467   -0.1470390    0.0193637    0.2637993    0.3378607    0.9034711
   0.0327890   -0.1488222    0.0186366    0.8662640   -0.4795995   -0.1398966
   0.0331525   -0.1479239    0.0185434    0.9737979   -0.2208358    0.0543066
   0.0329949   -0.1483837    0.0184801    0.9073253   -0.3896432   -0.1579209
   0.0332581   -0.1470409    0.0185609    0.9780163   -0.0682669    0.1970375
   0.0326940   -0.1470239    0.0192473    0.5315781    0.2027250    0.8223912
   0.0331883   -0.1470240    0.0187693    0.8736497    0.0092221    0.4864681
   0.0328851   -0.1470188    0.0191018    0.5840834    0.1609706    0.7955721
   0.0330644   -0.1470174    0.0189500    0.6919959    0.0959318    0.7154989
   0.0325419   -0.1489052    0.0181771    0.6457220   -0.5699078   -0.5081813
   0.0324004   -0.1488346    0.0179397    0.5362559   -0.5603163   -0.6312489
   0.0319260   -0.1492429    0.0179532    0.3915908   -0.6662157   -0.6346757
   0.0305161   -0.1495950    0.0189480   -0.3810594   -0.8717798    0.3078859
   0.0306495   -0.1496832    0.0187760   -0.3708735   -0.9280108    0.0353385
   0.0307726   -0.1497068    0.0185957   -0.2396421   -0.9627362   -0.1253425
   0.0311065   -0.1497440    0.0185275   -0.0537978   -0.9471525   -0.3162402
   0.0312265   -0.1495024    0.0180879   -0.0159820   -0.8253930   -0.5643323
   0.0308884   -0.1496780    0.0184093   -0.1579482   -0.9045651   -0.3959979
   0.0317540   -0.1490506    0.0177200    0.2323216   -0.5904885   -0.7728842
   0.0314905   -0.1491168    0.0177180    0.0567566   -0.5249412   -0.8492441
   0.0311835   -0.1492572    0.0178082   -0.0622302   -0.6903079   -0.7208345
   0.0328423   -0.1482081    0.0178995    0.7911488   -0.4366892   -0.4282360
   0.0301049   -0.1490420    0.0193809   -0.3591981   -0.4771875    0.8020404
   0.0297248   -0.1486503    0.0193947   -0.5093511   -0.3488249    0.7866909
   0.0298521   -0.1489582    0.0193087   -0.4592518   -0.4678731    0.7551043
   0.0298134   -0.1481918    0.0195241   -0.2825779   -0.0750954    0.9563004
   0.0296440   -0.1483743    0.0194199   -0.4923338   -0.2026299    0.8464919
   0.0299194   -0.1477436    0.0195380   -0.1701668    0.0692993    0.9829755
   0.0302309   -0.1492920    0.0192768   -0.3145964   -0.6650428    0.6773087
   0.0303740   -0.1494464    0.0191129   -0.2945371   -0.8285496    0.4761864
   0.0316497   -0.1466907    0.0194206    0.1895283    0.1411515    0.9716765
   0.0320844   -0.1462316    0.0192122    0.3223703    0.1941939    0.9264805
   0.0325607   -0.1466159    0.0191593    0.3729291    0.3069937    0.8756019
   0.0309702   -0.1471877    0.0195415    0.0337462    0.0515466    0.9981003
   0.0331621   -0.1475711    0.0180407    0.9228204   -0.2626707   -0.2817917
   0.0332629   -0.1470903    0.0181444    0.9634967   -0.1303990   -0.2338167
   0.0332757   -0.1466060    0.0185512    0.9601349    0.0602487    0.2729672
   0.0332655   -0.1468781    0.0180652    0.9940574   -0.0519022   -0.0956869
   0.0330287   -0.1465909    0.0189129    0.6073882    0.1825266    0.7731517
   0.0331799   -0.1465944    0.0187464    0.7897582    0.1609237    0.5919337
   0.0328696   -0.1465997    0.0189997    0.4865198    0.2203726    0.8454197
   0.0327143   -0.1479491    0.0175744    0.6181046   -0.4315605   -0.6570405
   0.0319976   -0.1489233    0.0177310    0.3958922   -0.5170898   -0.7588725
   0.0325357   -0.1477061    0.0173323    0.4465781   -0.3484226   -0.8241176
   0.0322889   -0.1481557    0.0174407    0.3952704   -0.4279035   -0.8128099
   0.0302948   -0.1495075    0.0188274   -0.4032999   -0.9017619    0.1554819
   0.0303258   -0.1495232    0.0187848   -0.3973581   -0.9132390   -0.0900059
   0.0305489   -0.1496057    0.0184732   -0.3814428   -0.8893128   -0.2522381
   0.0299559   -0.1492294    0.0183904   -0.5083067   -0.8014317   -0.3151690
   0.0309131   -0.1495276    0.0181696   -0.1425451   -0.7729082   -0.6182991
   0.0304298   -0.1494053    0.0181557   -0.3326330   -0.7888576   -0.5167774
   0.0318096   -0.1486390    0.0174882    0.2051745   -0.4493379   -0.8694819
   0.0309383   -0.1490118    0.0176683   -0.0238037   -0.4783015   -0.8778730
   0.0318454   -0.1478088    0.0171391    0.1716483   -0.3645065   -0.9152442
   0.0312833   -0.1483329    0.0173284    0.0451565   -0.4293064   -0.9020293
   0.0306190   -0.1490722    0.0177485   -0.1457426   -0.6030635   -0.7842662
   0.0302867   -0.1490449    0.0178184   -0.3044980   -0.6670786   -0.6799170
   0.0330502   -0.1475914    0.0177904    0.8285910   -0.2548414   -0.4984906
   0.0300194   -0.1492708    0.0191645   -0.4986142   -0.6877326    0.5276436
   0.0299165   -0.1490804    0.0192536   -0.5240005   -0.5817448    0.6220904
   0.0296291   -0.1488591    0.0191867   -0.6587377   -0.5463129    0.5173073
   0.0295556   -0.1486899    0.0192382   -0.6695019   -0.3624996    0.6483527
   0.0294979   -0.1478044    0.0194407   -0.4400588   -0.0256590    0.8976023
   0.0294187   -0.1482616    0.0192961   -0.6727081   -0.2752655    0.6867988
   0.0304762   -0.1468102    0.0195451   -0.0405857    0.0390267    0.9984136
   0.0301784   -0.1459868    0.0194686   -0.1409266    0.1118220    0.9836847
   0.0294165   -0.1469665    0.0192677   -0.3644871    0.1335602    0.9215806
   0.0296730   -0.1456357    0.0192602   -0.4229602    0.0878162    0.9018830
   0.0301620   -0.1494213    0.0189999   -0.3867618   -0.8756080    0.2893544
   0.0318855   -0.1458134    0.0192607    0.3845397    0.1438372    0.9118333
   0.0309163   -0.1458977    0.0194916    0.1057764    0.0624625    0.9924262
   0.0328544   -0.1461833    0.0188745    0.3953184    0.2742698    0.8766410
   0.0304664   -0.1463804    0.0195212   -0.0922882    0.0587455    0.9939979
   0.0329107   -0.1472159    0.0174419    0.7547561   -0.2079042   -0.6221889
   0.0331731   -0.1468514    0.0177691    0.9090320   -0.1568183   -0.3860943
   0.0332950   -0.1464890    0.0183101    0.9954801    0.0464390    0.0828420
   0.0331064   -0.1461751    0.0186897    0.7595159    0.2274221    0.6094381
   0.0331598   -0.1457629    0.0184536    0.8322329    0.2259201    0.5063087
   0.0332678   -0.1462581    0.0178417    0.9682501   -0.1303298   -0.2133212
   0.0332963   -0.1457068    0.0180310    0.9836895    0.0654160    0.1675584
   0.0332762   -0.1462096    0.0182401    0.9995570    0.0270683    0.0123718
   0.0329316   -0.1461772    0.0188436    0.5423249    0.2809081    0.7918171
   0.0327381   -0.1476687    0.0174391    0.6253522   -0.3100734   -0.7160929
   0.0327242   -0.1468371    0.0171642    0.5251157   -0.2121543   -0.8241627
   0.0324325   -0.1473053    0.0171517    0.3555228   -0.2787949   -0.8921193
   0.0300717   -0.1494103    0.0187055   -0.4731151   -0.8761504   -0.0923180
   0.0298294   -0.1491843    0.0185678   -0.6714923   -0.7007085   -0.2410514
   0.0298209   -0.1489237    0.0180596   -0.5531311   -0.6159206   -0.5609704
   0.0301840   -0.1491559    0.0180150   -0.4705480   -0.7054655   -0.5300028
   0.0306801   -0.1487615    0.0175455   -0.0652581   -0.4796510   -0.8750293
   0.0304259   -0.1483801    0.0173704   -0.1213453   -0.3992966   -0.9087560
   0.0310107   -0.1483173    0.0173112   -0.0016923   -0.4259802   -0.9047309
   0.0313160   -0.1477614    0.0170746    0.0557518   -0.3571721   -0.9323732
   0.0320752   -0.1470644    0.0169527    0.2259520   -0.2514996   -0.9411130
   0.0303678   -0.1487915    0.0176047   -0.2726432   -0.5204827   -0.8091745
   0.0297900   -0.1491306    0.0190371   -0.6684024   -0.6474951    0.3660441
   0.0299398   -0.1493318    0.0188786   -0.6393334   -0.7603295    0.1146814
   0.0297802   -0.1491215    0.0190317   -0.7412871   -0.6450796    0.1853799
   0.0294836   -0.1487136    0.0191036   -0.7693310   -0.4908786    0.4088618
   0.0292379   -0.1474207    0.0192733   -0.5575815    0.0639024    0.8276590
   0.0290841   -0.1478912    0.0191036   -0.6975067   -0.2069519    0.6860432
   0.0291403   -0.1483436    0.0189065   -0.7789230   -0.4429845    0.4438961
   0.0304343   -0.1459545    0.0194860   -0.1914179    0.0580509    0.9797904
   0.0304340   -0.1459221    0.0194843   -0.1434222    0.0804280    0.9863881
   0.0292052   -0.1470014    0.0191750   -0.5667677    0.1260672    0.8141753
   0.0287175   -0.1454037    0.0184969   -0.6816596    0.1259746    0.7207431
   0.0294130   -0.1452521    0.0190931   -0.6756554    0.0037620    0.7372080
   0.0293960   -0.1439870    0.0190991   -0.4336586   -0.0094029    0.9010282
   0.0330140   -0.1457604    0.0186228    0.5608685    0.3245800    0.7616262
   0.0315221   -0.1454106    0.0193527    0.2486450    0.0771807    0.9655148
   0.0318477   -0.1453885    0.0192226    0.4666209    0.1511464    0.8714469
   0.0328846   -0.1453510    0.0185369    0.5577300    0.2771194    0.7823951
   0.0308745   -0.1452915    0.0194434    0.0748472    0.0633396    0.9951814
   0.0330372   -0.1463427    0.0173668    0.7877835   -0.1631336   -0.5939568
   0.0332514   -0.1457758    0.0182565    0.9554377    0.1482629    0.2552586
   0.0329778   -0.1449322    0.0183218    0.7776045    0.2735990    0.5661050
   0.0332404   -0.1458668    0.0175158    0.8915479   -0.1478874   -0.4281023
   0.0333275   -0.1458221    0.0178061    0.9978364   -0.0467254   -0.0462528
   0.0332616   -0.1449702    0.0177344    0.9646767    0.1761373    0.1958940
   0.0326777   -0.1461289    0.0169840    0.5790417   -0.1590296   -0.7996376
   0.0324700   -0.1461312    0.0168744    0.3338547   -0.1615495   -0.9286780
   0.0294394   -0.1487763    0.0185908   -0.7400823   -0.6675474   -0.0816010
   0.0292295   -0.1484147    0.0182179   -0.7438830   -0.6082996   -0.2767846
   0.0294358   -0.1485490    0.0180865   -0.6419185   -0.6214484   -0.4491576
   0.0300829   -0.1484062    0.0174751   -0.3548655   -0.4667671   -0.8100611
   0.0296296   -0.1484248    0.0177471   -0.4764390   -0.5251212   -0.7051621
   0.0292703   -0.1480403    0.0177309   -0.5785156   -0.5141547   -0.6332177
   0.0309488   -0.1479130    0.0171337   -0.0285552   -0.3795902   -0.9247140
   0.0299104   -0.1471750    0.0170462   -0.2959286   -0.3139007   -0.9021600
   0.0307525   -0.1475821    0.0170159   -0.0922017   -0.3191501   -0.9432084
   0.0302226   -0.1471497    0.0169636   -0.1529454   -0.2357185   -0.9597106
   0.0311314   -0.1474782    0.0169650    0.0071043   -0.2736880   -0.9617923
   0.0317844   -0.1465550    0.0167883    0.1161890   -0.1910861   -0.9746724
   0.0294071   -0.1487561    0.0188190   -0.7695258   -0.6165232    0.1665207
   0.0289489   -0.1474846    0.0190144   -0.7241015   -0.0238910    0.6892795
   0.0291326   -0.1483328    0.0189019   -0.8218299   -0.4192305    0.3857996
   0.0289832   -0.1479191    0.0189828   -0.7950624   -0.2453791    0.5546755
   0.0291377   -0.1483447    0.0188979   -0.8257710   -0.5080339    0.2449569
   0.0305423   -0.1450786    0.0194475    0.0153736    0.0580950    0.9981927
   0.0303963   -0.1442354    0.0193913    0.0101216    0.0951551    0.9954110
   0.0299696   -0.1434262    0.0193083   -0.1274219    0.0535970    0.9903994
   0.0288411   -0.1470770    0.0189012   -0.7087224    0.0224806    0.7051292
   0.0285980   -0.1462772    0.0185614   -0.7494689    0.0933341    0.6554275
   0.0284203   -0.1458991    0.0182699   -0.8379817    0.0757383    0.5404168
   0.0283784   -0.1450637    0.0180379   -0.8063227    0.1854679    0.5616453
   0.0286673   -0.1441524    0.0181293   -0.8807158    0.1320123    0.4548764
   0.0288694   -0.1449476    0.0185315   -0.7418324    0.1106683    0.6613904
   0.0288290   -0.1445296    0.0184443   -0.8097933    0.0247927    0.5861912
   0.0291359   -0.1435684    0.0189202   -0.6985175   -0.0378189    0.7145929
   0.0289192   -0.1440692    0.0185721   -0.8314810   -0.0192046    0.5552211
   0.0295115   -0.1434955    0.0191758   -0.4242290   -0.0110465    0.9054876
   0.0311814   -0.1441536    0.0193098    0.1910339    0.1216697    0.9740136
   0.0310288   -0.1445959    0.0193891    0.1127675    0.0855043    0.9899356
   0.0323457   -0.1449572    0.0187278    0.5944050    0.2143412    0.7750745
   0.0318474   -0.1432604    0.0188839    0.6138281    0.1456522    0.7758870
   0.0314000   -0.1432811    0.0191412    0.3441870    0.1453278    0.9275856
   0.0327782   -0.1449397    0.0184629    0.5684885    0.2792478    0.7738485
   0.0328440   -0.1458476    0.0170594    0.7055768   -0.1348806   -0.6956785
   0.0329972   -0.1445278    0.0180681    0.8249930    0.2933767    0.4830286
   0.0328623   -0.1445211    0.0182428    0.6474067    0.3260246    0.6888922
   0.0333004   -0.1454235    0.0175282    0.9821735    0.0042146   -0.1879294
   0.0332936   -0.1454273    0.0175077    0.8560145   -0.0583675   -0.5136461
   0.0332514   -0.1450006    0.0174840    0.9626352    0.1332061   -0.2357743
   0.0330967   -0.1445381    0.0178749    0.8823183    0.3238281    0.3415402
   0.0331633   -0.1445563    0.0176645    0.9362753    0.3379956    0.0956430
   0.0328226   -0.1455448    0.0169839    0.5978154   -0.1115273   -0.7938377
   0.0323026   -0.1447774    0.0166498    0.2332350   -0.0203583   -0.9722073
   0.0316927   -0.1461417    0.0167109    0.0814074   -0.1492378   -0.9854445
   0.0319441   -0.1456841    0.0166635    0.0833578   -0.0936056   -0.9921136
   0.0291036   -0.1483793    0.0186424   -0.8321016   -0.5533034    0.0382386
   0.0291106   -0.1480335    0.0178926   -0.7229131   -0.5044452   -0.4721565
   0.0289015   -0.1479769    0.0182722   -0.8429759   -0.4760877   -0.2504640
   0.0288614   -0.1479896    0.0184978   -0.8943501   -0.4471086   -0.0152214
   0.0292864   -0.1476297    0.0174754   -0.4361248   -0.4034837   -0.8043606
   0.0287602   -0.1468304    0.0174092   -0.5758193   -0.3428962   -0.7421956
   0.0297309   -0.1465425    0.0169241   -0.2245583   -0.2004243   -0.9536266
   0.0308643   -0.1466620    0.0167887   -0.0608130   -0.1394844   -0.9883551
   0.0305967   -0.1462602    0.0167848   -0.0900531   -0.1129123   -0.9895157
   0.0287639   -0.1475362    0.0187546   -0.8885208   -0.1917490    0.4168490
   0.0288833   -0.1479571    0.0187541   -0.8870055   -0.3815872    0.2600239
   0.0307464   -0.1429138    0.0192234    0.1446254    0.1117226    0.9831590
   0.0300900   -0.1425526    0.0192419   -0.0583577    0.0832383    0.9948195
   0.0293721   -0.1426536    0.0190905   -0.4250357    0.0365072    0.9044401
   0.0286844   -0.1471156    0.0187267   -0.8149419   -0.0470141    0.5776326
   0.0285371   -0.1467245    0.0185179   -0.8725809   -0.0485034    0.4860555
   0.0284975   -0.1467368    0.0184494   -0.9046739   -0.0456427    0.4236530
   0.0283746   -0.1454874    0.0181324   -0.8809194    0.0723514    0.4677031
   0.0283828   -0.1463490    0.0181741   -0.9549849   -0.0521266    0.2920388
   0.0283171   -0.1459412    0.0180149   -0.9495708   -0.0379540    0.3112471
   0.0282586   -0.1451048    0.0178087   -0.9437539    0.1474078    0.2959721
   0.0283967   -0.1446438    0.0178614   -0.8884556    0.3106720    0.3378307
   0.0283943   -0.1446491    0.0178603   -0.9102203    0.2988856    0.2866468
   0.0285991   -0.1438164    0.0176862   -0.9956264    0.0791948    0.0495598
   0.0286890   -0.1432723    0.0182120   -0.9337321   -0.0631633    0.3523561
   0.0284969   -0.1442298    0.0176502   -0.9512627    0.3039839    0.0518952
   0.0290016   -0.1427288    0.0188263   -0.6377554   -0.0090014    0.7701863
   0.0288352   -0.1427667    0.0186660   -0.8089165   -0.0711399    0.5836036
   0.0321696   -0.1435962    0.0185761    0.7423590    0.1527372    0.6523607
   0.0324783   -0.1445313    0.0185332    0.6053167    0.2184954    0.7654093
   0.0320879   -0.1424122    0.0184816    0.8008459    0.1170326    0.5873238
   0.0313386   -0.1424364    0.0190062    0.3543973    0.1368795    0.9250225
   0.0317463   -0.1424159    0.0187939    0.5533520    0.1267637    0.8232451
   0.0323962   -0.1432805    0.0181894    0.8405106    0.2191422    0.4954984
   0.0326126   -0.1437020    0.0180756    0.8166612    0.3625015    0.4490624
   0.0331176   -0.1450492    0.0172142    0.8251271    0.0164229   -0.5647084
   0.0331619   -0.1445859    0.0174109    0.9293425    0.2064932   -0.3060769
   0.0331542   -0.1445623    0.0174139    0.9280122    0.3542335   -0.1153776
   0.0329954   -0.1441594    0.0175136    0.9064062    0.4194112   -0.0502205
   0.0327708   -0.1437332    0.0176680    0.9303920    0.3623301    0.0555667
   0.0327247   -0.1447057    0.0168363    0.4906523   -0.0119025   -0.8712741
   0.0329086   -0.1446690    0.0169699    0.7214771    0.0691505   -0.6889768
   0.0316556   -0.1448529    0.0166355   -0.0675800   -0.0310094   -0.9972318
   0.0324362   -0.1443201    0.0167117    0.3498681    0.0819971   -0.9332035
   0.0316782   -0.1444184    0.0166201   -0.0403920   -0.0545727   -0.9976925
   0.0318661   -0.1439647    0.0166007    0.1534318   -0.0158421   -0.9880322
   0.0323191   -0.1438970    0.0167403    0.4002738    0.1706014   -0.9003755
   0.0319089   -0.1430859    0.0166518    0.5663146    0.0997817   -0.8181268
   0.0313922   -0.1457472    0.0166721   -0.0615931   -0.0429838   -0.9971753
   0.0316413   -0.1455776    0.0166593   -0.0620015   -0.0182308   -0.9979095
   0.0285838   -0.1472058    0.0180710   -0.8650157   -0.4217588   -0.2717856
   0.0287014   -0.1475867    0.0183960   -0.9383876   -0.3383183    0.0704946
   0.0284833   -0.1468218    0.0177553   -0.8787103   -0.3360026   -0.3390729
   0.0285115   -0.1464131    0.0175063   -0.7927785   -0.2444479   -0.5583435
   0.0293425   -0.1461462    0.0169483   -0.2797116   -0.2148047   -0.9357459
   0.0284343   -0.1459953    0.0174473   -0.8671739   -0.2203606   -0.4465989
   0.0285127   -0.1455796    0.0172244   -0.6215841   -0.1685513   -0.7649991
   0.0289413   -0.1459829    0.0170746   -0.4312161   -0.2195997   -0.8751163
   0.0304613   -0.1454185    0.0166934   -0.0482682   -0.0672691   -0.9965666
   0.0308449   -0.1458022    0.0167413   -0.0312376   -0.0348558   -0.9989040
   0.0286124   -0.1471421    0.0185759   -0.9150444   -0.1906506    0.3554519
   0.0306080   -0.1421570    0.0191669    0.1494875    0.1059489    0.9830709
   0.0296378   -0.1413235    0.0190693   -0.2225863    0.0811179    0.9715324
   0.0297355   -0.1404485    0.0190374   -0.1399124    0.0776877    0.9871115
   0.0301505   -0.1416887    0.0191516    0.0750384    0.1000915    0.9921446
   0.0293371   -0.1409371    0.0189636   -0.2328268    0.0903495    0.9683123
   0.0291113   -0.1409730    0.0188920   -0.4438757    0.0059928    0.8960683
   0.0289380   -0.1423073    0.0187748   -0.6505426   -0.0047693    0.7594548
   0.0288743   -0.1418878    0.0187228   -0.6765701   -0.0367069    0.7354628
   0.0285788   -0.1471575    0.0184747   -0.9244056   -0.2080669    0.3196600
   0.0284331   -0.1467721    0.0182190   -0.9715846   -0.2103605    0.1084978
   0.0282226   -0.1455443    0.0178085   -0.9933665   -0.0318527    0.1104919
   0.0282583   -0.1451085    0.0178085   -0.9627023    0.0717427    0.2608779
   0.0283656   -0.1463616    0.0180890   -0.9771077   -0.0960968    0.1898050
   0.0282802   -0.1459648    0.0178571   -0.9901863   -0.1397276    0.0026904
   0.0282585   -0.1451048    0.0178077   -0.9811413    0.1573692    0.1122351
   0.0283139   -0.1446835    0.0175732   -0.9356462    0.3517216    0.0292934
   0.0283113   -0.1446929    0.0175805   -0.9466782    0.2863854    0.1475932
   0.0285920   -0.1433489    0.0176622   -0.9910284   -0.1326878    0.0160208
   0.0286358   -0.1433711    0.0174401   -0.9799300   -0.0581816   -0.1906625
   0.0286189   -0.1438042    0.0174500   -0.9703947    0.1254580   -0.2063840
   0.0286162   -0.1428545    0.0181461   -0.9253241   -0.1347366    0.3544310
   0.0284081   -0.1445140    0.0173694   -0.8867219    0.3324258   -0.3212746
   0.0285573   -0.1441253    0.0174313   -0.9146480    0.2930812   -0.2784285
   0.0287084   -0.1419257    0.0185616   -0.7676988   -0.0602408    0.6379730
   0.0322391   -0.1420140    0.0180517    0.9680502    0.1016694    0.2292207
   0.0321603   -0.1419975    0.0182556    0.8815061    0.1060975    0.4600981
   0.0318639   -0.1415595    0.0185727    0.7468205    0.1122774    0.6554791
   0.0314015   -0.1411514    0.0188034    0.4062133    0.1305660    0.9044022
   0.0308183   -0.1407656    0.0189715    0.2574687    0.1109757    0.9598928
   0.0316036   -0.1407141    0.0186451    0.4891909    0.1351594    0.8616404
   0.0326369   -0.1435212    0.0178343    0.8956395    0.3021026    0.3264413
   0.0324288   -0.1429355    0.0179454    0.9257562    0.2329385    0.2978507
   0.0323298   -0.1424518    0.0179249    0.9630508    0.1765798    0.2033535
   0.0329602   -0.1442061    0.0171557    0.8704845    0.3040399   -0.3870614
   0.0327745   -0.1437905    0.0171801    0.8350024    0.4405315   -0.3297012
   0.0326653   -0.1435026    0.0173561    0.8814389    0.3425923   -0.3251093
   0.0324092   -0.1425017    0.0174238    0.9760268    0.2171115   -0.0153046
   0.0324898   -0.1429268    0.0174207    0.9301331    0.2162676   -0.2967840
   0.0326406   -0.1442847    0.0168147    0.5321017    0.1507639   -0.8331495
   0.0328027   -0.1442021    0.0169664    0.6587773    0.2755566   -0.7000579
   0.0308638   -0.1449301    0.0167615   -0.0388353   -0.0020704   -0.9992435
   0.0310704   -0.1444777    0.0167137   -0.0332262   -0.1362630   -0.9901154
   0.0315219   -0.1435755    0.0165608    0.0766178   -0.1237381   -0.9893526
   0.0317022   -0.1431232    0.0165521    0.4343261   -0.0738141   -0.8977262
   0.0323569   -0.1434332    0.0169466    0.7185172    0.3540125   -0.5986720
   0.0323959   -0.1429714    0.0171511    0.8040496    0.1912009   -0.5629800
   0.0323194   -0.1425492    0.0171188    0.8917024    0.1055173   -0.4401511
   0.0321375   -0.1421707    0.0168339    0.8334364   -0.0222163   -0.5521686
   0.0319964   -0.1424208    0.0167101    0.6388168   -0.0522263   -0.7675842
   0.0283416   -0.1463858    0.0179078   -0.9808853   -0.1869730   -0.0538985
   0.0284002   -0.1464048    0.0176933   -0.9190961   -0.2115816   -0.3324089
   0.0283255   -0.1459852    0.0176356   -0.9236555   -0.2014272   -0.3260179
   0.0292104   -0.1455443    0.0168524   -0.3337301   -0.1172670   -0.9353463
   0.0283643   -0.1456012    0.0173933   -0.9251723   -0.1977482   -0.3239626
   0.0282531   -0.1455681    0.0175795   -0.9229185   -0.1377717   -0.3595002
   0.0283597   -0.1455700    0.0173895   -0.9385612   -0.1382051   -0.3162312
   0.0283632   -0.1455780    0.0173868   -0.7587593   -0.1515200   -0.6335030
   0.0287874   -0.1451401    0.0170110   -0.4644920   -0.0847302   -0.8815146
   0.0284847   -0.1451525    0.0171911   -0.6455021   -0.0265695   -0.7632962
   0.0283327   -0.1451508    0.0173571   -0.8407188   -0.0306628   -0.5406030
   0.0293846   -0.1446630    0.0167864   -0.1917824   -0.0137793   -0.9813407
   0.0299845   -0.1446049    0.0167048   -0.0675657   -0.0829522   -0.9942604
   0.0294072   -0.1409282    0.0189726   -0.2072992    0.1030837    0.9728313
   0.0304219   -0.1399436    0.0189728    0.0838703    0.0797548    0.9932799
   0.0290346   -0.1405506    0.0188601   -0.3315986    0.0072047    0.9433931
   0.0294650   -0.1400545    0.0189651   -0.1230444    0.0409969    0.9915540
   0.0285627   -0.1402018    0.0186016   -0.6504440   -0.1091546    0.7516700
   0.0286944   -0.1410556    0.0186018   -0.7655994   -0.0854569    0.6376163
   0.0282369   -0.1451391    0.0175523   -0.9816936    0.0618225   -0.1801544
   0.0283103   -0.1446943    0.0175719   -0.9742304    0.2003918   -0.1035288
   0.0283499   -0.1447158    0.0173474   -0.8804517    0.1754183   -0.4404919
   0.0282918   -0.1416295    0.0178086   -0.9410956   -0.2217672    0.2552613
   0.0282568   -0.1416822    0.0174132   -0.9570148   -0.2718679   -0.1010467
   0.0286244   -0.1429693    0.0171705   -0.9098424   -0.2151080   -0.3548456
   0.0286931   -0.1433897    0.0172249   -0.9013536   -0.0628936   -0.4284928
   0.0286632   -0.1440339    0.0172370   -0.8415234    0.1675381   -0.5135849
   0.0284088   -0.1411239    0.0183062   -0.8203736   -0.1240919    0.5582010
   0.0285308   -0.1445338    0.0171888   -0.7049184    0.1634099   -0.6902082
   0.0285926   -0.1442698    0.0172099   -0.7518964    0.2617176   -0.6051080
   0.0322666   -0.1412487    0.0171656    0.9932128    0.0233788   -0.1139377
   0.0322675   -0.1404162    0.0168691    0.9836269   -0.1273357   -0.1275293
   0.0323444   -0.1420820    0.0173716    0.9847086    0.1048612   -0.1391154
   0.0321526   -0.1407342    0.0179506    0.9414683   -0.0182634    0.3366064
   0.0320634   -0.1402878    0.0181305    0.8154713    0.0288907    0.5780761
   0.0317407   -0.1401823    0.0184479    0.5817407    0.0700028    0.8103563
   0.0307425   -0.1394854    0.0188696    0.2969957    0.0349132    0.9542403
   0.0324160   -0.1429633    0.0172011    0.9025765    0.2214904   -0.3691853
   0.0324046   -0.1425058    0.0174011    0.9528208    0.1485823   -0.2646806
   0.0309518   -0.1431910    0.0164385    0.0783210   -0.2603639   -0.9623287
   0.0302113   -0.1441539    0.0166266   -0.0760869   -0.1777418   -0.9811313
   0.0304144   -0.1432859    0.0164362   -0.0253028   -0.2324905   -0.9722695
   0.0314335   -0.1427389    0.0163976    0.2953469   -0.1906263   -0.9361794
   0.0317798   -0.1418296    0.0164033    0.6245962   -0.1494645   -0.7665116
   0.0319788   -0.1422091    0.0166619    0.7223741   -0.0747234   -0.6874534
   0.0322532   -0.1416958    0.0170604    0.9501451   -0.0097413   -0.3116559
   0.0321898   -0.1412926    0.0168708    0.8882430   -0.0623953   -0.4551167
   0.0286910   -0.1447139    0.0170350   -0.5432260    0.0412217   -0.8385740
   0.0289165   -0.1447029    0.0169072   -0.4051653    0.0252345   -0.9138951
   0.0295880   -0.1442106    0.0167479   -0.2471729   -0.0489823   -0.9677326
   0.0291182   -0.1438143    0.0168920   -0.3551163   -0.0190887   -0.9346272
   0.0298448   -0.1437631    0.0166196   -0.2599510   -0.1655339   -0.9513275
   0.0304067   -0.1390828    0.0189276    0.0987506   -0.0240863    0.9948207
   0.0291383   -0.1387944    0.0189351   -0.1974285   -0.0581038    0.9785939
   0.0287531   -0.1401655    0.0187253   -0.4700915   -0.0555292    0.8808692
   0.0280707   -0.1407842    0.0178460   -0.8572529   -0.2457846    0.4524461
   0.0276936   -0.1395110    0.0179707   -0.7124315   -0.2929090    0.6376877
   0.0281837   -0.1393948    0.0184654   -0.5721917   -0.1849650    0.7989897
   0.0285435   -0.1391527    0.0186859   -0.4146255   -0.1392474    0.8992752
   0.0280553   -0.1410176    0.0175242   -0.9348987   -0.3323386    0.1245609
   0.0285338   -0.1417494    0.0165773   -0.8101152   -0.3265131   -0.4869318
   0.0280972   -0.1410907    0.0170570   -0.9115226   -0.3520745   -0.2125327
   0.0287377   -0.1429800    0.0169845   -0.7605548   -0.2651657   -0.5926580
   0.0288121   -0.1433975    0.0170418   -0.7327114   -0.1521736   -0.6633078
   0.0288301   -0.1438268    0.0170699   -0.7099171    0.0261075   -0.7038012
   0.0287636   -0.1442689    0.0170538   -0.5903606    0.1241077   -0.7975410
   0.0323484   -0.1399553    0.0170107    0.9791364   -0.1632667   -0.1209787
   0.0323132   -0.1403319    0.0175254    0.9864119   -0.0680517    0.1495341
   0.0319987   -0.1409364    0.0164008    0.8480825   -0.2091957   -0.4868195
   0.0322074   -0.1402719    0.0164821    0.9441547   -0.2381631   -0.2277065
   0.0321703   -0.1402993    0.0179411    0.9118389    0.0501351    0.4074754
   0.0319111   -0.1394238    0.0182590    0.6878514   -0.0327115    0.7251141
   0.0321880   -0.1393887    0.0179109    0.8244735   -0.0538276    0.5633348
   0.0313155   -0.1394416    0.0186839    0.4674678   -0.0200363    0.8837830
   0.0309045   -0.1378237    0.0188896    0.2974664   -0.0807706    0.9513096
   0.0302759   -0.1420475    0.0160322   -0.0832523   -0.3207175   -0.9435090
   0.0303733   -0.1413341    0.0158066    0.0288857   -0.3115914   -0.9497770
   0.0311758   -0.1419381    0.0160797    0.3229106   -0.2676847   -0.9077850
   0.0302893   -0.1428796    0.0163214   -0.0851287   -0.2948578   -0.9517416
   0.0301188   -0.1434001    0.0165003   -0.1562011   -0.2226453   -0.9623047
   0.0317539   -0.1414125    0.0162943    0.6307591   -0.2734084   -0.7262167
   0.0290291   -0.1438209    0.0169283   -0.5108461   -0.0445177   -0.8585187
   0.0289956   -0.1433949    0.0168923   -0.5185617   -0.2316500   -0.8230626
   0.0293191   -0.1429638    0.0165520   -0.2849719   -0.3129609   -0.9060058
   0.0293838   -0.1378260    0.0190719   -0.1069458   -0.1355209    0.9849856
   0.0301404   -0.1382383    0.0189966    0.1521593   -0.1356881    0.9789976
   0.0286826   -0.1388638    0.0187989   -0.3020209   -0.1344114    0.9437780
   0.0276112   -0.1396665    0.0177237   -0.8523694   -0.3735999    0.3659092
   0.0279014   -0.1390385    0.0183423   -0.6065484   -0.2852278    0.7421214
   0.0272458   -0.1386994    0.0179383   -0.6833964   -0.3969610    0.6126919
   0.0280697   -0.1389719    0.0184891   -0.4972504   -0.2114585    0.8414436
   0.0280800   -0.1382590    0.0186489   -0.3598976   -0.1936611    0.9126714
   0.0276428   -0.1400229    0.0173728   -0.9149302   -0.3929950    0.0919652
   0.0278188   -0.1404650    0.0171294   -0.9106834   -0.3928630   -0.1277280
   0.0285104   -0.1413514    0.0163017   -0.7805069   -0.4226367   -0.4606379
   0.0290505   -0.1428422    0.0166513   -0.5073445   -0.3548043   -0.7853123
   0.0323824   -0.1399185    0.0172978    0.9865618   -0.1595466    0.0352224
   0.0324685   -0.1394699    0.0173238    0.9699618   -0.1892675    0.1528133
   0.0323871   -0.1395020    0.0167900    0.9723715   -0.2038878   -0.1136815
   0.0322389   -0.1403084    0.0177314    0.9475585    0.0218856    0.3188320
   0.0323251   -0.1400882    0.0175213    0.9679747   -0.1063278    0.2274189
   0.0319545   -0.1405636    0.0161149    0.8088479   -0.3016508   -0.5047493
   0.0321316   -0.1400898    0.0161045    0.8505863   -0.3021838   -0.4303346
   0.0321987   -0.1396649    0.0159588    0.7947187   -0.2791379   -0.5389845
   0.0323173   -0.1394178    0.0160107    0.8569797   -0.2770804   -0.4345253
   0.0323658   -0.1395903    0.0164257    0.9604372   -0.2593288   -0.1015333
   0.0324553   -0.1391590    0.0165646    0.9354582   -0.3533632    0.0072331
   0.0322974   -0.1394424    0.0177249    0.8951221   -0.1082166    0.4324877
   0.0317515   -0.1388765    0.0183972    0.4752496   -0.0765853    0.8765116
   0.0321312   -0.1378457    0.0183067    0.5544653   -0.1921905    0.8097105
   0.0321488   -0.1385449    0.0180999    0.7373506   -0.1788523    0.6514030
   0.0324918   -0.1390057    0.0175623    0.8252165   -0.2111393    0.5238682
   0.0312026   -0.1377046    0.0187956    0.3834394   -0.1737292    0.9070790
   0.0314863   -0.1367498    0.0189039    0.3350974   -0.2292913    0.9138573
   0.0297781   -0.1417342    0.0160020   -0.1557436   -0.3594736   -0.9200667
   0.0303628   -0.1407849    0.0156279   -0.1100917   -0.2834784   -0.9526383
   0.0306370   -0.1403370    0.0154783    0.0705963   -0.2582752   -0.9634885
   0.0308268   -0.1403113    0.0155090    0.1624509   -0.2664884   -0.9500493
   0.0313758   -0.1410698    0.0158942    0.3950067   -0.3219794   -0.8604063
   0.0317979   -0.1405829    0.0159326    0.5839044   -0.3310808   -0.7412430
   0.0291150   -0.1417350    0.0161447   -0.3118074   -0.4193774   -0.8525836
   0.0297920   -0.1373922    0.0191509    0.0457437   -0.1923497    0.9802597
   0.0292516   -0.1374541    0.0191431   -0.1153296   -0.2440204    0.9628879
   0.0308538   -0.1369060    0.0190692    0.2774634   -0.2373310    0.9309608
   0.0304973   -0.1368731    0.0191743    0.1712216   -0.2145964    0.9615776
   0.0274568   -0.1396070    0.0173934   -0.8886537   -0.4115087    0.2023740
   0.0272863   -0.1391759    0.0175311   -0.8065162   -0.4808393    0.3439843
   0.0274577   -0.1382774    0.0183213   -0.5118734   -0.3282972    0.7938555
   0.0269855   -0.1384935    0.0178354   -0.5419914   -0.5501915    0.6352438
   0.0276606   -0.1376560    0.0186478   -0.2824070   -0.4258424    0.8595956
   0.0277414   -0.1401056    0.0165804   -0.8643303   -0.4839259   -0.1369268
   0.0274201   -0.1395761    0.0171266   -0.8654000   -0.4970628    0.0633356
   0.0283424   -0.1409186    0.0161942   -0.7223670   -0.4656110   -0.5112654
   0.0283034   -0.1405543    0.0159116   -0.5914479   -0.4280740   -0.6833316
   0.0290248   -0.1421526    0.0163615   -0.4476303   -0.4017215   -0.7989036
   0.0280440   -0.1405429    0.0162665   -0.7883717   -0.4585059   -0.4101737
   0.0326558   -0.1387297    0.0173909    0.9193043   -0.3278262    0.2177374
   0.0319864   -0.1401292    0.0159120    0.7301736   -0.2988353   -0.6144461
   0.0321664   -0.1392597    0.0157565    0.6766676   -0.2155579   -0.7040282
   0.0318182   -0.1397517    0.0156067    0.5434435   -0.2066010   -0.8136247
   0.0323200   -0.1386472    0.0157326    0.6278589   -0.2126958   -0.7487013
   0.0324527   -0.1391789    0.0161475    0.9334214   -0.3088684   -0.1825510
   0.0324086   -0.1391966    0.0160493    0.8231968   -0.3042833   -0.4793316
   0.0324751   -0.1390837    0.0160795    0.8403873   -0.3988079   -0.3670170
   0.0325538   -0.1390187    0.0163644    0.8708703   -0.4915129    0.0001870
   0.0327080   -0.1386632    0.0164303    0.8855948   -0.4633599    0.0319303
   0.0327528   -0.1385815    0.0171891    0.8647022   -0.4806100    0.1459596
   0.0318166   -0.1381093    0.0184532    0.4505273   -0.1269356    0.8836926
   0.0322778   -0.1380217    0.0181455    0.5388375   -0.2755013    0.7960862
   0.0324234   -0.1376076    0.0182043    0.4496631   -0.2859451    0.8461906
   0.0315978   -0.1376794    0.0186346    0.4184663   -0.2001518    0.8859036
   0.0325171   -0.1367248    0.0184618    0.5284388   -0.1231835    0.8399870
   0.0324714   -0.1385477    0.0177780    0.6884798   -0.3191557    0.6512567
   0.0307645   -0.1364005    0.0192464    0.2272402   -0.2251790    0.9474473
   0.0314734   -0.1360797    0.0191143    0.3571170   -0.2180362    0.9082553
   0.0319955   -0.1363090    0.0188254    0.4991039   -0.1426426    0.8547213
   0.0319384   -0.1361933    0.0188720    0.4304196   -0.1765244    0.8851995
   0.0294218   -0.1417088    0.0160594   -0.1520648   -0.3945014   -0.9062257
   0.0303237   -0.1399497    0.0153914   -0.0140974   -0.2078346   -0.9780624
   0.0294649   -0.1410418    0.0158070   -0.0911372   -0.3211641   -0.9426280
   0.0297378   -0.1406768    0.0156888   -0.0785341   -0.2586894   -0.9627628
   0.0298673   -0.1399917    0.0154813   -0.1355170   -0.2603097   -0.9559676
   0.0313900   -0.1398230    0.0154294    0.2746703   -0.2676745   -0.9235294
   0.0285281   -0.1405448    0.0157771   -0.3390411   -0.3349888   -0.8791096
   0.0288568   -0.1409330    0.0158407   -0.2112605   -0.3881998   -0.8970340
   0.0298406   -0.1360476    0.0194569    0.0948943   -0.2090116    0.9732981
   0.0293951   -0.1356514    0.0195690   -0.0055184   -0.0935384    0.9956004
   0.0286200   -0.1371119    0.0191305   -0.1369147   -0.3242646    0.9360058
   0.0270111   -0.1390414    0.0171339   -0.6915822   -0.7054944    0.1548926
   0.0270648   -0.1378056    0.0183262   -0.3726296   -0.4365047    0.8189083
   0.0265470   -0.1383478    0.0175977   -0.4860257   -0.7070277    0.5137032
   0.0262667   -0.1379503    0.0178846   -0.4802846   -0.6121828    0.6281392
   0.0268160   -0.1381653    0.0179777   -0.2977518   -0.5568374    0.7754199
   0.0270551   -0.1377857    0.0183339   -0.2628946   -0.5363833    0.8019847
   0.0268263   -0.1373744    0.0185377   -0.2763908   -0.4490737    0.8496711
   0.0277756   -0.1367558    0.0191618   -0.1018794   -0.4763016    0.8733598
   0.0272264   -0.1368349    0.0190206   -0.3540494   -0.4238516    0.8336659
   0.0271263   -0.1370859    0.0188336   -0.3551743   -0.4634479    0.8118295
   0.0275278   -0.1397111    0.0164507   -0.8537312   -0.5118442   -0.0957002
   0.0278714   -0.1401416    0.0161581   -0.7724619   -0.5265503   -0.3550317
   0.0277653   -0.1400674    0.0163452   -0.8109182   -0.5614908   -0.1647412
   0.0281555   -0.1405513    0.0160797   -0.7183563   -0.4331200   -0.5443999
   0.0281704   -0.1401463    0.0158238   -0.5744495   -0.3388548   -0.7451075
   0.0280195   -0.1401657    0.0159912   -0.6845184   -0.4137348   -0.6002151
   0.0329961   -0.1376205    0.0177684    0.7952462   -0.3590233    0.4885548
   0.0319559   -0.1389933    0.0155554    0.4909420   -0.1465467   -0.8587782
   0.0315780   -0.1393693    0.0154096    0.4261908   -0.1301952   -0.8952154
   0.0315209   -0.1389482    0.0153482    0.3979133   -0.0929909   -0.9126980
   0.0316450   -0.1380749    0.0152771    0.3607111   -0.1359903   -0.9227102
   0.0318189   -0.1376222    0.0152778    0.3833354   -0.1094608   -0.9171000
   0.0325039   -0.1384849    0.0158226    0.6639636   -0.2624344   -0.7002004
   0.0322462   -0.1375508    0.0154566    0.5386896   -0.0945768   -0.8371790
   0.0326987   -0.1387129    0.0161815    0.8693256   -0.4066234   -0.2809456
   0.0327758   -0.1385260    0.0167065    0.8436324   -0.5369200    0.0011308
   0.0330103   -0.1381875    0.0166559    0.8417316   -0.5385187   -0.0385408
   0.0329379   -0.1382399    0.0162871    0.8989308   -0.3770839   -0.2230047
   0.0331194   -0.1380453    0.0168669    0.8790032   -0.4740616   -0.0511760
   0.0331860   -0.1378983    0.0171420    0.9146330   -0.3801122    0.1376999
   0.0332290   -0.1375990    0.0173980    0.8685224   -0.3319903    0.3680370
   0.0327315   -0.1374749    0.0181148    0.5160522   -0.3049273    0.8004433
   0.0328701   -0.1370179    0.0181684    0.6588098   -0.1613459    0.7348042
   0.0329080   -0.1367138    0.0181751    0.7176521    0.0087433    0.6963469
   0.0327318   -0.1362857    0.0183099    0.6729340    0.1469209    0.7249649
   0.0321525   -0.1358682    0.0187248    0.7069478    0.1040017    0.6995773
   0.0324764   -0.1358693    0.0184032    0.6520967    0.2485992    0.7162181
   0.0323055   -0.1358702    0.0185594    0.7004561    0.2153850    0.6804194
   0.0330035   -0.1371593    0.0179986    0.7699797   -0.2020547    0.6052315
   0.0303584   -0.1355506    0.0194879    0.1488541   -0.0854622    0.9851592
   0.0307111   -0.1355165    0.0194263    0.2042572   -0.0378057    0.9781870
   0.0312967   -0.1357048    0.0192510    0.3372657   -0.1287212    0.9325678
   0.0310413   -0.1354882    0.0193531    0.2802929   -0.0188721    0.9597290
   0.0317703   -0.1358748    0.0190159    0.4713806   -0.0906275    0.8772611
   0.0319882   -0.1358683    0.0188842    0.6087225   -0.0118966    0.7932940
   0.0313563   -0.1394035    0.0153328    0.1363351   -0.1811131   -0.9739665
   0.0300946   -0.1395489    0.0153359   -0.0415391   -0.2302009   -0.9722562
   0.0288697   -0.1406557    0.0157223   -0.1677794   -0.3008925   -0.9387831
   0.0291667   -0.1404875    0.0156377   -0.0551572   -0.2575155   -0.9646986
   0.0294892   -0.1400292    0.0155297    0.0215366   -0.1973228   -0.9801020
   0.0296737   -0.1394672    0.0153565   -0.1677920   -0.2949410   -0.9406677
   0.0290852   -0.1396495    0.0154649   -0.1301326   -0.1884592   -0.9734211
   0.0282799   -0.1397243    0.0156170   -0.3375797   -0.2393597   -0.9103554
   0.0299700   -0.1355900    0.0195253    0.0948516   -0.0781546    0.9924188
   0.0283398   -0.1357808    0.0195137   -0.0863384   -0.0951435    0.9917124
   0.0287667   -0.1352940    0.0195455   -0.0520779    0.1146931    0.9920350
   0.0295884   -0.1352560    0.0195612   -0.0094889    0.0642611    0.9978880
   0.0290085   -0.1349675    0.0194889   -0.0510484    0.1755549    0.9831452
   0.0283798   -0.1366771    0.0192310   -0.0519266   -0.3657582    0.9292602
   0.0280907   -0.1358131    0.0194781   -0.0725251   -0.1582628    0.9847299
   0.0271842   -0.1391871    0.0164929   -0.6949744   -0.7167081   -0.0577941
   0.0272831   -0.1392945    0.0165497   -0.8055687   -0.5876704   -0.0755155
   0.0266814   -0.1388238    0.0167043   -0.6258524   -0.7578215   -0.1844327
   0.0268465   -0.1389114    0.0165488   -0.4292078   -0.8912870   -0.1462467
   0.0265492   -0.1387435    0.0168772   -0.6592637   -0.7488418    0.0678773
   0.0266327   -0.1387078    0.0171660   -0.5650258   -0.7316997    0.3812630
   0.0268531   -0.1378251    0.0182291   -0.2370574   -0.5751751    0.7829287
   0.0267456   -0.1378609    0.0181737   -0.2399980   -0.5329269    0.8114123
   0.0263324   -0.1383090    0.0174826   -0.5528387   -0.6968930    0.4568474
   0.0266415   -0.1378755    0.0181421   -0.2566596   -0.6507864    0.7145648
   0.0260153   -0.1377952    0.0177855   -0.7093496   -0.5343070    0.4597163
   0.0260892   -0.1375162    0.0180588   -0.6639115   -0.3234515    0.6742408
   0.0262901   -0.1376518    0.0181705   -0.5009894   -0.5155752    0.6951200
   0.0267001   -0.1376062    0.0183849   -0.2137484   -0.5456717    0.8102802
   0.0266057   -0.1374087    0.0184591   -0.3799359   -0.3456119    0.8580216
   0.0265056   -0.1371122    0.0185071   -0.4658993   -0.3302636    0.8208920
   0.0275482   -0.1365362    0.0192786    0.0142714   -0.4142614    0.9100461
   0.0278965   -0.1366690    0.0192219   -0.0355347   -0.4271864    0.9034650
   0.0270668   -0.1364090    0.0191130   -0.6012950   -0.1982485    0.7740425
   0.0269204   -0.1365158    0.0189464   -0.5828967   -0.2995905    0.7552992
   0.0272584   -0.1363727    0.0192354   -0.4180475   -0.2372473    0.8768979
   0.0270328   -0.1368729    0.0189007   -0.5102250   -0.2963529    0.8073695
   0.0275642   -0.1397339    0.0162245   -0.8153253   -0.5071161   -0.2794243
   0.0274813   -0.1395682    0.0161737   -0.8135785   -0.5281742   -0.2431502
   0.0273097   -0.1393196    0.0163187   -0.7879940   -0.6088052   -0.0917695
   0.0276673   -0.1397468    0.0160333   -0.6656207   -0.4449200   -0.5991622
   0.0280478   -0.1397361    0.0157413   -0.4985320   -0.3140114   -0.8079992
   0.0332306   -0.1371770    0.0176269    0.9096555   -0.1021613    0.4026039
   0.0310114   -0.1385987    0.0151456    0.1770762   -0.1394809   -0.9742634
   0.0311794   -0.1379931    0.0151023    0.2466201   -0.1411976   -0.9587710
   0.0310236   -0.1377450    0.0150092    0.1506679   -0.0989842   -0.9836165
   0.0313109   -0.1372710    0.0150732    0.2414582    0.1621270   -0.9567721
   0.0319666   -0.1371659    0.0153190    0.3744448    0.0985361   -0.9219988
   0.0328368   -0.1382740    0.0160954    0.7926156   -0.2554436   -0.5536326
   0.0326741   -0.1382347    0.0159015    0.6919157   -0.1377601   -0.7087135
   0.0327806   -0.1374337    0.0159230    0.7183165   -0.0197328   -0.6954366
   0.0323694   -0.1370929    0.0155344    0.6195215    0.0655654   -0.7822367
   0.0329655   -0.1378162    0.0161649    0.8335593   -0.1057943   -0.5422052
   0.0331989   -0.1377782    0.0166512    0.9300968   -0.2172248   -0.2961983
   0.0332577   -0.1376909    0.0169245    0.9636925   -0.2596411   -0.0623160
   0.0333598   -0.1372128    0.0172040    0.9824957   -0.1318957    0.1315512
   0.0330429   -0.1367205    0.0180005    0.8495139    0.0172311    0.5272847
   0.0330047   -0.1362955    0.0179617    0.8403461    0.2378934    0.4870576
   0.0327871   -0.1358738    0.0180748    0.7899311    0.3634020    0.4939107
   0.0322083   -0.1354565    0.0184901    0.7629820    0.4138711    0.4965573
   0.0319526   -0.1354437    0.0188471    0.7357111    0.2552081    0.6273739
   0.0323529   -0.1354590    0.0183204    0.6754505    0.4578057    0.5780836
   0.0325008   -0.1354619    0.0181524    0.6996397    0.5095235    0.5008893
   0.0332283   -0.1367465    0.0176068    0.9328995    0.0823788    0.3505884
   0.0304656   -0.1351078    0.0194529    0.1985897    0.1835574    0.9627402
   0.0301537   -0.1351379    0.0195118    0.1526635    0.1333189    0.9792446
   0.0307886   -0.1350805    0.0193775    0.2374170    0.2501073    0.9386584
   0.0315820   -0.1354504    0.0191443    0.4957886    0.0877288    0.8640008
   0.0312950   -0.1350402    0.0192214    0.4025509    0.3148328    0.8595540
   0.0317907   -0.1354423    0.0190079    0.6064816    0.1581841    0.7792033
   0.0308622   -0.1390398    0.0152265   -0.0165375   -0.2575537   -0.9661224
   0.0304769   -0.1390784    0.0152765   -0.0072370   -0.2630174   -0.9647639
   0.0295672   -0.1383477    0.0150057    0.0003345   -0.2129089   -0.9770720
   0.0293383   -0.1387901    0.0151503   -0.1942452   -0.3708324   -0.9081586
   0.0292715   -0.1392058    0.0153791   -0.0995252   -0.2450938   -0.9643774
   0.0293446   -0.1394575    0.0154286   -0.0666231   -0.2092330   -0.9755936
   0.0293299   -0.1392015    0.0153594   -0.2755610   -0.3484369   -0.8959117
   0.0282101   -0.1393056    0.0155621   -0.2502811   -0.1818861   -0.9509347
   0.0298518   -0.1351667    0.0195554    0.0723779    0.1195997    0.9901805
   0.0280048   -0.1353920    0.0194598   -0.1927648    0.1748441    0.9655420
   0.0285060   -0.1353255    0.0195270   -0.1216746    0.1477637    0.9815096
   0.0284738   -0.1349081    0.0194277   -0.1434859    0.3758805    0.9154920
   0.0295318   -0.1347790    0.0194786    0.0014230    0.3582566    0.9336221
   0.0280777   -0.1364872    0.0193096    0.0458408   -0.3182953    0.9468826
   0.0279780   -0.1362719    0.0193845    0.1798481   -0.2637240    0.9476837
   0.0278802   -0.1359756    0.0194297   -0.0906740   -0.1681806    0.9815771
   0.0275867   -0.1358794    0.0194151   -0.1949011   -0.0547106    0.9792958
   0.0277560   -0.1354244    0.0194237   -0.2145183    0.1594259    0.9636209
   0.0269361   -0.1389240    0.0163504    0.3929511   -0.9078516   -0.1462701
   0.0268099   -0.1388807    0.0165283   -0.6418307   -0.7223035   -0.2575479
   0.0263489   -0.1385091    0.0167613   -0.7621576   -0.6143633   -0.2041412
   0.0266716   -0.1385535    0.0161949   -0.6376080   -0.6020153   -0.4806596
   0.0269361   -0.1389240    0.0163504    0.7505011   -0.6188939   -0.2317721
   0.0262557   -0.1383877    0.0171994   -0.7401662   -0.6595198    0.1311015
   0.0265016   -0.1376710    0.0182829   -0.3141234   -0.5484954    0.7749060
   0.0261027   -0.1381650    0.0173551   -0.7502239   -0.6025567    0.2721940
   0.0258621   -0.1375857    0.0176957   -0.9097764   -0.3286445    0.2535738
   0.0259328   -0.1378348    0.0174975   -0.8628316   -0.4635116    0.2016896
   0.0259189   -0.1375608    0.0178497   -0.8273608   -0.2621597    0.4967357
   0.0264069   -0.1374444    0.0183476   -0.5125639   -0.3062541    0.8021762
   0.0262895   -0.1370212    0.0183765   -0.6443676   -0.1459984    0.7506496
   0.0259136   -0.1371165    0.0179486   -0.8512892   -0.0360382    0.5234577
   0.0264643   -0.1369839    0.0185241   -0.5915987   -0.1504063    0.7920788
   0.0277216   -0.1363037    0.0193600    0.8304008   -0.1994988    0.5202256
   0.0274698   -0.1363359    0.0193281   -0.0402636   -0.2098313    0.9769082
   0.0277216   -0.1363037    0.0193600    0.9462030   -0.0879877    0.3113808
   0.0268989   -0.1364468    0.0189553   -0.6602206   -0.1506721    0.7358034
   0.0271621   -0.1359490    0.0192331   -0.6149576    0.0331938    0.7878612
   0.0267856   -0.1360390    0.0188546   -0.7532733    0.1219705    0.6462991
   0.0267314   -0.1364864    0.0187962   -0.6684804   -0.1353026    0.7313188
   0.0273628   -0.1359134    0.0193414   -0.3960030   -0.0032287    0.9182436
   0.0265581   -0.1365239    0.0186461   -0.6722013    0.0047803    0.7403530
   0.0276029   -0.1395782    0.0159919   -0.6650769   -0.4830907   -0.5694701
   0.0273464   -0.1393425    0.0160927   -0.7346986   -0.5394323   -0.4113767
   0.0270748   -0.1390491    0.0161829   -0.5494540   -0.7927884   -0.2637932
