NORM_ASCII
2591 5178
   0.0215340   -0.0941860    0.0179247   -0.3695658    0.0434051    0.9281903
   0.0191422   -0.0943168    0.0160077   -0.8310355   -0.0502028    0.5539492
   0.0207729   -0.0928587    0.0175011   -0.4995836   -0.0027464    0.8662613
   0.0199071   -0.0925610    0.0169314   -0.6506276   -0.0182790    0.7591769
   0.0197132   -0.0936227    0.0166872   -0.7211511   -0.0475891    0.6911413
   0.0196360   -0.0971729    0.0163441   -0.8964362   -0.1271894    0.4245291
   0.0196606   -0.0966421    0.0164924   -0.8173863   -0.0709869    0.5716997
   0.0192751   -0.0957990    0.0159744   -0.8833866   -0.1205921    0.4528639
   0.0191653   -0.0953238    0.0159279   -0.8589962   -0.1246496    0.4965762
   0.0236415   -0.0963512    0.0185444   -0.0537853    0.0698699    0.9961051
   0.0196829   -0.0977036    0.0161703   -0.9745982   -0.2239584   -0.0010410
   0.0211001   -0.0964175    0.0141682   -0.4816520   -0.2105502   -0.8506938
   0.0221697   -0.0961283    0.0134386   -0.4208077   -0.2232732   -0.8792439
   0.0203596   -0.0960606    0.0144088   -0.3399295   -0.4357810   -0.8333924
   0.0197319   -0.0973609    0.0154718   -0.7212466   -0.4605480   -0.5173962
   0.0202351   -0.0978528    0.0153018   -0.6021087   -0.3850526   -0.6994280
   0.0201441   -0.0974059    0.0151123   -0.4945263   -0.4899300   -0.7179223
   0.0202758   -0.0968991    0.0148031   -0.3634235   -0.3880081   -0.8469788
   0.0196578   -0.0973353    0.0156085   -0.9095976   -0.3478255   -0.2272654
   0.0276221   -0.1091585    0.0174004    0.1963169   -0.7368056    0.6469754
   0.0279362   -0.1098508    0.0164028    0.2419106   -0.8711162    0.4273590
   0.0281496   -0.1099049    0.0160830    0.2405443   -0.9281109    0.2841629
   0.0276579   -0.1100894    0.0154421    0.0433348   -0.9955893    0.0832113
   0.0283131   -0.1099576    0.0157814    0.2064486   -0.9560609    0.2081502
   0.0280858   -0.1100995    0.0151316    0.0910587   -0.9942216    0.0568479
   0.0283963   -0.1100481    0.0145059    0.0129638   -0.9894750   -0.1441220
   0.0277478   -0.1098571    0.0142315   -0.1981855   -0.9385677   -0.2825121
   0.0277365   -0.1098445    0.0142015   -0.2424109   -0.8340224   -0.4956245
   0.0274355   -0.1092749    0.0134499   -0.3542152   -0.7335521   -0.5800284
   0.0278841   -0.1097447    0.0138782   -0.2179156   -0.8449216   -0.4884878
   0.0278381   -0.1091123    0.0130949   -0.2509863   -0.6891985   -0.6797142
   0.0275397   -0.1048960    0.0121243   -0.3239487    0.3864724   -0.8635371
   0.0262165   -0.1047909    0.0130806   -0.4894078    0.5770528   -0.6538272
   0.0265310   -0.1043523    0.0131411   -0.5212302    0.4091381   -0.7489493
   0.0273466   -0.1045667    0.0123825   -0.4140756    0.5012029   -0.7598270
   0.0272679   -0.1053697    0.0120505   -0.3271252    0.2326441   -0.9158962
   0.0277598   -0.1059314    0.0118390   -0.1251319    0.0609550   -0.9902659
   0.0276562   -0.1073695    0.0120934   -0.2316611   -0.3037999   -0.9241422
   0.0280436   -0.1064100    0.0118094   -0.0545156   -0.1242091   -0.9907574
   0.0275385   -0.1079928    0.0124251   -0.3465579   -0.4502775   -0.8228899
   0.0271855   -0.1084161    0.0128806   -0.4100304   -0.5088096   -0.7569596
   0.0279452   -0.1086953    0.0127042   -0.2489417   -0.5433090   -0.8017752
   0.0250096   -0.1042362    0.0141714   -0.3933975    0.3116638   -0.8649301
   0.0252418   -0.1041689    0.0140764   -0.4884251    0.2141200   -0.8459276
   0.0247801   -0.1041428    0.0142959   -0.3484713    0.1831597   -0.9192498
   0.0254302   -0.1044692    0.0138097   -0.4949800    0.3941782   -0.7743503
   0.0245379   -0.1041447    0.0143712   -0.2724466    0.1351759   -0.9526281
   0.0247571   -0.1036468    0.0143027   -0.3426089   -0.0819172   -0.9358999
   0.0254231   -0.1007846    0.0135689   -0.1727297   -0.1573480   -0.9723199
   0.0254125   -0.1031782    0.0139447   -0.3559446   -0.1238125   -0.9262688
   0.0249911   -0.1036504    0.0142031   -0.4093630   -0.0722128   -0.9095093
   0.0257203   -0.1012528    0.0135780   -0.2389567   -0.1118091   -0.9645716
   0.0256282   -0.1002963    0.0134595   -0.0801632   -0.1643561   -0.9831383
   0.0249562   -0.0989027    0.0132912   -0.0900322   -0.1357904   -0.9866383
   0.0245013   -0.0993053    0.0134670    0.2188137   -0.1449212   -0.9649448
   0.0244551   -0.0989219    0.0133947    0.0413995   -0.1490045   -0.9879695
   0.0246593   -0.0984348    0.0132830   -0.0927096   -0.1417824   -0.9855469
   0.0242897   -0.0975067    0.0131386   -0.1224345   -0.1736914   -0.9771597
   0.0233776   -0.0961152    0.0130519   -0.0907168   -0.1798034   -0.9795107
   0.0284096   -0.1084731    0.0177517    0.2666653   -0.5008358    0.8234398
   0.0279643   -0.1080049    0.0180793    0.1151685   -0.3696294    0.9220143
   0.0280648   -0.1090128    0.0174673    0.1854828   -0.6841135    0.7053969
   0.0278897   -0.1069287    0.0184171    0.2167731   -0.1555084    0.9637565
   0.0282573   -0.1074357    0.0182243    0.2860581   -0.2134263    0.9341413
   0.0279986   -0.1064275    0.0183985    0.4106013    0.0658711    0.9094326
   0.0282776   -0.1045231    0.0179493    0.4873141    0.1815122    0.8541536
   0.0284753   -0.1069384    0.0181520    0.5853572    0.0215625    0.8104888
   0.0288211   -0.1060091    0.0177488    0.7081281    0.1094100    0.6975558
   0.0286407   -0.1040940    0.0175230    0.7576712    0.1720811    0.6295414
   0.0285430   -0.1026956    0.0171684    0.7601118    0.2277866    0.6085585
   0.0281085   -0.1007901    0.0169826    0.8022686    0.2113021    0.5583158
   0.0269937   -0.0958979    0.0171182    0.7542016    0.1676012    0.6348935
   0.0262322   -0.0943983    0.0174640    0.6275380    0.1818341    0.7570551
   0.0248246   -0.0938712    0.0181209    0.2845759    0.1309849    0.9496629
   0.0260053   -0.0939119    0.0175089    0.5821039    0.1957848    0.7891916
   0.0259238   -0.0934360    0.0174525    0.5859356    0.1829757    0.7894298
   0.0258757   -0.0929598    0.0173843    0.6923683    0.1646246    0.7025133
   0.0256061   -0.0924600    0.0174998    0.5078598    0.1785948    0.8427231
   0.0282800   -0.0999228    0.0163735    0.8553980    0.2088105    0.4740173
   0.0278476   -0.0975116    0.0162339    0.8813927    0.1521697    0.4472038
   0.0280359   -0.0980419    0.0160092    0.9495557    0.1460462    0.2775147
   0.0273345   -0.0959766    0.0166463    0.8522764    0.1675862    0.4955197
   0.0286575   -0.1016238    0.0164299    0.8823826    0.2227964    0.4144426
   0.0284263   -0.0999881    0.0160222    0.8805561    0.2347382    0.4117267
   0.0283582   -0.0995248    0.0159075    0.7997706    0.2495644    0.5459712
   0.0282948   -0.0990600    0.0157906    0.8889657    0.2256643    0.3985168
   0.0237181   -0.0934398    0.0182455    0.0037013    0.1029981    0.9946747
   0.0242446   -0.0929232    0.0181436    0.2215022    0.1434214    0.9645554
   0.0234213   -0.0924908    0.0181653    0.0076779    0.1194976    0.9928048
   0.0221641   -0.0911778    0.0178594   -0.2182784    0.0848867    0.9721876
   0.0227084   -0.0911141    0.0179375   -0.0982336    0.1042844    0.9896843
   0.0210450   -0.0913362    0.0175642   -0.4088248    0.0427467    0.9116112
   0.0188359   -0.0945336    0.0151475   -0.9774777   -0.1816439    0.1074380
   0.0190744   -0.0953783    0.0157178   -0.9476455   -0.1519232    0.2808689
   0.0187038   -0.0935283    0.0152657   -0.8871391   -0.0703305    0.4561116
   0.0192599   -0.0939264    0.0161472   -0.7936397   -0.0145154    0.6082149
   0.0206076   -0.0923970    0.0174079   -0.5476466    0.0036471    0.8367018
   0.0196774   -0.0931349    0.0166689   -0.7389501   -0.0309814    0.6730475
   0.0193812   -0.0917184    0.0164639   -0.7358964   -0.0250486    0.6766306
   0.0192117   -0.0927868    0.0161758   -0.7911935   -0.0354607    0.6105370
   0.0194535   -0.0967506    0.0160817   -0.9513898   -0.2132621    0.2222087
   0.0193085   -0.0963300    0.0158049   -0.9647583   -0.2445135    0.0972342
   0.0192023   -0.0958535    0.0157577   -0.9486350   -0.2203146    0.2270531
   0.0205461   -0.0955856    0.0142461   -0.3142589   -0.2177141   -0.9240357
   0.0207593   -0.0954264    0.0141125   -0.4535981   -0.2486477   -0.8558172
   0.0230766   -0.0956490    0.0130314   -0.2840859   -0.1810591   -0.9415481
   0.0218276   -0.0951798    0.0133728   -0.4004971   -0.2048035   -0.8931168
   0.0210384   -0.0942108    0.0135653   -0.5435787   -0.2306928   -0.8070335
   0.0206459   -0.0946625    0.0139079   -0.4813427   -0.2534436   -0.8390921
   0.0198600   -0.0960773    0.0145165   -0.3118714   -0.5176833   -0.7967059
   0.0201228   -0.0960680    0.0144567   -0.1484790   -0.4628735   -0.8739005
   0.0199272   -0.0973627    0.0152647   -0.5953809   -0.5609366   -0.5752145
   0.0196522   -0.0970127    0.0153001   -0.7693001   -0.4028832   -0.4958452
   0.0194755   -0.0968614    0.0155785   -0.8687219   -0.3669283   -0.3326949
   0.0198264   -0.0969531    0.0150447   -0.6471243   -0.4291867   -0.6301023
   0.0194710   -0.0968597    0.0155900   -0.9343690   -0.3366009   -0.1168522
   0.0282226   -0.1098274    0.0162955    0.2327679   -0.8226904    0.5186516
   0.0289426   -0.1098972    0.0152927    0.3634522   -0.9117801    0.1912055
   0.0287659   -0.1096831    0.0163269    0.3032054   -0.8565199    0.4176603
   0.0287904   -0.1099907    0.0148589    0.3452931   -0.9375452   -0.0422090
   0.0288676   -0.1099575    0.0150773    0.3968641   -0.9160722    0.0575382
   0.0286288   -0.1099892    0.0144117    0.3082414   -0.9025493   -0.3006527
   0.0283106   -0.1099987    0.0142757   -0.0456663   -0.9377620   -0.3442630
   0.0279602   -0.1098622    0.0141248   -0.2429764   -0.8008607   -0.5473432
   0.0282169   -0.1098710    0.0140343   -0.0843894   -0.8314925   -0.5490890
   0.0283593   -0.1097204    0.0137035    0.0201874   -0.8706238   -0.4915351
   0.0284862   -0.1094234    0.0133514    0.0962330   -0.7645816   -0.6373022
   0.0282770   -0.1089606    0.0128387   -0.0311889   -0.6580586   -0.7523205
   0.0277597   -0.1055084    0.0118990   -0.1687472    0.1694609   -0.9709827
   0.0282971   -0.1045262    0.0120337   -0.2198931    0.4112959   -0.8845805
   0.0280235   -0.1049696    0.0119594   -0.2138228    0.2406796   -0.9467593
   0.0282771   -0.1048789    0.0119285   -0.1215543    0.2263703   -0.9664269
   0.0260774   -0.1045802    0.0133456   -0.4926231    0.4705499   -0.7320555
   0.0258896   -0.1042924    0.0136134   -0.5155774    0.2786395   -0.8102716
   0.0256797   -0.1036681    0.0138674   -0.4961013    0.0961647   -0.8629228
   0.0278693   -0.1042232    0.0123855   -0.3887785    0.5113521   -0.7664009
   0.0267928   -0.1037945    0.0131990   -0.4439856    0.2100826   -0.8710580
   0.0269882   -0.1041563    0.0129419   -0.4426594    0.3711091   -0.8162908
   0.0288618   -0.1063345    0.0118462    0.2554206   -0.0195807   -0.9666317
   0.0284575   -0.1053713    0.0118755    0.0507500    0.0843972   -0.9951390
   0.0288501   -0.1058318    0.0118855    0.2675076    0.0986225   -0.9584953
   0.0280029   -0.1078647    0.0122358   -0.1179712   -0.4070019   -0.9057772
   0.0286928   -0.1073080    0.0119863    0.0394255   -0.2755292   -0.9604839
   0.0289133   -0.1068092    0.0119212    0.3759843   -0.1508998   -0.9142566
   0.0285925   -0.1081732    0.0123315    0.0088055   -0.4857673   -0.8740438
   0.0250133   -0.1041457    0.0141942   -0.4207692    0.1188163   -0.8993531
   0.0256819   -0.1007694    0.0135414   -0.1802493   -0.1377806   -0.9739234
   0.0263138   -0.1027033    0.0135212   -0.3457955   -0.0075941   -0.9382792
   0.0260394   -0.1022182    0.0135780   -0.2486635   -0.0638096   -0.9664858
   0.0259778   -0.1012382    0.0135463   -0.0907443   -0.0843792   -0.9922931
   0.0257181   -0.1002892    0.0134593   -0.1316786   -0.1337483   -0.9822281
   0.0262930   -0.0989102    0.0132575    0.0281971   -0.0375847   -0.9988955
   0.0265880   -0.0992677    0.0132777    0.0413355   -0.0456104   -0.9981037
   0.0269332   -0.1002130    0.0133513    0.1835319   -0.0834234   -0.9794675
   0.0260847   -0.0983295    0.0132274    0.1238348   -0.0538183   -0.9908423
   0.0256564   -0.0978906    0.0131349    0.0845890   -0.1006471   -0.9913198
   0.0255765   -0.0969243    0.0130511    0.0880831   -0.1165309   -0.9892734
   0.0243602   -0.0955803    0.0128616    0.0659229   -0.1575775   -0.9853038
   0.0249317   -0.0960229    0.0128878    0.0259933   -0.1211554   -0.9922932
   0.0237766   -0.0951475    0.0128014   -0.1260659   -0.1934271   -0.9729817
   0.0232735   -0.0951666    0.0128988   -0.0624404   -0.1740958   -0.9827471
   0.0233094   -0.0954755    0.0129536    0.0559566   -0.1659824   -0.9845398
   0.0283037   -0.1090155    0.0173820    0.2812748   -0.6875556    0.6694414
   0.0285397   -0.1089885    0.0172926    0.3822466   -0.6466113    0.6601374
   0.0284640   -0.1079711    0.0179747    0.4485776   -0.3075422    0.8391638
   0.0288736   -0.1083429    0.0175617    0.5600193   -0.4201415    0.7140445
   0.0282231   -0.1079721    0.0180530    0.2542801   -0.3540041    0.9000126
   0.0282561   -0.1069274    0.0182856    0.4307652   -0.0441271    0.9013846
   0.0284885   -0.1074406    0.0181171    0.4631802   -0.1808375    0.8676185
   0.0287013   -0.1074590    0.0179570    0.6478835   -0.0765310    0.7578852
   0.0290461   -0.1065306    0.0175511    0.8029235    0.0942131    0.5885896
   0.0291748   -0.1051834    0.0168848    0.9263841    0.1183317    0.3575055
   0.0289456   -0.1037065    0.0169301    0.8647571    0.1737838    0.4711628
   0.0291682   -0.1061028    0.0172039    0.8808957    0.1378372    0.4527954
   0.0287181   -0.1031862    0.0171206    0.8208576    0.2100975    0.5310856
   0.0285484   -0.1017972    0.0167527    0.8682830    0.2052891    0.4515982
   0.0270756   -0.0949888    0.0167287    0.8268357    0.1884329    0.5299394
   0.0267215   -0.0935377    0.0167026    0.7358891    0.2062224    0.6449337
   0.0258156   -0.0924809    0.0173300    0.7686058    0.1872861    0.6116936
   0.0259754   -0.0920251    0.0170908    0.6802632    0.1899212    0.7079349
   0.0257888   -0.0922512    0.0172885    0.7548641    0.1900203    0.6277519
   0.0266589   -0.0930658    0.0166176    0.8048463    0.2024968    0.5578687
   0.0262510   -0.0925371    0.0169210    0.7550914    0.1852456    0.6289046
   0.0247736   -0.0910105    0.0176409    0.4567153    0.1769649    0.8718340
   0.0257449   -0.0920075    0.0172598    0.5880876    0.1917818    0.7857307
   0.0279939   -0.0975663    0.0159384    0.9709508    0.1219561    0.2058670
   0.0279453   -0.0970899    0.0158701    0.9002339    0.1674128    0.4019351
   0.0281745   -0.0980959    0.0157166    0.9349678    0.1329428    0.3288791
   0.0284931   -0.0996329    0.0153736    0.9806941    0.1678142    0.1003869
   0.0279490   -0.0970921    0.0158610    0.9620181    0.1369585    0.2361430
   0.0288362   -0.1018226    0.0161492    0.9262182    0.1704130    0.3362727
   0.0244880   -0.0905341    0.0176658    0.3009956    0.1582590    0.9404019
   0.0231857   -0.0901030    0.0178536    0.0637138    0.1142335    0.9914087
   0.0212013   -0.0903340    0.0175538   -0.2814253    0.0707021    0.9569749
   0.0226485   -0.0901480    0.0178537   -0.1195261    0.0964717    0.9881329
   0.0197495   -0.0916098    0.0168167   -0.5969302   -0.0153700    0.8021459
   0.0199452   -0.0910652    0.0169582   -0.6151893   -0.0030286    0.7883736
   0.0199012   -0.0895957    0.0169047   -0.5060898    0.0245675    0.8621308
   0.0208485   -0.0899078    0.0173778   -0.3957461    0.0420401    0.9173972
   0.0190571   -0.0954574    0.0153671   -0.9666641   -0.2536716    0.0348025
   0.0192053   -0.0959629    0.0152710   -0.9563696   -0.2871761   -0.0537317
   0.0189501   -0.0950226    0.0151329   -0.9586903   -0.2510012   -0.1338329
   0.0186026   -0.0930280    0.0144556   -0.9675180   -0.2280826   -0.1090282
   0.0184442   -0.0921536    0.0148597   -0.9726920   -0.1504464    0.1767378
   0.0191532   -0.0918062    0.0161538   -0.7966900   -0.1033663    0.5954833
   0.0186624   -0.0925214    0.0153520   -0.8751157   -0.0894239    0.4755796
   0.0189966   -0.0913520    0.0160310   -0.7633860   -0.0679422    0.6423595
   0.0193700   -0.0964264    0.0153489   -0.8827979   -0.3579357   -0.3042202
   0.0204857   -0.0951178    0.0141455   -0.2446347   -0.2598539   -0.9341466
   0.0212615   -0.0942218    0.0134356   -0.4810168   -0.2286563   -0.8463682
   0.0216576   -0.0937680    0.0131039   -0.3399472   -0.1996170   -0.9190152
   0.0207555   -0.0937310    0.0135973   -0.4625724   -0.2212728   -0.8585250
   0.0209725   -0.0937402    0.0134800   -0.6039283   -0.2246582   -0.7647217
   0.0209205   -0.0932725    0.0133733   -0.5581038   -0.2531226   -0.7902209
   0.0202413   -0.0932481    0.0137356   -0.3171201   -0.2258881   -0.9210914
   0.0197065   -0.0951649    0.0142215   -0.1948409   -0.3374640   -0.9209533
   0.0195498   -0.0956179    0.0144696   -0.5299769   -0.4038022   -0.7456999
   0.0191622   -0.0955534    0.0148985   -0.8309640   -0.3768197   -0.4092746
   0.0289477   -0.1090988    0.0169133    0.3892804   -0.6582215    0.6443642
   0.0291676   -0.1097683    0.0151881    0.6353503   -0.7716647   -0.0293883
   0.0292426   -0.1097119    0.0154035    0.6100210   -0.7862790    0.0981815
   0.0292271   -0.1095253    0.0161331    0.5877820   -0.7506253    0.3017845
   0.0290635   -0.1094685    0.0164342    0.5206015   -0.6715512    0.5272504
   0.0290152   -0.1098536    0.0147537    0.5886744   -0.7952050   -0.1452980
   0.0290916   -0.1098140    0.0149713    0.6045649   -0.7939696   -0.0641370
   0.0291524   -0.1096503    0.0144158    0.5952155   -0.7697824   -0.2305505
   0.0287670   -0.1097984    0.0140754    0.3546710   -0.8837541   -0.3052656
   0.0286807   -0.1097427    0.0138441    0.3630577   -0.8270862   -0.4290892
   0.0290315   -0.1092984    0.0133859    0.4031208   -0.7569691   -0.5142873
   0.0291556   -0.1089678    0.0130295    0.3317503   -0.7018951   -0.6303054
   0.0286096   -0.1090868    0.0129946    0.1336535   -0.7394312   -0.6598320
   0.0288337   -0.1089474    0.0128887    0.1630231   -0.6309083   -0.7585368
   0.0282763   -0.1051078    0.0118935   -0.0620523    0.1317137   -0.9893437
   0.0285866   -0.1042374    0.0121301   -0.0572966    0.4706688   -0.8804476
   0.0285480   -0.1046472    0.0119650    0.0478231    0.3097500   -0.9496146
   0.0285391   -0.1048607    0.0119091    0.0334111    0.1560686   -0.9871810
   0.0279200   -0.1039318    0.0125672   -0.3107825    0.5281098   -0.7902621
   0.0270256   -0.1037282    0.0131066   -0.3449219    0.2589690   -0.9021995
   0.0267877   -0.1021787    0.0134153   -0.2275807    0.0924182   -0.9693637
   0.0275218   -0.1031969    0.0130826   -0.2517308    0.3678236   -0.8951745
   0.0274917   -0.1036247    0.0129182   -0.3111666    0.4434714   -0.8405406
   0.0289817   -0.1067981    0.0119445    0.3801668   -0.1340916   -0.9151462
   0.0291777   -0.1061178    0.0120043    0.5374576    0.0473453   -0.8419606
   0.0292278   -0.1067541    0.0120533    0.6245907   -0.0678319   -0.7780008
   0.0288485   -0.1053214    0.0119542    0.2959892    0.0699832   -0.9526241
   0.0293100   -0.1057374    0.0121403    0.6270782    0.1177068   -0.7700117
   0.0288378   -0.1077519    0.0121674    0.0919013   -0.3646335   -0.9266049
   0.0289772   -0.1072744    0.0120318    0.7663141   -0.1816395   -0.6162546
   0.0289772   -0.1072744    0.0120318    0.8979905   -0.0809970   -0.4324958
   0.0288789   -0.1081972    0.0123745    0.1786367   -0.4806957   -0.8584990
   0.0262632   -0.1017224    0.0135214   -0.1610022    0.0021814   -0.9869516
   0.0273549   -0.1006540    0.0134417    0.1231150    0.0002167   -0.9923924
   0.0268459   -0.0988610    0.0133026    0.1762869    0.0056173   -0.9843228
   0.0272201   -0.1001782    0.0134046    0.9556365   -0.0117639   -0.2943135
   0.0272201   -0.1001782    0.0134046    0.9555655   -0.0072195   -0.2946904
   0.0270991   -0.0997020    0.0133625    0.3647479   -0.0385006   -0.9303100
   0.0273549   -0.0968171    0.0135093    0.2365103   -0.0367557   -0.9709335
   0.0269899   -0.0962514    0.0133270    0.2371276   -0.1390517   -0.9614755
   0.0269007   -0.0955137    0.0131853    0.2124104   -0.1503545   -0.9655441
   0.0257615   -0.0959388    0.0129569    0.1552613   -0.0838329   -0.9843099
   0.0251630   -0.0955170    0.0128536    0.1082675   -0.1183560   -0.9870512
   0.0240342   -0.0951328    0.0127691   -0.0512287   -0.1859867   -0.9812159
   0.0242488   -0.0946383    0.0126878    0.2605492   -0.1459155   -0.9543704
   0.0247847   -0.0945941    0.0126843    0.0563472   -0.1563556   -0.9860922
   0.0242906   -0.0949510    0.0127592    0.2924655   -0.1512114   -0.9442452
   0.0243620   -0.0931938    0.0124608    0.0225441   -0.1671785   -0.9856689
   0.0235131   -0.0927797    0.0124098   -0.0412385   -0.1931080   -0.9803105
   0.0235236   -0.0951584    0.0128456   -0.0891694   -0.1828274   -0.9790929
   0.0234199   -0.0942103    0.0126939   -0.0830307   -0.1627832   -0.9831620
   0.0233198   -0.0951648    0.0128931   -0.1644158   -0.2022165   -0.9654408
   0.0234470   -0.0946879    0.0127618   -0.1247473   -0.1768503   -0.9763002
   0.0289048   -0.1078630    0.0177166    0.6528535   -0.1807420    0.7356049
   0.0291759   -0.1089977    0.0168132    0.6416989   -0.5048647    0.5773511
   0.0293041   -0.1086253    0.0169526    0.7208970   -0.3639898    0.5897617
   0.0291505   -0.1080402    0.0174077    0.7728159   -0.1736234    0.6104182
   0.0290897   -0.1073467    0.0175566    0.7585088   -0.0144855    0.6515018
   0.0292606   -0.1070597    0.0173234    0.8631330    0.0774351    0.4990043
   0.0293697   -0.1066409    0.0169391    0.9332032    0.1526153    0.3253312
   0.0290884   -0.1037552    0.0166588    0.9216701    0.1382179    0.3625189
   0.0292296   -0.1042844    0.0164513    0.9819738    0.0618926    0.1785966
   0.0293518   -0.1060709    0.0162243    0.9807621    0.1386915    0.1373692
   0.0290980   -0.1028570    0.0162413    0.9155571    0.1704703    0.3642734
   0.0290018   -0.1023797    0.0161906    0.9106170    0.2631552    0.3186316
   0.0290683   -0.1020131    0.0155951    0.9340018    0.2381602    0.2663087
   0.0278963   -0.0966183    0.0157829    0.9250396    0.1568771    0.3459644
   0.0274949   -0.0946550    0.0158466    0.8992061    0.1762546    0.4004532
   0.0273056   -0.0941427    0.0159931    0.8623320    0.2062407    0.4624373
   0.0252301   -0.0910247    0.0174104    0.5428960    0.1899196    0.8180430
   0.0266176   -0.0912265    0.0159974    0.8334532    0.1949318    0.5170661
   0.0263276   -0.0902406    0.0160817    0.7783710    0.2055360    0.5932062
   0.0257563   -0.0901371    0.0167541    0.6799753    0.2313706    0.6957738
   0.0268712   -0.0919947    0.0158436    0.8398907    0.1950359    0.5065024
   0.0274052   -0.0932810    0.0153790    0.8950323    0.2015814    0.3978468
   0.0270360   -0.0920602    0.0155441    0.8683425    0.1867634    0.4594569
   0.0252877   -0.0897080    0.0170110    0.6057111    0.2195674    0.7647903
   0.0250191   -0.0891306    0.0170960    0.5679904    0.1901596    0.8007660
   0.0283256   -0.0982038    0.0151772    0.9859335    0.1120701    0.1239974
   0.0281717   -0.0971982    0.0153034    0.9542148    0.1404604    0.2640929
   0.0288292   -0.1014832    0.0158382    0.9447297    0.2759865    0.1769670
   0.0287798   -0.1011001    0.0153501    0.9691107    0.2466256    0.0005478
   0.0285876   -0.1001630    0.0151828    0.9805009    0.1720493   -0.0949577
   0.0284378   -0.0995565    0.0146232    0.9843761    0.1488738   -0.0940229
   0.0283123   -0.0988978    0.0142968    0.9815055    0.0976043   -0.1646826
   0.0283709   -0.0987890    0.0147612    0.9962041    0.0611905   -0.0619123
   0.0242015   -0.0900565    0.0176866    0.2585907    0.1470160    0.9547341
   0.0247451   -0.0886457    0.0171537    0.4732357    0.1935302    0.8594149
   0.0222798   -0.0892188    0.0177119   -0.1451880    0.0816838    0.9860265
   0.0223820   -0.0872703    0.0175263   -0.0545196    0.1105203    0.9923774
   0.0239045   -0.0895886    0.0176784    0.2723664    0.1535407    0.9498641
   0.0235191   -0.0881596    0.0175610    0.1773396    0.1434529    0.9736385
   0.0210863   -0.0893766    0.0174494   -0.2881372    0.0427812    0.9566330
   0.0193980   -0.0907118    0.0165290   -0.6975667   -0.0576448    0.7141973
   0.0192470   -0.0897593    0.0164121   -0.6623642   -0.0045969    0.7491679
   0.0207796   -0.0889325    0.0173327   -0.3691938    0.0461011    0.9282083
   0.0197970   -0.0891265    0.0168246   -0.5455184    0.0320296    0.8374866
   0.0191021   -0.0951189    0.0146516   -0.8708393   -0.3188154   -0.3741601
   0.0187303   -0.0936911    0.0145283   -0.9235061   -0.2462195   -0.2941298
   0.0189872   -0.0946572    0.0145419   -0.8690230   -0.2947046   -0.3974271
   0.0187582   -0.0932879    0.0141031   -0.8306023   -0.2836806   -0.4791921
   0.0185910   -0.0927926    0.0141646   -0.8795029   -0.2679952   -0.3932597
   0.0184040   -0.0922625    0.0143887   -0.9772593   -0.2118391    0.0093995
   0.0183626   -0.0916777    0.0148032   -0.9502995   -0.1325079    0.2817312
   0.0184698   -0.0905619    0.0153214   -0.8629710   -0.0983777    0.4955834
   0.0186825   -0.0894476    0.0158011   -0.8058496   -0.0541862    0.5896357
   0.0201565   -0.0946713    0.0140445    0.0330332   -0.2603387   -0.9649521
   0.0217815   -0.0928270    0.0128343   -0.3495411   -0.2118319   -0.9126600
   0.0233678   -0.0942123    0.0127045   -0.2276879   -0.1638857   -0.9598436
   0.0208154   -0.0932639    0.0134509   -0.5025437   -0.2705447   -0.8211306
   0.0201829   -0.0927787    0.0136419   -0.3649395   -0.2382341   -0.9000354
   0.0199893   -0.0932582    0.0137832    0.0367005   -0.1814156   -0.9827215
   0.0196847   -0.0950489    0.0141777   -0.1601524   -0.4198773   -0.8933388
   0.0194685   -0.0951650    0.0143088   -0.4279042   -0.3993637   -0.8108061
   0.0192476   -0.0951525    0.0144458   -0.6911678   -0.3778450   -0.6160521
   0.0295304   -0.1094021    0.0154972    0.7863593   -0.6173875    0.0217208
   0.0296570   -0.1091331    0.0143935    0.7709977   -0.6248160   -0.1231561
   0.0296655   -0.1091474    0.0159078    0.8210549   -0.5193313    0.2369891
   0.0295083   -0.1091560    0.0162180    0.7311343   -0.5074810    0.4559667
   0.0289891   -0.1096318    0.0139664    0.5837734   -0.7392808   -0.3356672
   0.0293358   -0.1091533    0.0135026    0.6793590   -0.6666394   -0.3066973
   0.0291680   -0.1093511    0.0137562    0.6042199   -0.7337697   -0.3106452
   0.0294597   -0.1088208    0.0131462    0.6415902   -0.5965720   -0.4821450
   0.0292578   -0.1084278    0.0126434    0.4459033   -0.4960068   -0.7450822
   0.0288638   -0.1042869    0.0121431    0.2557964    0.3339960   -0.9072017
   0.0288898   -0.1040798    0.0122453    0.3192824    0.5099801   -0.7987359
   0.0286373   -0.1039459    0.0123117   -0.0449464    0.5992825   -0.7992748
   0.0287148   -0.1048402    0.0119401    0.2354739    0.1770490   -0.9556180
   0.0284520   -0.1036795    0.0125830   -0.2036179    0.5818729   -0.7873777
   0.0275408   -0.1026656    0.0132331   -0.1662783    0.1863102   -0.9683181
   0.0272923   -0.1021723    0.0133197    0.0032264    0.1131025   -0.9935781
   0.0285037   -0.1033946    0.0127661   -0.1239173    0.5629041   -0.8171802
   0.0278166   -0.1026494    0.0132102    0.0031705    0.2857582   -0.9582965
   0.0285587   -0.1031516    0.0129542    0.0048652    0.5536572   -0.8327305
   0.0295754   -0.1060963    0.0123622    0.7527877    0.0691684   -0.6546193
   0.0289772   -0.1072744    0.0120318    0.9006679   -0.0946214   -0.4240802
   0.0296623   -0.1066337    0.0124280    0.7640132    0.0239256   -0.6447568
   0.0292903   -0.1072198    0.0121592    0.5533450   -0.1610472   -0.8172351
   0.0290411   -0.1047858    0.0120654    0.4486177    0.1714279   -0.8771286
   0.0296115   -0.1056672    0.0125239    0.8444661    0.1611473   -0.5107920
   0.0294896   -0.1046216    0.0126323    0.9000878    0.1898536   -0.3921705
   0.0291662   -0.1047527    0.0121681    0.6825210    0.1948466   -0.7044146
   0.0290598   -0.1077265    0.0121955    0.4714438   -0.3245719   -0.8199962
   0.0275424   -0.1009875    0.0134345    0.1199356    0.0703483   -0.9902861
   0.0275299   -0.1006371    0.0134500    0.1310044   -0.0102235   -0.9913291
   0.0272201   -0.1001782    0.0134046    0.7319211   -0.0426331   -0.6800543
   0.0276923   -0.0976215    0.0135825    0.3425521   -0.0007186   -0.9394986
   0.0277126   -0.0979714    0.0135885    0.4538084    0.0150986   -0.8909714
   0.0274607   -0.0994131    0.0134331    0.3434171    0.0419308   -0.9382465
   0.0271833   -0.0996921    0.0133712    0.1477642   -0.0266494   -0.9886635
   0.0279192   -0.0966064    0.0136088    0.3983927   -0.1339262   -0.9073847
   0.0278594   -0.0971013    0.0136318    0.4707460   -0.0394419   -0.8813867
   0.0275074   -0.0957098    0.0133439    0.2444632   -0.1625450   -0.9559377
   0.0278026   -0.0961492    0.0134810    0.3757632   -0.1206940   -0.9188226
   0.0274022   -0.0949650    0.0131586    0.3285289   -0.2635131   -0.9069893
   0.0265286   -0.0950024    0.0129746    0.1065406   -0.2634745   -0.9587650
   0.0249478   -0.0945751    0.0127084    0.1178738   -0.1342645   -0.9839100
   0.0243137   -0.0946315    0.0126933    0.0489604   -0.1831851   -0.9818585
   0.0254738   -0.0930780    0.0125692    0.0861316   -0.1544746   -0.9842352
   0.0243047   -0.0927231    0.0123690    0.1640616   -0.1439894   -0.9758846
   0.0248531   -0.0926717    0.0124017    0.1085351   -0.1374351   -0.9845465
   0.0231961   -0.0923253    0.0123428   -0.1983286   -0.2107972   -0.9571992
   0.0239217   -0.0918056    0.0121867   -0.0193324   -0.1870678   -0.9821568
   0.0239810   -0.0922742    0.0122839    0.0175190   -0.1922315   -0.9811932
   0.0234537   -0.0922478    0.0123208    0.2163456   -0.1610324   -0.9629450
   0.0234002   -0.0918382    0.0122312    0.0903415   -0.1755927   -0.9803089
   0.0296051   -0.1085266    0.0165748    0.8108292   -0.3004094    0.5023048
   0.0297156   -0.1082025    0.0164764    0.9013861   -0.0833774    0.4249133
   0.0293124   -0.1075632    0.0172642    0.8487928   -0.0195610    0.5283636
   0.0297371   -0.1077261    0.0163832    0.9594679    0.1322569    0.2488564
   0.0293375   -0.1036176    0.0157879    0.9751577    0.0291622    0.2195836
   0.0294546   -0.1064054    0.0157427    0.9733312    0.2105211    0.0911443
   0.0295166   -0.1065682    0.0149925    0.9756454    0.2058768    0.0757015
   0.0295095   -0.1062015    0.0144236    0.9784134    0.1317310    0.1592296
   0.0293381   -0.1044507    0.0156713    0.9953695    0.0135846    0.0951579
   0.0293679   -0.1030188    0.0154164    0.9754132    0.1612525    0.1502220
   0.0292479   -0.1027515    0.0156638    0.9412216    0.2124674    0.2626014
   0.0293462   -0.1034408    0.0157527    0.9685005    0.0599421    0.2416893
   0.0292744   -0.1025418    0.0153648    0.9580587    0.2576510    0.1254567
   0.0289579   -0.1015907    0.0153068    0.9407822    0.3332472    0.0622502
   0.0283640   -0.0968846    0.0144206    0.9901213    0.0620661    0.1257280
   0.0282433   -0.0963537    0.0146212    0.9496561    0.1455025    0.2774570
   0.0281404   -0.0954235    0.0143896    0.9548277    0.1665733    0.2460840
   0.0280418   -0.0953470    0.0147652    0.9444805    0.1600545    0.2869480
   0.0279597   -0.0948707    0.0147152    0.9476094    0.1776828    0.2654530
   0.0276923   -0.0942872    0.0152044    0.9099020    0.1818064    0.3728602
   0.0267201   -0.0889970    0.0148538    0.9002825    0.1921499    0.3906020
   0.0260699   -0.0883602    0.0157296    0.8132839    0.2006191    0.5461879
   0.0258364   -0.0892280    0.0163591    0.7153309    0.2031065    0.6686175
   0.0257294   -0.0896800    0.0165948    0.7008654    0.2328923    0.6742024
   0.0273567   -0.0923825    0.0149826    0.9247027    0.1883201    0.3308480
   0.0275013   -0.0933223    0.0151595    0.9353124    0.1723068    0.3090325
   0.0274343   -0.0928599    0.0150400    0.9794891    0.1026989    0.1733609
   0.0252785   -0.0877534    0.0165183    0.6893947    0.2038839    0.6951017
   0.0283152   -0.0977823    0.0148523    0.9958682    0.0494932    0.0761383
   0.0288066   -0.1012225    0.0147907    0.9485375    0.3112745   -0.0581798
   0.0286063   -0.1004121    0.0149683    0.9691998    0.2251985   -0.0996864
   0.0284212   -0.0999042    0.0141862    0.9567139    0.1451445   -0.2522530
   0.0281871   -0.0984756    0.0140137    0.9056541    0.0613283   -0.4195586
   0.0283116   -0.0978366    0.0146110    0.9959936   -0.0243393   -0.0860489
   0.0249654   -0.0867842    0.0165363    0.6075015    0.2003086    0.7686471
   0.0241914   -0.0876780    0.0172511    0.4111583    0.1848563    0.8926237
   0.0216707   -0.0888045    0.0175788   -0.2124743    0.0731391    0.9744257
   0.0214871   -0.0868899    0.0173429   -0.2328793    0.0928263    0.9680654
   0.0226244   -0.0870331    0.0174849    0.0567629    0.1142559    0.9918284
   0.0217824   -0.0858777    0.0173280   -0.1400976    0.0900724    0.9860323
   0.0236186   -0.0867253    0.0172948    0.3273822    0.1614807    0.9309913
   0.0187538   -0.0889161    0.0159329   -0.7310913   -0.0007024    0.6822792
   0.0212906   -0.0878835    0.0174034   -0.2879787    0.0971952    0.9526916
   0.0205775   -0.0884790    0.0172183   -0.3779669    0.0690968    0.9232370
   0.0202195   -0.0880572    0.0170191   -0.4511310    0.0611554    0.8903599
   0.0196490   -0.0876904    0.0166530   -0.5408134    0.0257503    0.8407484
   0.0190149   -0.0937854    0.0139963   -0.7399809   -0.2492472   -0.6247432
   0.0189739   -0.0942197    0.0142841   -0.8418440   -0.2740244   -0.4649831
   0.0191766   -0.0947494    0.0143065   -0.7027390   -0.3605436   -0.6133239
   0.0186170   -0.0924234    0.0138361   -0.8085840   -0.3049118   -0.5032105
   0.0189561   -0.0933225    0.0138761   -0.6773669   -0.3438870   -0.6503198
   0.0192372   -0.0937974    0.0138639   -0.4461570   -0.2734958   -0.8521408
   0.0183367   -0.0918405    0.0140845   -0.9269153   -0.2376872   -0.2904011
   0.0184355   -0.0921931    0.0141127   -0.8113581   -0.2763410   -0.5151056
   0.0182374   -0.0912738    0.0144415   -0.9796568   -0.1649393    0.1143131
   0.0182532   -0.0901415    0.0150706   -0.9038710   -0.1024973    0.4153450
   0.0182546   -0.0891352    0.0151410   -0.8638773   -0.0261194    0.5030246
   0.0198164   -0.0942337    0.0139116    0.0712987   -0.2327776   -0.9699129
   0.0197524   -0.0937685    0.0138009    0.1170365   -0.1846031   -0.9758197
   0.0196117   -0.0947226    0.0140223   -0.0823025   -0.3379859   -0.9375456
   0.0214990   -0.0923476    0.0128672   -0.4303390   -0.1823159   -0.8840641
   0.0219193   -0.0918761    0.0126047   -0.3472869   -0.1957669   -0.9170971
   0.0201301   -0.0923044    0.0135624   -0.3058654   -0.1980410   -0.9312498
   0.0199318   -0.0927874    0.0136908   -0.0631006   -0.1709919   -0.9832497
   0.0196991   -0.0932959    0.0137210    0.1502777   -0.1713677   -0.9736784
   0.0199133   -0.0927892    0.0136896    0.1713121   -0.1507485   -0.9736154
   0.0193722   -0.0947231    0.0141054   -0.4314926   -0.3801815   -0.8180930
   0.0297959   -0.1089165    0.0148092    0.8968973   -0.4408485   -0.0350418
   0.0298172   -0.1089498    0.0153123    0.9323242   -0.3607527   -0.0250820
   0.0298063   -0.1089839    0.0155747    0.8962744   -0.4392694    0.0611114
   0.0298892   -0.1086895    0.0142307    0.9470204   -0.3211095   -0.0064133
   0.0297868   -0.1088639    0.0140457    0.7835948   -0.5842232   -0.2113349
   0.0297882   -0.1087868    0.0160509    0.8961464   -0.2815796    0.3429788
   0.0298635   -0.1087520    0.0157656    0.9610037   -0.2505326    0.1170696
   0.0297422   -0.1084308    0.0132270    0.8386204   -0.4516971   -0.3044431
   0.0298214   -0.1084461    0.0134541    0.7936438   -0.5117950   -0.3289306
   0.0297422   -0.1087985    0.0137980    0.8104318   -0.5089718   -0.2900828
   0.0296545   -0.1083958    0.0129999    0.7254247   -0.4260099   -0.5406243
   0.0294985   -0.1076419    0.0124152    0.6469219   -0.2848862   -0.7073414
   0.0290242   -0.1042544    0.0122290    0.5068324    0.3331997   -0.7950464
   0.0290147   -0.1036693    0.0126320    0.5849317    0.4937105   -0.6435098
   0.0292093   -0.1042002    0.0124047    0.6638848    0.3610281   -0.6549165
   0.0290055   -0.1036731    0.0126237    0.3102701    0.5680618   -0.7622587
   0.0287498   -0.1034692    0.0126909    0.1136088    0.6015794   -0.7906929
   0.0278418   -0.1016071    0.0134286    0.1538138    0.0918548   -0.9838211
   0.0281296   -0.1020493    0.0134153    0.2213896    0.2173746   -0.9506497
   0.0276227   -0.1011287    0.0134316    0.3651921    0.0783399   -0.9276301
   0.0288066   -0.1032370    0.0128809    0.1900789    0.6258153   -0.7564557
   0.0286646   -0.1026091    0.0133238    0.2618355    0.4421944   -0.8578498
   0.0280995   -0.1025398    0.0132621    0.1084987    0.2422950   -0.9641168
   0.0289234   -0.1028045    0.0132661    0.4393185    0.5879312   -0.6792173
   0.0298114   -0.1060499    0.0127735    0.9242558    0.1675533   -0.3430411
   0.0299033   -0.1065250    0.0128266    0.9046463    0.1351446   -0.4041670
   0.0298815   -0.1070561    0.0126774    0.7856005   -0.0412221   -0.6173594
   0.0296830   -0.1055730    0.0127346    0.9520553    0.2035309   -0.2283985
   0.0295962   -0.1050438    0.0129223    0.9815982    0.1905687   -0.0121847
   0.0295287   -0.1044896    0.0132080    0.9881219    0.1191666   -0.0970285
   0.0294093   -0.1040912    0.0128183    0.9327099    0.2632787   -0.2464480
   0.0293363   -0.1041458    0.0126017    0.7932491    0.3815887   -0.4744954
   0.0278217   -0.1005992    0.0135166    0.7737858    0.0288860   -0.6327884
   0.0276941   -0.1001221    0.0134773    0.4172465    0.0030930   -0.9087881
   0.0279242   -0.0975774    0.0136942    0.5919659   -0.0404943   -0.8049451
   0.0278859   -0.0985855    0.0136363    0.5475363    0.0629908   -0.8344077
   0.0281299   -0.0980002    0.0139481    0.7373994   -0.0328242   -0.6746590
   0.0280066   -0.1000681    0.0136072    0.5078331    0.0727793   -0.8583756
   0.0277933   -0.1001078    0.0135084    0.3548619    0.0356906   -0.9342372
   0.0280839   -0.0995372    0.0137365    0.6119328    0.0743173   -0.7874104
   0.0279916   -0.0990602    0.0136843    0.6674338    0.0548596   -0.7426456
   0.0280873   -0.0965709    0.0137066    0.7223153   -0.0833643   -0.6865210
   0.0280727   -0.0960945    0.0136265    0.6927566   -0.0484629   -0.7195413
   0.0278089   -0.0956638    0.0134390    0.4664018   -0.0927367   -0.8796984
   0.0280110   -0.0956187    0.0135627    0.6974536    0.0065533   -0.7166000
   0.0266837   -0.0944253    0.0127398    0.0621245   -0.3306747   -0.9416978
   0.0276014   -0.0942780    0.0130615    0.6188516   -0.1849268   -0.7634296
   0.0276963   -0.0947185    0.0132613    0.5971198   -0.1371624   -0.7903382
   0.0272370   -0.0943542    0.0128561    0.3811965   -0.2674568   -0.8849611
   0.0261128   -0.0939833    0.0127155    0.0159084   -0.2065372   -0.9783094
   0.0257978   -0.0935272    0.0126553   -0.0221291   -0.1595070   -0.9869487
   0.0253727   -0.0921283    0.0124247    0.0180718   -0.1310213   -0.9912148
   0.0256332   -0.0921107    0.0124015   -0.1975486   -0.1903556   -0.9616337
   0.0242139   -0.0918942    0.0122362    0.3140189   -0.1364346   -0.9395625
   0.0244669   -0.0917548    0.0122095    0.0797576   -0.1801855   -0.9803938
   0.0252710   -0.0911780    0.0122782    0.0662959   -0.1748681   -0.9823574
   0.0241989   -0.0917768    0.0122114    0.2801369   -0.1630663   -0.9460088
   0.0225926   -0.0913935    0.0122977   -0.2376877   -0.2074908   -0.9489215
   0.0234988   -0.0918303    0.0122293   -0.0410551   -0.1864701   -0.9816025
   0.0242817   -0.0908227    0.0120192    0.0984848   -0.1892614   -0.9769754
   0.0230260   -0.0909134    0.0120739   -0.1317130   -0.1973994   -0.9714346
   0.0298946   -0.1083098    0.0159272    0.9823934   -0.0250470    0.1851373
   0.0298376   -0.1077194    0.0158412    0.9814432    0.1586058    0.1077661
   0.0297467   -0.1073576    0.0158090    0.9544800    0.2751664    0.1151145
   0.0299028   -0.1079429    0.0153529    0.9928944    0.1081777    0.0495812
   0.0294461   -0.1051943    0.0145178    0.9925331   -0.0047934    0.1218815
   0.0294859   -0.1036567    0.0147321    0.9959406    0.0236611    0.0868478
   0.0297716   -0.1074128    0.0155571    0.9642622    0.2649498   -0.0001990
   0.0299028   -0.1080502    0.0148680    0.9927118    0.1175479    0.0265658
   0.0298586   -0.1076602    0.0144155    0.9558712    0.1879747    0.2257783
   0.0297575   -0.1070089    0.0142280    0.9327222    0.2293143    0.2782881
   0.0297279   -0.1058809    0.0135611    0.9545722    0.2072554    0.2140961
   0.0294648   -0.1057239    0.0143544    0.9825858    0.0609494    0.1755289
   0.0293275   -0.1027759    0.0151346    0.9733596    0.2289284    0.0127583
   0.0294581   -0.1032354    0.0144136    0.9756324    0.2177215   -0.0271816
   0.0291970   -0.1022905    0.0148423    0.9498739    0.3116094   -0.0252809
   0.0283196   -0.0964087    0.0143509    0.9929605    0.1087663    0.0468979
   0.0283561   -0.0974151    0.0142665    0.9865280   -0.0787749   -0.1433774
   0.0283482   -0.0969375    0.0141841    0.9757800    0.0247801   -0.2173462
   0.0282634   -0.0959316    0.0142856    0.9864246    0.1450037    0.0770743
   0.0281023   -0.0949800    0.0141721    0.9774802    0.1829472    0.1051799
   0.0280123   -0.0945032    0.0141190    0.9765442    0.1606464    0.1433674
   0.0277393   -0.0938661    0.0148590    0.9450612    0.1791233    0.2734487
   0.0275364   -0.0933360    0.0150889    0.9046836    0.2100873    0.3706898
   0.0273744   -0.0923905    0.0149404    0.9429992    0.1722374    0.2847576
   0.0277630   -0.0925999    0.0138655    0.9703220    0.1852042    0.1554818
   0.0271172   -0.0896357    0.0140687    0.9489701    0.1992901    0.2444161
   0.0267637   -0.0886697    0.0145271    0.9175603    0.2025504    0.3421350
   0.0264784   -0.0884667    0.0150979    0.8730057    0.2012303    0.4442605
   0.0256490   -0.0873533    0.0159526    0.7610146    0.2062424    0.6150779
   0.0258605   -0.0860331    0.0151341    0.8275916    0.2099008    0.5206090
   0.0274343   -0.0928599    0.0150400    0.9839511    0.0946551    0.1512637
   0.0274343   -0.0928599    0.0150400    0.9738460    0.1030286    0.2025070
   0.0289758   -0.1018073    0.0143300    0.9257582    0.3554396   -0.1289747
   0.0287610   -0.1011589    0.0145430    0.9458355    0.3056302   -0.1094777
   0.0286580   -0.1009460    0.0142887    0.9266020    0.2776061   -0.2536603
   0.0284403   -0.1004338    0.0140228    0.8053629    0.1427426   -0.5753392
   0.0281533   -0.0990055    0.0138690    0.8216883    0.1117084   -0.5588825
   0.0282454   -0.0979445    0.0141497    0.9474695   -0.1051297   -0.3020750
   0.0251128   -0.0863378    0.0162615    0.7219973    0.2137380    0.6580547
   0.0241732   -0.0853053    0.0167928    0.5304564    0.1950806    0.8249603
   0.0207277   -0.0869963    0.0171500   -0.3113277    0.0809344    0.9468499
   0.0230384   -0.0857768    0.0173163    0.2082738    0.1429315    0.9675705
   0.0222531   -0.0858298    0.0173752   -0.0210163    0.1030086    0.9944584
   0.0205552   -0.0865360    0.0170528   -0.3530338    0.0669764    0.9332102
   0.0213725   -0.0854377    0.0172325   -0.2116383    0.0942168    0.9727962
   0.0221125   -0.0843948    0.0171946   -0.0829382    0.1013474    0.9913879
   0.0223844   -0.0843716    0.0172002    0.0595537    0.1602037    0.9852858
   0.0193474   -0.0872706    0.0164325   -0.6314670   -0.0069293    0.7753718
   0.0188779   -0.0874013    0.0160205   -0.7139217   -0.0214135    0.6998980
   0.0183908   -0.0880733    0.0154065   -0.8299838   -0.0236110    0.5572875
   0.0198861   -0.0861652    0.0167473   -0.4008328    0.0562267    0.9144242
   0.0193422   -0.0857868    0.0164204   -0.5532636    0.0295575    0.8324817
   0.0190841   -0.0942482    0.0141226   -0.6568955   -0.3091751   -0.6876766
   0.0184379   -0.0918944    0.0138055   -0.8825746   -0.2783116   -0.3789521
   0.0188697   -0.0928673    0.0137256   -0.5832468   -0.2964739   -0.7562581
   0.0187385   -0.0919397    0.0134954   -0.4719588   -0.2604621   -0.8422674
   0.0185264   -0.0919198    0.0136569   -0.6947500   -0.2957927   -0.6556136
   0.0191660   -0.0933368    0.0137320   -0.3283091   -0.3164292   -0.8899919
   0.0194822   -0.0937922    0.0137962   -0.1079182   -0.2160991   -0.9703890
   0.0193010   -0.0942626    0.0139745   -0.3873760   -0.2779433   -0.8790264
   0.0194341   -0.0934031    0.0137191   -0.0136849   -0.2435787   -0.9697846
   0.0183211   -0.0914186    0.0137618   -0.9006428   -0.2144251   -0.3779742
   0.0181425   -0.0908893    0.0139827   -0.9613724   -0.1993218   -0.1898260
   0.0180585   -0.0903798    0.0140743   -0.9880127   -0.1528406   -0.0216972
   0.0179706   -0.0898273    0.0143590   -0.9785547   -0.1640036    0.1246335
   0.0180978   -0.0897200    0.0147981   -0.9116845   -0.0660669    0.4055448
   0.0180976   -0.0887135    0.0148694   -0.8741788   -0.0262215    0.4848956
   0.0195438   -0.0942592    0.0139005   -0.1200411   -0.2560362   -0.9591849
   0.0200724   -0.0918356    0.0134703   -0.3329532   -0.2130952   -0.9185492
   0.0205839   -0.0904460    0.0128444   -0.3880494   -0.2494097   -0.8872499
   0.0216368   -0.0895232    0.0121589   -0.2844169   -0.2453291   -0.9267797
   0.0198819   -0.0923123    0.0136209   -0.1174020   -0.1809356   -0.9764625
   0.0198673   -0.0923132    0.0136203    0.1777817   -0.1471032   -0.9730130
   0.0194968   -0.0928456    0.0135962    0.2090360   -0.1630568   -0.9642180
   0.0299104   -0.1085807    0.0147084    0.9874658   -0.1572813   -0.0131885
   0.0299285   -0.1084733    0.0151867    0.9973400   -0.0721499    0.0103562
   0.0299780   -0.1083989    0.0138941    0.9332355   -0.3523075   -0.0703633
   0.0300094   -0.1082138    0.0141015    0.9872137   -0.0617434    0.1469584
   0.0299115   -0.1085056    0.0144414    0.9920369   -0.1105550    0.0603362
   0.0299613   -0.1083219    0.0136337    0.9060200   -0.3526903   -0.2339598
   0.0300623   -0.1078460    0.0135115    0.9846132   -0.1605327   -0.0690368
   0.0300049   -0.1079110    0.0132920    0.9076159   -0.3674376   -0.2030345
   0.0299240   -0.1079142    0.0130684    0.8335916   -0.3475871   -0.4293114
   0.0300067   -0.1074782    0.0129605    0.8926318   -0.1517081   -0.4244916
   0.0293617   -0.1039915    0.0128173    0.8104055    0.4319395   -0.3958171
   0.0291696   -0.1036158    0.0128186    0.7497632    0.4240967   -0.5079342
   0.0290083   -0.1036622    0.0126325    0.4455649    0.5348965   -0.7178842
   0.0290680   -0.1034555    0.0128266    0.5291512    0.5396662   -0.6547972
   0.0280432   -0.1010746    0.0135228    0.3538809    0.1320870   -0.9259165
   0.0278217   -0.1005992    0.0135166    0.7957496    0.0726516   -0.6012523
   0.0282343   -0.1015506    0.0135397    0.4322692    0.1788233   -0.8838357
   0.0284398   -0.1019635    0.0135404    0.4515162    0.3043737   -0.8387429
   0.0281420   -0.1006089    0.0136558    0.5851890    0.1750332   -0.7917811
   0.0291333   -0.1033060    0.0130288    0.6437559    0.5002278   -0.5790946
   0.0289886   -0.1026548    0.0134679    0.6241050    0.5387602   -0.5658891
   0.0288571   -0.1025015    0.0134874    0.5388271    0.4728971   -0.6971612
   0.0292088   -0.1029773    0.0134465    0.7744616    0.4715378   -0.4217361
   0.0291988   -0.1031625    0.0132312    0.7676633    0.4474807   -0.4587528
   0.0299409   -0.1064707    0.0130557    0.9741333    0.2151406   -0.0691295
   0.0297952   -0.1058805    0.0130015    0.9708194    0.2380219   -0.0292431
   0.0299978   -0.1070024    0.0128779    0.9353254    0.0778983   -0.3451062
   0.0295595   -0.1053187    0.0139221    0.9875531    0.0815891    0.1344697
   0.0294502   -0.1040664    0.0130514    0.9712861    0.1362266   -0.1950531
