NORM_ASCII
1914 3824
  -0.0300307   -0.0873761   -0.0114911   -0.2046353    0.6082710   -0.7668969
  -0.0297178   -0.0874516   -0.0115755    0.1578222    0.5561138   -0.8159838
  -0.0293478   -0.0890258   -0.0121757   -0.0382922    0.1861995   -0.9817655
  -0.0298198   -0.0884160   -0.0120711   -0.1050850    0.2220166   -0.9693636
  -0.0268357   -0.0902408   -0.0096819    0.6810696    0.3568340   -0.6393854
  -0.0273618   -0.0900947   -0.0102195    0.9269493    0.1060434   -0.3598886
  -0.0271931   -0.0901414   -0.0100296    0.8045094    0.2758984   -0.5259702
  -0.0263882   -0.0901078   -0.0089712    0.6759978    0.5835234   -0.4500305
  -0.0264776   -0.0902856   -0.0093232    0.6840079    0.4768788   -0.5520144
  -0.0264135   -0.0893786   -0.0084139    0.6585590    0.3329054   -0.6748881
  -0.0268862   -0.0895733   -0.0090233    0.6584406    0.5114024   -0.5521988
  -0.0269938   -0.0880102   -0.0085427    0.6883969    0.0771283   -0.7212218
  -0.0269288   -0.0871915   -0.0084689    0.6973606    0.0551449   -0.7145958
  -0.0264345   -0.0873364   -0.0078846    0.7873570    0.0535366   -0.6141683
  -0.0271688   -0.0889775   -0.0089322    0.6711237    0.3546937   -0.6509880
  -0.0275628   -0.0885699   -0.0091634    0.7167462    0.2098601   -0.6650066
  -0.0274964   -0.0900495   -0.0104590    0.9034501    0.1637262   -0.3961966
  -0.0279274   -0.0894000   -0.0110319    0.8358032    0.1949456   -0.5132535
  -0.0282106   -0.0893162   -0.0114035    0.7887663    0.2363309   -0.5674463
  -0.0287982   -0.0886458   -0.0118314    0.6492291    0.3160328   -0.6918272
  -0.0282769   -0.0887919   -0.0112866    0.7813929    0.3225306   -0.5342277
  -0.0286100   -0.0887688   -0.0116863    0.7212658    0.3256361   -0.6113402
  -0.0292295   -0.0890506   -0.0121752    0.2346682    0.2349551   -0.9432534
  -0.0290065   -0.0885771   -0.0119580    0.4924596    0.3335947   -0.8038645
  -0.0248691   -0.0819315   -0.0054925    0.9385939   -0.2630537   -0.2232581
  -0.0246294   -0.0811616   -0.0050546    0.9503989   -0.2503545    0.1845658
  -0.0240307   -0.0761566   -0.0041892    0.8592744   -0.1548184    0.4875230
  -0.0243992   -0.0761035   -0.0038450    0.5441749   -0.2265392    0.8078079
  -0.0241480   -0.0776659   -0.0045254    0.8518045   -0.2037594    0.4826087
  -0.0257708   -0.0758586   -0.0032901    0.1589493   -0.1658019    0.9732651
  -0.0247840   -0.0755272   -0.0035251    0.5123578   -0.1601484    0.8437073
  -0.0246455   -0.0760625   -0.0037150    0.9019921   -0.0906064    0.4221383
  -0.0245316   -0.0755701   -0.0036511    0.5911606   -0.1710131    0.7882155
  -0.0244501   -0.0801676   -0.0049602    0.9545651   -0.1791807    0.2381172
  -0.0241444   -0.0786649   -0.0050903    0.9710286   -0.1818978    0.1549730
  -0.0249167   -0.0821113   -0.0054593    0.9295303   -0.2882699   -0.2299433
  -0.0295183   -0.0734392   -0.0045091   -0.8293356    0.0132985    0.5585925
  -0.0298372   -0.0743665   -0.0051256   -0.9450123    0.0268446    0.3259311
  -0.0291585   -0.0730262   -0.0040586   -0.7417789   -0.0265322    0.6701195
  -0.0279381   -0.0733362   -0.0032336   -0.3196468   -0.0817424    0.9440043
  -0.0281453   -0.0727717   -0.0032594   -0.4383109   -0.0780186    0.8954310
  -0.0261342   -0.0752736   -0.0031544   -0.0059123   -0.1142612    0.9934332
  -0.0274760   -0.0739564   -0.0031464   -0.2239535   -0.1275253    0.9662205
  -0.0295729   -0.0746402   -0.0094381   -0.8210711    0.1622941   -0.5472686
  -0.0300289   -0.0761241   -0.0091126   -0.8962436    0.1669487   -0.4109447
  -0.0299693   -0.0771386   -0.0096397   -0.7535272    0.1364009   -0.6431108
  -0.0298421   -0.0736090   -0.0085331   -0.9296782    0.1084033   -0.3520612
  -0.0301451   -0.0741504   -0.0073078   -0.9937245    0.1040793   -0.0409769
  -0.0299512   -0.0736065   -0.0082359   -0.9684120    0.0964030   -0.2299667
  -0.0302412   -0.0796679   -0.0097566   -0.6392671    0.0551317   -0.7670059
  -0.0300034   -0.0732354   -0.0059874   -0.9865561    0.0483393    0.1561104
  -0.0299479   -0.0721321   -0.0070853   -0.9956073    0.0778126   -0.0520695
  -0.0299962   -0.0726924   -0.0063320   -0.9970139    0.0634310    0.0440439
  -0.0285531   -0.0815967   -0.0094613    0.2844142    0.0369121   -0.9579906
  -0.0292210   -0.0798734   -0.0098448    0.4999824   -0.1383849   -0.8549077
  -0.0285996   -0.0800306   -0.0094497    0.3895513   -0.0433526   -0.9199839
  -0.0294388   -0.0798211   -0.0099615    0.1847918   -0.1105741   -0.9765374
  -0.0295938   -0.0803126   -0.0098979    0.0097964   -0.0936973   -0.9955525
  -0.0300197   -0.0797051   -0.0099033   -0.4274767    0.0106449   -0.9039637
  -0.0297226   -0.0797606   -0.0099790   -0.1026317   -0.0450059   -0.9937008
  -0.0281988   -0.0837458   -0.0094657    0.4216961    0.0989080   -0.9013266
  -0.0295020   -0.0873864   -0.0114320    0.5060679    0.5309136   -0.6797249
  -0.0293043   -0.0874890   -0.0112964    0.6213835    0.5052341   -0.5988498
  -0.0282689   -0.0852718   -0.0096779    0.6242467    0.0216893   -0.7809261
  -0.0290873   -0.0867809   -0.0105758    0.6142913    0.3488763   -0.7077651
  -0.0287031   -0.0870877   -0.0103095    0.7374571    0.2319509   -0.6343152
  -0.0281830   -0.0868475   -0.0096693    0.7092814    0.0786129   -0.7005283
  -0.0281434   -0.0863403   -0.0096368    0.6627752    0.0275787   -0.7483104
  -0.0263705   -0.0842315   -0.0079254    0.8118130   -0.0826670   -0.5780362
  -0.0264007   -0.0836970   -0.0080751    0.7385844   -0.0413977   -0.6728888
  -0.0257740   -0.0818074   -0.0072644    0.8905423   -0.1001106   -0.4437480
  -0.0256325   -0.0818529   -0.0070347    0.8745012   -0.1162515   -0.4708856
  -0.0264877   -0.0826337   -0.0081741    0.7714884   -0.0235189   -0.6358085
  -0.0254750   -0.0823781   -0.0064817    0.9130603   -0.1259684   -0.3878825
  -0.0261561   -0.0848269   -0.0074691    0.9129794   -0.0301347   -0.4068913
  -0.0261335   -0.0858723   -0.0074267    0.9032211    0.0031152   -0.4291643
  -0.0261767   -0.0858577   -0.0075105    0.8575059   -0.0042269   -0.5144568
  -0.0261469   -0.0853499   -0.0074493    0.9823067    0.0011019   -0.1872762
  -0.0261469   -0.0853499   -0.0074493    0.9932580   -0.0003879   -0.1159240
  -0.0251421   -0.0818807   -0.0059741    0.8310363   -0.2046337   -0.5172076
  -0.0250159   -0.0820695   -0.0057515    0.8573320   -0.2193058   -0.4657111
  -0.0296109   -0.0877472   -0.0117925    0.1476390    0.5341657   -0.8323879
  -0.0295236   -0.0882197   -0.0120184    0.1222374    0.3734694   -0.9195535
  -0.0293960   -0.0876875   -0.0116497    0.4423305    0.6099659   -0.6574841
  -0.0296757   -0.0874453   -0.0115473    0.4170835    0.4515734   -0.7887476
  -0.0292359   -0.0885395   -0.0120605    0.2679870    0.2983054   -0.9160769
  -0.0266750   -0.0901832   -0.0094587    0.6432750    0.5463649   -0.5363606
  -0.0270652   -0.0899309   -0.0097277    0.7270109    0.5146071   -0.4545710
  -0.0273618   -0.0900947   -0.0102195    0.9838978    0.1018028   -0.1469055
  -0.0273618   -0.0900947   -0.0102195    0.9807638    0.1157012   -0.1572121
  -0.0274472   -0.0896052   -0.0099928    0.8409946    0.3957904   -0.3688876
  -0.0270264   -0.0897095   -0.0092924    0.6735407    0.5332841   -0.5118115
  -0.0278734   -0.0879668   -0.0094321    0.7690874    0.0774133   -0.6344381
  -0.0271494   -0.0876500   -0.0086865    0.7077988    0.0250761   -0.7059688
  -0.0271212   -0.0872632   -0.0086480    0.6915492    0.0412977   -0.7211479
  -0.0265190   -0.0862734   -0.0079722    0.7496350    0.0157227   -0.6616647
  -0.0272787   -0.0893437   -0.0092931    0.7141976    0.4787521   -0.5106058
  -0.0274944   -0.0890873   -0.0093702    0.7204942    0.3731643   -0.5844968
  -0.0276639   -0.0890387   -0.0095580    0.7968262    0.3092585   -0.5190637
  -0.0277336   -0.0884117   -0.0093265    0.8144562    0.2302086   -0.5326023
  -0.0275310   -0.0897322   -0.0103426    0.8670500    0.3478584   -0.3566775
  -0.0279591   -0.0891851   -0.0109413    0.8677574    0.3715887   -0.3300285
  -0.0288890   -0.0881411   -0.0115938    0.6356607    0.5074538   -0.5817440
  -0.0286957   -0.0882832   -0.0114600    0.7232973    0.4702224   -0.5056994
  -0.0285049   -0.0884478   -0.0113276    0.7422578    0.4859484   -0.4614190
  -0.0283157   -0.0886276   -0.0111955    0.8138312    0.4519712   -0.3652408
  -0.0290881   -0.0880725   -0.0117340    0.5251336    0.4645234   -0.7130587
  -0.0246556   -0.0811149   -0.0056363    0.8971071   -0.2386890   -0.3717880
  -0.0246093   -0.0811457   -0.0053383    0.9740866   -0.2220733   -0.0428815
  -0.0249278   -0.0815638   -0.0058383    0.7977191   -0.2730100   -0.5376893
  -0.0241134   -0.0756407   -0.0039614    0.7011387   -0.1807115    0.6897447
  -0.0239682   -0.0766702   -0.0044303    0.7889830   -0.2046678    0.5793245
  -0.0239191   -0.0764049   -0.0044043    0.8420392   -0.2015438    0.5003500
  -0.0240307   -0.0761566   -0.0041892    0.9489026   -0.1167649    0.2931721
  -0.0240307   -0.0761566   -0.0041892    0.9751532   -0.0677547    0.2109159
  -0.0240160   -0.0779277   -0.0050230    0.9450491   -0.2224807    0.2395508
  -0.0239311   -0.0771796   -0.0046888    0.9104361   -0.2280026    0.3451390
  -0.0254294   -0.0748964   -0.0032174    0.2011970   -0.1595450    0.9664705
  -0.0246491   -0.0755497   -0.0036033    0.4060647   -0.1899032    0.8938950
  -0.0242133   -0.0740910   -0.0034947    0.4548407   -0.2367955    0.8585149
  -0.0243165   -0.0796470   -0.0053843    0.9761431   -0.1858245   -0.1123120
  -0.0243305   -0.0796365   -0.0054868    0.9681203   -0.1818445   -0.1722665
  -0.0240200   -0.0781556   -0.0053165    0.9793081   -0.2020094   -0.0121570
  -0.0296139   -0.0728866   -0.0047011   -0.8867453    0.0169157    0.4619487
  -0.0299398   -0.0723070   -0.0058887   -0.9832051    0.0573723    0.1732516
  -0.0298188   -0.0728042   -0.0052765   -0.9569975    0.0391546    0.2874418
  -0.0292379   -0.0714524   -0.0040634   -0.7719275   -0.0295844    0.6350218
  -0.0285090   -0.0716501   -0.0033872   -0.6165872   -0.0770142    0.7835107
  -0.0294089   -0.0719147   -0.0043544   -0.8267974   -0.0303720    0.5616793
  -0.0295613   -0.0718688   -0.0045679   -0.9033993   -0.0041752    0.4287799
  -0.0269614   -0.0730377   -0.0029773   -0.1210872   -0.1038032    0.9871995
  -0.0282472   -0.0706844   -0.0031253   -0.4756731   -0.0884223    0.8751666
  -0.0272261   -0.0698925   -0.0026437   -0.2486963   -0.1405780    0.9583256
  -0.0295098   -0.0741359   -0.0094087   -0.8133379    0.1239424   -0.5684361
  -0.0296388   -0.0761617   -0.0097392   -0.5760670    0.1587664   -0.8018355
  -0.0294075   -0.0746619   -0.0096228   -0.6137876    0.1300455   -0.7786867
  -0.0298515   -0.0776674   -0.0098434   -0.5879263    0.1108519   -0.8012830
  -0.0300088   -0.0791893   -0.0098878   -0.4849349    0.0506031   -0.8730850
  -0.0297436   -0.0725969   -0.0084684   -0.9352457    0.1211085   -0.3326382
  -0.0297491   -0.0730973   -0.0087065   -0.9120763    0.1214312   -0.3916264
  -0.0294557   -0.0736288   -0.0093855   -0.8344925    0.0977054   -0.5422878
  -0.0298434   -0.0720961   -0.0079059   -0.9765369    0.0984094   -0.1915497
  -0.0299645   -0.0721847   -0.0062739   -0.9972381    0.0653645    0.0352648
  -0.0299348   -0.0716565   -0.0064956   -0.9936968    0.0928974    0.0627435
  -0.0298921   -0.0711390   -0.0066103   -0.9989875    0.0420419    0.0160117
  -0.0298380   -0.0706002   -0.0070514   -0.9926978    0.0440911   -0.1122810
  -0.0279007   -0.0807074   -0.0092756    0.4399738   -0.0093283   -0.8979622
  -0.0282300   -0.0790766   -0.0093480    0.3036524   -0.0166910   -0.9526367
  -0.0283992   -0.0785495   -0.0094374    0.5664642   -0.1229582   -0.8148617
  -0.0291277   -0.0793717   -0.0098784    0.4781574   -0.1294919   -0.8686756
  -0.0288623   -0.0789679   -0.0097377    0.6421217   -0.1949311   -0.7414052
  -0.0292712   -0.0788154   -0.0099995    0.2424597   -0.0701702   -0.9676205
  -0.0294628   -0.0782533   -0.0100488   -0.0663459   -0.0102238   -0.9977443
  -0.0296841   -0.0787299   -0.0099996   -0.2660162   -0.0029511   -0.9639640
  -0.0280050   -0.0843080   -0.0094199    0.5634081    0.0331339   -0.8255141
  -0.0275011   -0.0833972   -0.0090774    0.5606093    0.0367580   -0.8272642
  -0.0279280   -0.0831683   -0.0092969    0.5125904    0.0284436   -0.8581620
  -0.0292917   -0.0875405   -0.0113257    0.6575737    0.5539439   -0.5106299
  -0.0289409   -0.0876379   -0.0109673    0.7085866    0.5068365   -0.4909397
  -0.0263779   -0.0847520   -0.0078798    0.7424642   -0.0500028   -0.6680170
  -0.0281820   -0.0873586   -0.0097902    0.7941498    0.1610335   -0.5859986
  -0.0284820   -0.0877778   -0.0103298    0.8402432    0.3448891   -0.4183811
  -0.0278572   -0.0874530   -0.0093932    0.6874701    0.0230035   -0.7258482
  -0.0262743   -0.0853050   -0.0076994    0.8880288   -0.0242248   -0.4591492
  -0.0270870   -0.0829901   -0.0087080    0.6384239    0.0075545   -0.7696479
  -0.0256963   -0.0812069   -0.0072541    0.9320727   -0.1398459   -0.3341909
  -0.0262588   -0.0818976   -0.0079111    0.7604749   -0.0379615   -0.6482568
  -0.0262319   -0.0816677   -0.0079030    0.7565807   -0.0968795   -0.6466839
  -0.0256288   -0.0807990   -0.0072689    0.9040292   -0.1439477   -0.4025050
  -0.0255133   -0.0818957   -0.0067723    0.8959226   -0.1628382   -0.4132873
  -0.0252809   -0.0803854   -0.0068008    0.8491568   -0.1131003   -0.5158886
  -0.0270627   -0.0809171   -0.0087619    0.6287705   -0.0387723   -0.7766237
  -0.0252069   -0.0814768   -0.0062419    0.8322952   -0.1892568   -0.5210246
  -0.0293094   -0.0880201   -0.0118452    0.3996358    0.4835721   -0.7787485
  -0.0290897   -0.0880668   -0.0117305    0.5717910    0.5879723   -0.5721395
  -0.0276634   -0.0890425   -0.0095597    0.7639670    0.4519130   -0.4605748
  -0.0278011   -0.0889952   -0.0097946    0.8137163    0.4410748   -0.3785747
  -0.0276340   -0.0894029   -0.0101238    0.8075718    0.5224479   -0.2736346
  -0.0280794   -0.0884141   -0.0098557    0.8427218    0.2492855   -0.4771548
  -0.0279324   -0.0889540   -0.0100394    0.8505574    0.4232051   -0.3121691
  -0.0244757   -0.0801098   -0.0056925    0.9185312   -0.1750157   -0.3544996
  -0.0246921   -0.0805683   -0.0059166    0.7647042   -0.1588431   -0.6244969
  -0.0239111   -0.0756661   -0.0041214    0.7415657   -0.1994707    0.6405402
  -0.0237319   -0.0761900   -0.0045805    0.8710699   -0.2554936    0.4194762
  -0.0238603   -0.0761778   -0.0043708    0.7575629   -0.2606877    0.5984483
  -0.0239103   -0.0776638   -0.0052555    0.9770009   -0.2129863    0.0102971
  -0.0239431   -0.0776695   -0.0050767    0.9551057   -0.2172261    0.2014597
  -0.0238089   -0.0771695   -0.0052003    0.9776264   -0.2102905   -0.0049571
  -0.0236923   -0.0766799   -0.0051347    0.9670697   -0.2284394    0.1122122
  -0.0251316   -0.0744404   -0.0031939    0.3027017   -0.1908284    0.9337859
  -0.0253625   -0.0728558   -0.0028935    0.0764706   -0.1694096    0.9825745
  -0.0250418   -0.0739425   -0.0031465    0.2518122   -0.2048943    0.9458377
  -0.0235135   -0.0745951   -0.0041785    0.7193296   -0.2615126    0.6435651
  -0.0232467   -0.0737356   -0.0040218    0.6771603   -0.3227283    0.6612869
  -0.0234849   -0.0731972   -0.0036026    0.4911105   -0.2837219    0.8235972
  -0.0246933   -0.0734990   -0.0031153    0.2956435   -0.2554653    0.9205066
  -0.0244597   -0.0730305   -0.0030755    0.3847990   -0.2357434    0.8923871
  -0.0243164   -0.0791036   -0.0057181    0.9248046   -0.1578273   -0.3461604
  -0.0241328   -0.0786418   -0.0054459    0.9443101   -0.1785151   -0.2764249
  -0.0240406   -0.0781402   -0.0054773    0.9431971   -0.1948235   -0.2691153
  -0.0296606   -0.0713095   -0.0048368   -0.9702002    0.0158477    0.2417859
  -0.0286592   -0.0705808   -0.0033927   -0.6736813   -0.0554672    0.7369375
  -0.0295025   -0.0708608   -0.0044456   -0.8561391   -0.0101436    0.5166459
  -0.0262396   -0.0716498   -0.0026974   -0.0752496   -0.1390790    0.9874181
  -0.0280686   -0.0696986   -0.0029186   -0.4518806   -0.0968391    0.8868067
  -0.0259242   -0.0712025   -0.0026213   -0.0555736   -0.1558232    0.9862204
  -0.0259180   -0.0706919   -0.0025251   -0.0791109   -0.2054981    0.9754548
  -0.0261351   -0.0691100   -0.0022272   -0.1923241   -0.1678671    0.9668671
  -0.0272332   -0.0693777   -0.0025565   -0.3009556   -0.1378055    0.9436288
  -0.0293486   -0.0741563   -0.0095964   -0.6283063    0.1085463   -0.7703563
  -0.0294946   -0.0766969   -0.0099252   -0.4074788    0.1135804   -0.9061239
  -0.0292331   -0.0762302   -0.0099676   -0.3097162    0.1077076   -0.9447089
  -0.0290662   -0.0757467   -0.0099585   -0.3079497    0.1100245   -0.9450194
  -0.0290019   -0.0752428   -0.0099284   -0.3405577    0.1028148   -0.9345852
  -0.0296678   -0.0782129   -0.0100022   -0.3350467    0.0531286   -0.9407024
  -0.0294006   -0.0731239   -0.0093617   -0.8530695    0.1221862   -0.5072898
  -0.0291005   -0.0705793   -0.0095227   -0.8424527    0.0379408   -0.5374327
  -0.0296626   -0.0710693   -0.0082715   -0.9604227    0.0759300   -0.2679978
  -0.0292991   -0.0736496   -0.0095764   -0.5716595    0.0681598   -0.8176549
  -0.0298780   -0.0704509   -0.0064888   -0.9986633    0.0227400   -0.0464157
  -0.0298787   -0.0701466   -0.0059784   -0.9981825   -0.0149317    0.0583842
  -0.0296774   -0.0705577   -0.0081312   -0.9632359    0.0096525   -0.2684837
  -0.0298276   -0.0690431   -0.0070849   -0.9925157    0.0090174   -0.1217839
  -0.0276884   -0.0828372   -0.0091340    0.5489234    0.0323899   -0.8352449
  -0.0270081   -0.0804670   -0.0087487    0.5768445   -0.0619081   -0.8145046
  -0.0275073   -0.0792435   -0.0091033    0.3399185   -0.0457405   -0.9393419
  -0.0271276   -0.0798549   -0.0088930    0.5389264   -0.0717321   -0.8392931
  -0.0278625   -0.0765556   -0.0093658    0.4527290   -0.0683928   -0.8890213
  -0.0287370   -0.0784204   -0.0098084    0.6030146   -0.1666965   -0.7801190
  -0.0285788   -0.0774124   -0.0098318    0.6145602   -0.1048649   -0.7818690
  -0.0291813   -0.0788373   -0.0099557    0.3601713   -0.0842027   -0.9290783
  -0.0290372   -0.0788701   -0.0099075    0.4387554   -0.1338210   -0.8885863
  -0.0292767   -0.0782933   -0.0100339    0.2117356   -0.0423366   -0.9764096
  -0.0294015   -0.0777468   -0.0100336   -0.0928994    0.0448470   -0.9946650
  -0.0254637   -0.0803249   -0.0071209    0.8534989   -0.1501827   -0.4989838
  -0.0261810   -0.0801068   -0.0081013    0.6989988   -0.0845041   -0.7101125
  -0.0259353   -0.0807052   -0.0076925    0.8734801   -0.1229313   -0.4710843
  -0.0254730   -0.0797928   -0.0072895    0.8068077   -0.1397705   -0.5740431
  -0.0251224   -0.0809749   -0.0062624    0.8229112   -0.1528864   -0.5472138
  -0.0251995   -0.0798816   -0.0068160    0.8773692   -0.1661573   -0.4501278
  -0.0251263   -0.0799109   -0.0066080    0.8497758   -0.1173193   -0.5139233
  -0.0248562   -0.0794678   -0.0063413    0.7886635   -0.1249156   -0.6020016
  -0.0245471   -0.0795599   -0.0059203    0.7732881   -0.1417991   -0.6179956
  -0.0247967   -0.0799793   -0.0060881    0.7364484   -0.1451622   -0.6607357
  -0.0235852   -0.0761874   -0.0050754    0.9681634   -0.2283776    0.1024860
  -0.0235983   -0.0760068   -0.0047922    0.9459012   -0.2513048    0.2052239
  -0.0235060   -0.0752084   -0.0044543    0.8739454   -0.2727663    0.4022660
  -0.0239456   -0.0776387   -0.0055133    0.9618000   -0.1717576   -0.2131670
  -0.0235973   -0.0761693   -0.0052735    0.9641967   -0.2136937   -0.1570341
  -0.0238547   -0.0770785   -0.0055301    0.9797588   -0.1902696   -0.0622107
  -0.0244820   -0.0720055   -0.0028203    0.2573710   -0.2211699    0.9406615
  -0.0246974   -0.0714517   -0.0026859    0.0888560   -0.1749015    0.9805682
  -0.0232346   -0.0745833   -0.0045849    0.8330525   -0.3314182    0.4429284
  -0.0232945   -0.0732246   -0.0037704    0.9006473   -0.1592835    0.4043059
  -0.0228439   -0.0737752   -0.0046399    0.8827615   -0.3951459    0.2541492
  -0.0231875   -0.0735183   -0.0039876    0.7760115   -0.3153867    0.5462026
  -0.0233902   -0.0728293   -0.0035483    0.6754631   -0.2525927    0.6927817
  -0.0235723   -0.0716607   -0.0030398    0.4243401   -0.2934391    0.8566382
  -0.0237639   -0.0716281   -0.0029408    0.4290649   -0.2586727    0.8654431
  -0.0247757   -0.0789640   -0.0063552    0.8240216   -0.1704731   -0.5403030
  -0.0242089   -0.0784153   -0.0057334    0.9708387   -0.1775790   -0.1610526
  -0.0241505   -0.0780978   -0.0057537    0.9065940   -0.1691482   -0.3866215
  -0.0296271   -0.0708084   -0.0046989   -0.9431097   -0.0205531    0.3318459
  -0.0295283   -0.0703248   -0.0044769   -0.8542704   -0.0467084    0.5177261
  -0.0284628   -0.0675310   -0.0030503   -0.5890950   -0.0052958    0.8080464
  -0.0287947   -0.0694761   -0.0034123   -0.7084709   -0.0422093    0.7044767
  -0.0288175   -0.0700219   -0.0034914   -0.7544606   -0.0997464    0.6487218
  -0.0278755   -0.0681959   -0.0027097   -0.4466183   -0.0104559    0.8946635
  -0.0275426   -0.0687932   -0.0025883   -0.3434993   -0.0954082    0.9342941
  -0.0243762   -0.0710047   -0.0026183    0.1277232   -0.2426633    0.9616659
  -0.0246951   -0.0694148   -0.0021412    0.0115664   -0.2543072    0.9670543
  -0.0263435   -0.0680387   -0.0020985   -0.3313654   -0.0590747    0.9416513
  -0.0254154   -0.0672132   -0.0017926   -0.1563515   -0.1378751    0.9780310
  -0.0252365   -0.0682792   -0.0019414   -0.0967964   -0.1804793    0.9788042
  -0.0261435   -0.0675669   -0.0019946   -0.2830172   -0.0940006    0.9544973
  -0.0289310   -0.0747409   -0.0098940   -0.3437778    0.0895146   -0.9347748
  -0.0291816   -0.0767567   -0.0100098   -0.1169158    0.0050823   -0.9931288
  -0.0291359   -0.0762489   -0.0099923   -0.1797767    0.0717956   -0.9810840
  -0.0288456   -0.0757895   -0.0099983    0.0114975    0.0572159   -0.9982956
  -0.0287913   -0.0752826   -0.0099727    0.0312623    0.0575538   -0.9978528
  -0.0287462   -0.0747773   -0.0099348   -0.0348023    0.0663180   -0.9971914
  -0.0289288   -0.0706282   -0.0097026   -0.7491463    0.0050805   -0.6623850
  -0.0290168   -0.0726597   -0.0097088   -0.5382048    0.0036259   -0.8428063
  -0.0294258   -0.0700399   -0.0088654   -0.9256678   -0.0217733   -0.3777103
  -0.0292191   -0.0695301   -0.0093330   -0.8787566   -0.0271738   -0.4764959
  -0.0288759   -0.0742361   -0.0098698   -0.3326243    0.0886244   -0.9388859
  -0.0284957   -0.0727507   -0.0099497   -0.1463227   -0.0527058   -0.9878319
  -0.0286217   -0.0737661   -0.0099084   -0.1251995    0.0153947   -0.9920121
  -0.0282218   -0.0717610   -0.0100808   -0.1605179   -0.1367951   -0.9775076
  -0.0298448   -0.0685237   -0.0070319   -0.9931317   -0.0596581   -0.1006501
  -0.0297311   -0.0692129   -0.0049387   -0.9588455   -0.0190200    0.2832906
  -0.0298798   -0.0691249   -0.0057661   -0.9963248   -0.0213299    0.0829572
  -0.0298969   -0.0685679   -0.0062537   -0.9997162   -0.0186946   -0.0147639
  -0.0295074   -0.0695198   -0.0086254   -0.9606540   -0.0060482   -0.2776821
  -0.0271904   -0.0787944   -0.0090284    0.5222845   -0.0857327   -0.8484508
  -0.0270398   -0.0762230   -0.0091651    0.3221182   -0.1001978   -0.9413821
  -0.0262292   -0.0790620   -0.0082616    0.6754939   -0.0704177   -0.7339954
  -0.0285109   -0.0769080   -0.0098270    0.5836210   -0.0474909   -0.8106363
  -0.0282630   -0.0764543   -0.0096509    0.5768970   -0.0508632   -0.8152317
  -0.0277620   -0.0758820   -0.0093748    0.3930700   -0.0808297   -0.9159490
  -0.0287823   -0.0773607   -0.0099691    0.3095970   -0.0684212   -0.9484030
  -0.0257977   -0.0796964   -0.0076861    0.8302133   -0.1133109   -0.5458082
  -0.0258541   -0.0800973   -0.0076860    0.9028161   -0.1312226   -0.4095165
  -0.0251090   -0.0793798   -0.0068452    0.9106754   -0.1832983   -0.3702323
  -0.0256322   -0.0797447   -0.0074924    0.7539151   -0.1184717   -0.6462016
  -0.0250845   -0.0783286   -0.0071106    0.7896921   -0.1422063   -0.5967946
  -0.0249693   -0.0794319   -0.0065150    0.8532764   -0.1858577   -0.4872128
  -0.0234910   -0.0756701   -0.0053268    0.9715784   -0.2064301   -0.1158538
  -0.0233476   -0.0752029   -0.0049937    0.9581345   -0.2851440    0.0259082
  -0.0232019   -0.0747252   -0.0048558    0.9323001   -0.3507219    0.0883779
  -0.0243679   -0.0775023   -0.0062046    0.8423733   -0.1618690   -0.5140093
  -0.0237682   -0.0766334   -0.0055653    0.9296337   -0.1944474   -0.3130039
  -0.0236250   -0.0761547   -0.0053998    0.9458460   -0.2092917   -0.2481376
  -0.0243588   -0.0715179   -0.0027502    0.3057472   -0.1692931    0.9369410
  -0.0243583   -0.0715181   -0.0027505    0.3140395   -0.2131919    0.9251640
  -0.0243584   -0.0715162   -0.0027501    0.2275427   -0.1882541    0.9553977
  -0.0232945   -0.0732246   -0.0037704    0.9209850   -0.1673423    0.3518283
  -0.0232945   -0.0732246   -0.0037704    0.9691934   -0.0956745    0.2269591
  -0.0230372   -0.0742428   -0.0048042    0.9262521   -0.3747307   -0.0404230
  -0.0226156   -0.0733607   -0.0047937    0.8947040   -0.4305440    0.1188973
  -0.0226597   -0.0733028   -0.0045282    0.8043392   -0.3922893    0.4462595
  -0.0225712   -0.0732693   -0.0052869    0.8767262   -0.4462448   -0.1794901
  -0.0230857   -0.0732559   -0.0039259    0.6455159   -0.3622214    0.6723875
  -0.0231240   -0.0727480   -0.0036683    0.6285879   -0.3045803    0.7156173
  -0.0228683   -0.0712741   -0.0032380    0.4707968   -0.3268317    0.8194702
  -0.0236229   -0.0711441   -0.0028587    0.8202015   -0.1773816    0.5438798
  -0.0232506   -0.0709148   -0.0029111    0.3768190   -0.3035752    0.8751283
  -0.0240152   -0.0710719   -0.0027149    0.1981873   -0.2546307    0.9465120
  -0.0238943   -0.0710953   -0.0027458    0.2574199   -0.2777006    0.9255363
  -0.0236229   -0.0711441   -0.0028587    0.8882548   -0.1331552    0.4396283
  -0.0246806   -0.0784624   -0.0063908    0.8427172   -0.1793198   -0.5076142
  -0.0293105   -0.0693681   -0.0039727   -0.8359150   -0.0322914    0.5479081
  -0.0288719   -0.0679403   -0.0034279   -0.7460565    0.0185915    0.6656231
  -0.0285888   -0.0669771   -0.0031978   -0.6864223    0.0942066    0.7210753
  -0.0281246   -0.0665738   -0.0029022   -0.5590072    0.0933646    0.8238896
  -0.0290266   -0.0678924   -0.0036374   -0.7694331    0.0135634    0.6385833
  -0.0291082   -0.0689070   -0.0037275   -0.8078116   -0.0026956    0.5894346
  -0.0274131   -0.0662276   -0.0025347   -0.4289128    0.0615093    0.9012494
  -0.0237291   -0.0706169   -0.0026470    0.3567675   -0.2756939    0.8925860
  -0.0238331   -0.0692497   -0.0021593    0.2325618   -0.2829401    0.9305160
  -0.0241215   -0.0690203   -0.0020624    0.1013473   -0.2287864    0.9681867
  -0.0244934   -0.0684347   -0.0019153   -0.0256515   -0.1905143    0.9813492
  -0.0271815   -0.0662841   -0.0024399   -0.4085884    0.0437987    0.9116673
  -0.0249172   -0.0673191   -0.0017516   -0.0883753   -0.1418840    0.9859304
  -0.0255710   -0.0666645   -0.0017549   -0.2007674   -0.0484746    0.9784389
  -0.0246254   -0.0678925   -0.0018371   -0.0704191   -0.1691202    0.9830766
  -0.0259109   -0.0665880   -0.0018455   -0.3400210    0.0099202    0.9403655
  -0.0286902   -0.0742706   -0.0099125   -0.0109175    0.0322006   -0.9994218
  -0.0289635   -0.0768010   -0.0100345    0.0740721   -0.0467240   -0.9961577
  -0.0288967   -0.0762965   -0.0100283    0.0722621    0.0288214   -0.9969692
  -0.0285939   -0.0758469   -0.0099327    0.3837048    0.0026629   -0.9234520
  -0.0284866   -0.0748350   -0.0098815    0.2918360    0.0148496   -0.9563531
  -0.0287631   -0.0711448   -0.0098743   -0.5728771   -0.0432334   -0.8185003
  -0.0288217   -0.0689993   -0.0099696   -0.7919282   -0.0799923   -0.6053519
  -0.0286146   -0.0716906   -0.0099369   -0.4185662   -0.0705331   -0.9054432
  -0.0296187   -0.0684715   -0.0084424   -0.9641129   -0.0836885   -0.2519573
  -0.0290898   -0.0689132   -0.0095589   -0.8542179   -0.0902413   -0.5120238
  -0.0293930   -0.0679475   -0.0091945   -0.8883842   -0.0686148   -0.4539443
  -0.0297357   -0.0668824   -0.0085626   -0.9396611   -0.1176566   -0.3212381
  -0.0283437   -0.0738264   -0.0098822    0.2330767   -0.0798581   -0.9691738
  -0.0280899   -0.0723136   -0.0099848    0.1650304   -0.1129579   -0.9797987
  -0.0284304   -0.0743275   -0.0098646    0.2318571   -0.0305706   -0.9722694
  -0.0282852   -0.0712241   -0.0101445   -0.4143186   -0.0745096   -0.9070769
  -0.0279169   -0.0712973   -0.0101916    0.1220246   -0.2790500   -0.9524920
  -0.0273286   -0.0725308   -0.0097640    0.1875202   -0.1864498   -0.9644027
  -0.0279093   -0.0707704   -0.0103341   -0.1674993   -0.2021109   -0.9649327
  -0.0300553   -0.0656689   -0.0079190   -0.9916853   -0.1123417   -0.0627669
  -0.0300149   -0.0659478   -0.0062502   -0.9945354   -0.0359925    0.0979998
  -0.0299176   -0.0676205   -0.0062923   -0.9988120   -0.0400465   -0.0277653
  -0.0298234   -0.0674214   -0.0080141   -0.9741245   -0.1202338   -0.1913771
  -0.0298937   -0.0680892   -0.0056706   -0.9862598   -0.0032913    0.1651686
  -0.0296500   -0.0687279   -0.0046814   -0.9278322   -0.0027880    0.3729875
  -0.0299008   -0.0681097   -0.0059716   -0.9989700   -0.0225449    0.0393773
  -0.0261070   -0.0785586   -0.0081926    0.6934340   -0.1086903   -0.7122750
  -0.0260769   -0.0780406   -0.0082736    0.6602699   -0.1262123   -0.7403473
  -0.0268432   -0.0763880   -0.0090405    0.5530705   -0.1131724   -0.8254120
  -0.0264369   -0.0742696   -0.0091987    0.5069219   -0.1656996   -0.8459160
  -0.0269796   -0.0736156   -0.0095012    0.2507404   -0.1799625   -0.9511797
  -0.0279079   -0.0753067   -0.0094879    0.3775461   -0.1088591   -0.9195698
  -0.0286482   -0.0763518   -0.0099574    0.4031393   -0.0249638   -0.9147981
  -0.0282641   -0.0748874   -0.0097719    0.5045545   -0.0435323   -0.8622817
  -0.0247530   -0.0768447   -0.0070301    0.7543184   -0.1298675   -0.6435357
  -0.0249463   -0.0783739   -0.0068761    0.9127143   -0.1862190   -0.3636963
  -0.0250047   -0.0786857   -0.0068546    0.9685355   -0.1706983   -0.1811106
  -0.0247619   -0.0773688   -0.0069385    0.8102641   -0.1609136   -0.5635414
  -0.0234797   -0.0751291   -0.0056778    0.8993756   -0.2324519   -0.3702561
  -0.0230282   -0.0742144   -0.0052582    0.9150918   -0.3364671   -0.2222540
  -0.0228110   -0.0737431   -0.0052118    0.8994593   -0.4113823   -0.1474363
  -0.0244920   -0.0774594   -0.0064606    0.9219359   -0.1881495   -0.3385763
  -0.0243830   -0.0768090   -0.0064855    0.9363764   -0.1935447   -0.2928135
  -0.0242669   -0.0764712   -0.0064165    0.8656236   -0.1591820   -0.4747178
  -0.0223913   -0.0728307   -0.0046567    0.8605749   -0.4257022    0.2796221
  -0.0227485   -0.0726747   -0.0040108    0.7241539   -0.3670186    0.5838652
  -0.0230520   -0.0735223   -0.0059730    0.7506599   -0.3333477   -0.5704288
  -0.0223345   -0.0722395   -0.0058673    0.6787064   -0.4170583   -0.6044998
  -0.0236017   -0.0745429   -0.0062704    0.8067954   -0.2955375   -0.5116041
  -0.0219473   -0.0716739   -0.0058717    0.7109592   -0.4608094   -0.5312171
  -0.0221152   -0.0723608   -0.0047798    0.8693315   -0.4745779    0.1379807
  -0.0220802   -0.0722651   -0.0053523    0.8388417   -0.5135931   -0.1804625
  -0.0225635   -0.0716190   -0.0036175    0.6206289   -0.3832716    0.6840487
  -0.0226670   -0.0712932   -0.0033987    0.5354335   -0.3510931    0.7681436
  -0.0232796   -0.0706980   -0.0028236    0.4798812   -0.2955278    0.8260613
  -0.0222014   -0.0693669   -0.0027902    0.4323925   -0.3594226    0.8269535
  -0.0236229   -0.0711441   -0.0028587    0.8075733   -0.1977826    0.5556145
  -0.0288787   -0.0668921   -0.0035361   -0.7385630    0.0640703    0.6711331
  -0.0288514   -0.0663762   -0.0035812   -0.7412779    0.1179135    0.6607598
  -0.0282394   -0.0660203   -0.0030660   -0.6243012    0.1233043    0.7713910
  -0.0277382   -0.0655219   -0.0028052   -0.5713601    0.1417261    0.8083696
  -0.0294654   -0.0677552   -0.0043051   -0.8666076    0.0524041    0.4962309
  -0.0295141   -0.0682623   -0.0043384   -0.8801318    0.0068716    0.4746798
  -0.0289804   -0.0673852   -0.0036001   -0.7391959    0.0496635    0.6716569
  -0.0291304   -0.0673394   -0.0038175   -0.8258353    0.0596187    0.5607509
  -0.0275949   -0.0646137   -0.0028277   -0.5256373    0.1485927    0.8376310
  -0.0236813   -0.0706253   -0.0026658    0.2767757   -0.3061760    0.9108520
  -0.0234394   -0.0706715   -0.0027476    0.3097853   -0.3076509    0.8996577
  -0.0229073   -0.0692460   -0.0024269    0.3183354   -0.2938497    0.9012852
  -0.0230924   -0.0688287   -0.0022655    0.2915191   -0.2490623    0.9235716
  -0.0231423   -0.0681853   -0.0020596    0.2731305   -0.2556581    0.9273827
  -0.0240594   -0.0674976   -0.0017636    0.0840573   -0.1658966    0.9825542
  -0.0243016   -0.0669358   -0.0016444   -0.0159581   -0.1648601    0.9861879
  -0.0233092   -0.0676464   -0.0018486    0.2249480   -0.2023935    0.9531187
  -0.0264495   -0.0643707   -0.0022653   -0.3493694    0.1471193    0.9253631
  -0.0268925   -0.0642671   -0.0024469   -0.4264919    0.2701252    0.8632132
  -0.0259034   -0.0655462   -0.0019292   -0.3304745    0.0844962    0.9400250
  -0.0247355   -0.0666882   -0.0016458   -0.1252737   -0.0853642    0.9884429
  -0.0252123   -0.0659578   -0.0016888   -0.2051984    0.0261372    0.9783713
  -0.0252500   -0.0646525   -0.0018103   -0.2774683    0.1215012    0.9530209
  -0.0278271   -0.0702610   -0.0104548   -0.4211188   -0.2098015   -0.8824071
  -0.0286394   -0.0695950   -0.0101282   -0.6265454   -0.1203260   -0.7700406
  -0.0283113   -0.0691172   -0.0105134   -0.6622057   -0.2443491   -0.7083623
  -0.0286661   -0.0680080   -0.0104843   -0.8368407   -0.1860017   -0.5148796
  -0.0292124   -0.0674315   -0.0096798   -0.8972580   -0.1331987   -0.4209348
  -0.0290940   -0.0674424   -0.0098966   -0.8670037   -0.1498991   -0.4752209
  -0.0296210   -0.0658095   -0.0094034   -0.9138490   -0.1751440   -0.3663393
  -0.0301327   -0.0647440   -0.0082916   -0.9824955   -0.0710629   -0.1721995
  -0.0298768   -0.0652663   -0.0089904   -0.9407395   -0.1443011   -0.3068981
  -0.0276673   -0.0729337   -0.0097967    0.2756256   -0.1353626   -0.9516866
  -0.0271529   -0.0709404   -0.0101392    0.1967881   -0.2785868   -0.9400339
  -0.0276273   -0.0707947   -0.0103067    0.1423744   -0.3188052   -0.9370660
  -0.0275962   -0.0698667   -0.0106065   -0.1650013   -0.2811844   -0.9453623
  -0.0274266   -0.0702255   -0.0104831    0.1258792   -0.3468847   -0.9294221
  -0.0301757   -0.0647863   -0.0075601   -0.9989317   -0.0291751    0.0358368
  -0.0297483   -0.0655560   -0.0052212   -0.9451086    0.0905777    0.3139513
  -0.0299592   -0.0649318   -0.0060936   -0.9474936    0.1317380    0.2913777
  -0.0298886   -0.0667214   -0.0057028   -0.9823764    0.0091136    0.1866908
  -0.0297602   -0.0671205   -0.0050805   -0.9648953    0.0183035    0.2619961
  -0.0296978   -0.0676701   -0.0048393   -0.9194328   -0.0009741    0.3932461
  -0.0258421   -0.0765304   -0.0083059    0.6635261   -0.1107354   -0.7399127
  -0.0256074   -0.0755463   -0.0082316    0.6705161   -0.1545933   -0.7256095
  -0.0262242   -0.0732466   -0.0092994    0.5038561   -0.2206795   -0.8351225
  -0.0258386   -0.0741857   -0.0087192    0.6189804   -0.1920227   -0.7615711
  -0.0266548   -0.0721072   -0.0097716    0.2866706   -0.2189859   -0.9326656
  -0.0244262   -0.0758890   -0.0068351    0.8077084   -0.1715145   -0.5640832
  -0.0243085   -0.0764543   -0.0065216    0.9263676   -0.1484432   -0.3461324
  -0.0221926   -0.0723609   -0.0045354    0.8464972   -0.3925478    0.3596509
  -0.0221908   -0.0720174   -0.0042464    0.7030949   -0.4356680    0.5620062
  -0.0223890   -0.0712549   -0.0064762    0.5998927   -0.3144179   -0.7357107
  -0.0234386   -0.0708549   -0.0075333    0.6479338   -0.2862462   -0.7058646
  -0.0219627   -0.0711716   -0.0061917    0.5344831   -0.3785369   -0.7556703
  -0.0238103   -0.0723521   -0.0072974    0.6854823   -0.2394684   -0.6875819
  -0.0241210   -0.0738538   -0.0071518    0.7295323   -0.2055733   -0.6523206
  -0.0217219   -0.0715202   -0.0057242    0.7239215   -0.5198159   -0.4535737
  -0.0219003   -0.0718961   -0.0046476    0.9753607   -0.1931487    0.1066075
  -0.0218270   -0.0718929   -0.0048950    0.8910330   -0.4476173    0.0754922
  -0.0215249   -0.0714090   -0.0052980    0.8263693   -0.5578049   -0.0772492
  -0.0214680   -0.0699878   -0.0035167    0.6251760   -0.4195540    0.6581257
  -0.0217779   -0.0714169   -0.0042811    0.7135423   -0.4411022    0.5443218
  -0.0224805   -0.0688154   -0.0024478    0.3661219   -0.2642009    0.8922739
  -0.0214926   -0.0689842   -0.0029659    0.4901988   -0.3094806    0.8148171
  -0.0289159   -0.0668806   -0.0035911   -0.8194396    0.1003274    0.5643165
  -0.0291626   -0.0664600   -0.0040349   -0.8174065    0.0907250    0.5688722
  -0.0289316   -0.0658258   -0.0037963   -0.7751307    0.1238815    0.6195368
  -0.0283931   -0.0657852   -0.0032384   -0.6450330    0.1643375    0.7462745
  -0.0285106   -0.0654190   -0.0034367   -0.6906759    0.1655258    0.7039659
  -0.0283445   -0.0644133   -0.0034723   -0.6988035    0.1649121    0.6960443
  -0.0292749   -0.0672937   -0.0040425   -0.8372993    0.0797420    0.5408985
  -0.0293552   -0.0667436   -0.0042576   -0.8256787    0.0393560    0.5627662
  -0.0278937   -0.0640094   -0.0031571   -0.5669638    0.2639862    0.7802969
  -0.0272198   -0.0639493   -0.0027939   -0.4902753    0.3270224    0.8078902
  -0.0224929   -0.0677916   -0.0021861    0.3610554   -0.2278375    0.9042838
  -0.0234520   -0.0665915   -0.0016754    0.1685645   -0.1323565    0.9767639
  -0.0231664   -0.0671608   -0.0018127    0.2037314   -0.1242289    0.9711131
  -0.0240776   -0.0659538   -0.0015192    0.0269093   -0.0651029    0.9975157
  -0.0229119   -0.0672065   -0.0018897    0.3308076   -0.1602802    0.9299874
  -0.0260640   -0.0639329   -0.0022533   -0.3435238    0.2375923    0.9085930
  -0.0257275   -0.0645407   -0.0019796   -0.3131302    0.1832146    0.9318701
  -0.0262214   -0.0637222   -0.0024253   -0.3126634    0.5014479    0.8067165
  -0.0269272   -0.0637205   -0.0027292   -0.3786876    0.5181731    0.7668718
  -0.0246066   -0.0655031   -0.0015901   -0.1711861    0.0248208    0.9849260
  -0.0256007   -0.0640423   -0.0020625   -0.3396200    0.2182098    0.9149004
  -0.0244137   -0.0643186   -0.0016283   -0.2169183    0.1287258    0.9676653
  -0.0278981   -0.0697185   -0.0105795   -0.2847733   -0.3212077   -0.9031776
  -0.0280733   -0.0691571   -0.0106530   -0.4776183   -0.3112879   -0.8215720
  -0.0283743   -0.0680410   -0.0108807   -0.7068725   -0.2777870   -0.6505119
  -0.0280259   -0.0686282   -0.0109275   -0.5024392   -0.3517310   -0.7898355
  -0.0288428   -0.0663821   -0.0109418   -0.8172853   -0.1782873   -0.5479584
  -0.0292527   -0.0663605   -0.0100313   -0.8916404   -0.1813979   -0.4148159
  -0.0296121   -0.0652719   -0.0097081   -0.9087243   -0.1540444   -0.3879311
  -0.0295036   -0.0652778   -0.0099316   -0.8945934   -0.1630702   -0.4160658
  -0.0298486   -0.0647322   -0.0092876   -0.9421246   -0.0957605   -0.3212960
  -0.0301546   -0.0642762   -0.0074858   -0.9942523    0.0891114    0.0593424
  -0.0300824   -0.0642154   -0.0085682   -0.9773815    0.0118020   -0.2111541
  -0.0267006   -0.0712254   -0.0099688    0.2249120   -0.2388844   -0.9446422
  -0.0268396   -0.0699499   -0.0103943    0.2869719   -0.4027183   -0.8691749
  -0.0261995   -0.0695665   -0.0103606    0.4056006   -0.3730501   -0.8344590
  -0.0275590   -0.0697831   -0.0106438   -0.0914592   -0.3603242   -0.9283327
  -0.0272297   -0.0696920   -0.0106614    0.1788910   -0.4271465   -0.8863091
  -0.0293995   -0.0656840   -0.0044199   -0.8953648    0.1437877    0.4214818
  -0.0297088   -0.0660991   -0.0050048   -0.9382940    0.0466962    0.3426716
  -0.0294382   -0.0651392   -0.0046973   -0.8873230    0.2195713    0.4055199
  -0.0296227   -0.0649215   -0.0052742   -0.8935687    0.2139984    0.3946387
  -0.0297870   -0.0644679   -0.0058326   -0.9208244    0.1912678    0.3398514
  -0.0296616   -0.0671625   -0.0047877   -0.9233352    0.0356455    0.3823368
  -0.0295697   -0.0671951   -0.0045859   -0.8486869   -0.0265930    0.5282266
  -0.0254072   -0.0740177   -0.0084244    0.6646385   -0.1969560   -0.7207385
  -0.0254863   -0.0715768   -0.0091435    0.6492223   -0.2294587   -0.7251614
  -0.0254322   -0.0697922   -0.0097470    0.6202550   -0.2847521   -0.7308898
  -0.0262997   -0.0716634   -0.0097541    0.4037202   -0.2577571   -0.8778219
  -0.0220530   -0.0720284   -0.0044503    0.7738517   -0.4760494    0.4177686
  -0.0219003   -0.0718961   -0.0046476    0.9712555   -0.1967138    0.1340389
  -0.0219849   -0.0718937   -0.0044080    0.8318153   -0.4216861    0.3609212
  -0.0218372   -0.0691591   -0.0068525    0.4554347   -0.3055525   -0.8361919
  -0.0225741   -0.0703919   -0.0069198    0.6075252   -0.2901553   -0.7394072
  -0.0222912   -0.0701043   -0.0068282    0.5804884   -0.3085228   -0.7535562
  -0.0236921   -0.0710756   -0.0076536    0.6496460   -0.2682300   -0.7113458
  -0.0245733   -0.0708584   -0.0085484    0.6494932   -0.2734579   -0.7094924
  -0.0227777   -0.0690567   -0.0076848    0.6252880   -0.3013595   -0.7198593
  -0.0211468   -0.0700591   -0.0062656    0.4656982   -0.4458036   -0.7644504
  -0.0213404   -0.0699209   -0.0063993    0.3180073   -0.3510404   -0.8807054
  -0.0247563   -0.0726112   -0.0081955    0.6778196   -0.2171125   -0.7024406
  -0.0214871   -0.0712817   -0.0055725    0.8079276   -0.5477162   -0.2173934
  -0.0213063   -0.0708933   -0.0057576    0.6866527   -0.5824046   -0.4351011
  -0.0219003   -0.0718961   -0.0046476    0.9507651   -0.2767904    0.1394016
  -0.0217464   -0.0717564   -0.0048445    0.8270646   -0.5329318    0.1787399
  -0.0211684   -0.0709125   -0.0050713    0.8092074   -0.5872242   -0.0187366
  -0.0213293   -0.0711181   -0.0048774    0.8160230   -0.5572284    0.1536326
  -0.0216625   -0.0714366   -0.0044998    0.7838785   -0.4841593    0.3887472
  -0.0210881   -0.0705221   -0.0044340    0.7576204   -0.5148216    0.4012107
  -0.0208636   -0.0700583   -0.0042952    0.7444311   -0.4533189    0.4902288
  -0.0211337   -0.0695322   -0.0036005    0.6676423   -0.4008495    0.6273543
  -0.0211395   -0.0690326   -0.0033207    0.6546243   -0.3349675    0.6776900
  -0.0218608   -0.0684098   -0.0026456    0.3895055   -0.2326851    0.8911471
  -0.0216006   -0.0684566   -0.0027555    0.4298043   -0.2326929    0.8724232
  -0.0210513   -0.0680362   -0.0029906    0.6215498   -0.2279785    0.7494676
  -0.0288616   -0.0653169   -0.0038623   -0.7558657    0.1755674    0.6307481
  -0.0280441   -0.0638519   -0.0033507   -0.6502795    0.3448165    0.6769329
  -0.0291038   -0.0647146   -0.0043373   -0.7818681    0.1956820    0.5919381
  -0.0286736   -0.0637832   -0.0040726   -0.6460384    0.3463767    0.6801894
  -0.0294964   -0.0666980   -0.0044878   -0.8826582    0.0443186    0.4679214
  -0.0277305   -0.0635142   -0.0032941   -0.4363184    0.5269036    0.7293825
  -0.0215139   -0.0669396   -0.0024401    0.4896883   -0.1481517    0.8592185
  -0.0233769   -0.0660910   -0.0016380    0.2118878   -0.1010269    0.9720582
  -0.0224732   -0.0662577   -0.0019162    0.3384822   -0.0995135    0.9356959
  -0.0230536   -0.0656365   -0.0016630    0.2333555   -0.0288352    0.9719639
  -0.0240536   -0.0654392   -0.0015165   -0.0092083    0.0229317    0.9996946
  -0.0260256   -0.0638399   -0.0022906   -0.2658428    0.4942540    0.8276718
  -0.0258327   -0.0639858   -0.0021570   -0.3139091    0.2553985    0.9144576
  -0.0262480   -0.0633236   -0.0027504   -0.2785500    0.6666300    0.6913858
  -0.0258321   -0.0634462   -0.0024931   -0.2640095    0.6208097    0.7381696
  -0.0270309   -0.0634873   -0.0029758   -0.3350730    0.6245981    0.7054100
  -0.0267018   -0.0632249   -0.0030580   -0.2633375    0.7421997    0.6162735
  -0.0248673   -0.0640621   -0.0018029   -0.3022894    0.2016081    0.9316519
  -0.0250520   -0.0638390   -0.0019327   -0.3161071    0.4265588    0.8474219
  -0.0256179   -0.0634984   -0.0023715   -0.2900836    0.5550881    0.7795696
  -0.0251982   -0.0636041   -0.0021160   -0.2821728    0.5673101    0.7736523
  -0.0245364   -0.0637648   -0.0017805   -0.2526178    0.2501790    0.9346629
  -0.0241261   -0.0642809   -0.0015954   -0.0674260    0.1123824    0.9913748
  -0.0275771   -0.0684024   -0.0112251   -0.1779593   -0.3347803   -0.9253392
  -0.0274071   -0.0687574   -0.0111015    0.0891254   -0.3040838   -0.9484670
  -0.0272331   -0.0690786   -0.0109762    0.0824370   -0.3827325   -0.9201739
  -0.0283358   -0.0675108   -0.0111651   -0.6051636   -0.2549662   -0.7541679
  -0.0279082   -0.0682531   -0.0111550   -0.3747725   -0.3255177   -0.8680921
  -0.0282865   -0.0664618   -0.0114559   -0.6373278   -0.1272167   -0.7600192
  -0.0287128   -0.0658746   -0.0111644   -0.7166275   -0.1102768   -0.6886828
  -0.0296027   -0.0642125   -0.0100258   -0.9068643   -0.0765831   -0.4144058
  -0.0290655   -0.0653062   -0.0108230   -0.8143715   -0.0942491   -0.5726396
  -0.0300952   -0.0637715   -0.0074687   -0.9578591    0.2361182    0.1635669
  -0.0300719   -0.0637112   -0.0083831   -0.9848691    0.1461511   -0.0931277
  -0.0299525   -0.0636928   -0.0090005   -0.9620954    0.0996024   -0.2538736
  -0.0299413   -0.0639638   -0.0090733   -0.9532866   -0.0127217   -0.3017994
  -0.0266673   -0.0689913   -0.0108948    0.2725201   -0.4653017   -0.8421562
  -0.0254938   -0.0686786   -0.0103197    0.5228247   -0.3191264   -0.7904510
  -0.0252867   -0.0676634   -0.0105945    0.6180247   -0.3866146   -0.6845251
  -0.0262831   -0.0680091   -0.0112553    0.3790743   -0.4177903   -0.8256839
  -0.0256704   -0.0674904   -0.0111536    0.4895180   -0.4090410   -0.7701023
  -0.0252542   -0.0668579   -0.0111869    0.6634786   -0.4130733   -0.6238322
  -0.0292901   -0.0650695   -0.0044534   -0.9099610    0.2079667    0.3587769
  -0.0292043   -0.0646811   -0.0044988   -0.9092956    0.2091536    0.3597725
  -0.0294227   -0.0645983   -0.0050543   -0.9261941    0.2051785    0.3163325
  -0.0294691   -0.0640513   -0.0053201   -0.8901679    0.2431943    0.3853021
  -0.0251893   -0.0703679   -0.0093296    0.6285330   -0.2911013   -0.7212533
  -0.0249912   -0.0682881   -0.0100828    0.5952431   -0.3568989   -0.7199367
  -0.0252468   -0.0698187   -0.0095777    0.5972353   -0.3097758   -0.7398303
  -0.0223424   -0.0688945   -0.0073965    0.5802735   -0.3099471   -0.7531370
  -0.0214777   -0.0687154   -0.0068414    0.4457395   -0.3748165   -0.8129138
  -0.0213025   -0.0689287   -0.0066962    0.2830000   -0.2865599   -0.9153111
  -0.0208979   -0.0693800   -0.0064901    0.3410593   -0.3288562   -0.8806431
  -0.0226011   -0.0689502   -0.0075688    0.6064841   -0.2697882   -0.7479247
  -0.0242684   -0.0684781   -0.0093965    0.6317337   -0.3368363   -0.6981789
  -0.0229886   -0.0677915   -0.0084528    0.6603949   -0.3438183   -0.6675834
  -0.0224031   -0.0684662   -0.0076649    0.5986229   -0.3505628   -0.7202474
  -0.0227679   -0.0670376   -0.0086206    0.6628557   -0.3649540   -0.6537820
  -0.0209438   -0.0701107   -0.0061277    0.5242722   -0.5126289   -0.6799634
  -0.0210816   -0.0707471   -0.0056106    0.7076414   -0.6324920   -0.3149564
  -0.0209847   -0.0705263   -0.0046609    0.8202997   -0.5074378    0.2638470
  -0.0203188   -0.0695942   -0.0051276    0.8601416   -0.5006577    0.0974594
  -0.0208423   -0.0704672   -0.0054568    0.8113176   -0.5749861   -0.1056156
  -0.0197794   -0.0683697   -0.0047968    0.8531576   -0.4083645    0.3245928
  -0.0207209   -0.0695817   -0.0041129    0.7727444   -0.3975935    0.4947580
  -0.0209421   -0.0694880   -0.0037694    0.6894583   -0.3852093    0.6134012
  -0.0208183   -0.0685729   -0.0034133    0.6972017   -0.2847555    0.6578936
  -0.0209609   -0.0675383   -0.0029427    0.6691171   -0.1435741    0.7291562
  -0.0198135   -0.0676865   -0.0042442    0.8001858   -0.2289399    0.5543368
  -0.0285091   -0.0636457   -0.0039654   -0.6739575    0.4220146    0.6063703
  -0.0278465   -0.0633108   -0.0035286   -0.5154326    0.6221201    0.5893181
