NORM_ASCII
2838 5672
   0.0061086   -0.1066525    0.0130436    0.3278982    0.7812809   -0.5311147
   0.0056301   -0.1064763    0.0131357    0.1906803    0.7746842   -0.6029141
   0.0058693   -0.1065565    0.0130894    0.1963217    0.8276327   -0.5258154
   0.0053948   -0.1064001    0.0131980    0.0184061    0.7108059   -0.7031474
   0.0052070   -0.1061085    0.0134345   -0.0677380    0.5738084   -0.8161835
   0.0052629   -0.1057842    0.0136360    0.1309673    0.4389813   -0.8888999
   0.0043776   -0.0991896    0.0138175    0.4874633   -0.0329863   -0.8725201
   0.0043348   -0.1006089    0.0138637    0.3423920   -0.0476763   -0.9383468
   0.0046704   -0.0985777    0.0139457    0.4258407   -0.0953774   -0.8997571
   0.0052273   -0.0982908    0.0141360    0.4766460   -0.1686284   -0.8627706
   0.0057645   -0.0978516    0.0142421    0.4458817   -0.2229317   -0.8668858
   0.0058968   -0.0969157    0.0140828    0.5979910   -0.1807794   -0.7808493
   0.0061210   -0.0950366    0.0139681    0.7859928   -0.0909574   -0.6115081
   0.0060141   -0.0940876    0.0137305    0.7802379   -0.0557718   -0.6229914
   0.0061433   -0.0907774    0.0135836    0.9913824   -0.0207976   -0.1293380
   0.0060892   -0.0897983    0.0144589    0.9739058    0.0886315    0.2089303
   0.0061454   -0.0902830    0.0142402    0.9962395    0.0086025    0.0862136
   0.0056868   -0.0892626    0.0155044    0.9107549    0.0534798    0.4094697
   0.0060273   -0.0917234    0.0134171    0.8074175   -0.1046690   -0.5806215
   0.0060613   -0.0912529    0.0133927    0.8704674   -0.0760312   -0.4863186
   0.0058910   -0.0936087    0.0135644    0.7235929   -0.0632091   -0.6873267
   0.0058755   -0.0931342    0.0134998    0.6293391   -0.1252424   -0.7669724
   0.0046722   -0.0848951    0.0162614    0.6875232    0.1211499    0.7159850
   0.0055704   -0.0887754    0.0156534    0.8546573    0.0690927    0.5145747
   0.0054096   -0.0863910    0.0156001    0.8604836    0.0684722    0.5048560
   0.0037986   -0.0967869    0.0134216    0.3622228   -0.1066726   -0.9259674
   0.0027224   -0.0961472    0.0131338    0.1305621   -0.1106900   -0.9852417
   0.0032755   -0.0991220    0.0134551    0.1378746   -0.0878935   -0.9865421
   0.0028790   -0.0990943    0.0134333    0.1280902   -0.0922903   -0.9874591
   0.0035560   -0.0986652    0.0135035    0.3244640   -0.0769473   -0.9427631
   0.0035444   -0.0986654    0.0134990    0.4874345   -0.0688084   -0.8704441
   0.0040871   -0.0977511    0.0136055    0.4557408   -0.0662698   -0.8876422
   0.0040734   -0.0968027    0.0135095    0.4106451   -0.1002606   -0.9062662
   0.0027704   -0.0994439    0.0134685    0.3630826   -0.1138268   -0.9247781
   0.0014655   -0.0956792    0.0131305   -0.1680245   -0.0800857   -0.9825243
  -0.0002543   -0.0922337    0.0131542    0.6226361   -0.0901268   -0.7773039
  -0.0004920   -0.0922144    0.0132089    0.0451420   -0.1211387   -0.9916086
   0.0016814   -0.0923817    0.0128417   -0.1321840   -0.1181686   -0.9841563
   0.0024339   -0.0930354    0.0128545   -0.0727883   -0.1128816   -0.9909387
   0.0007046   -0.0919047    0.0129449   -0.1415552   -0.1414143   -0.9797776
  -0.0000149   -0.0923019    0.0131073   -0.1832707   -0.1601932   -0.9699227
  -0.0002543   -0.0922337    0.0131542    0.7936289   -0.1001795   -0.6000978
  -0.0004935   -0.0921496    0.0132005   -0.2021783   -0.1860380   -0.9615164
  -0.0015204   -0.0902480    0.0130469    0.0377774   -0.1482323   -0.9882308
  -0.0002743   -0.0917616    0.0130563   -0.1909134   -0.1887803   -0.9632830
  -0.0012640   -0.0904839    0.0130734   -0.1355093   -0.1874133   -0.9728892
  -0.0003108   -0.0903402    0.0128506   -0.1658998   -0.1721260   -0.9710046
   0.0032141   -0.0943850    0.0130053    0.2568800   -0.1197336   -0.9589977
   0.0031919   -0.0934381    0.0128767    0.2746211   -0.1252111   -0.9533653
   0.0030618   -0.1009986    0.0136900    0.8460211   -0.0758777   -0.5277224
   0.0035512   -0.0996130    0.0135681    0.2539297   -0.0931919   -0.9627227
   0.0038174   -0.0996302    0.0136225    0.2907231   -0.0573459   -0.9550872
   0.0032358   -0.1005379    0.0136375    0.0794559   -0.1219687   -0.9893485
   0.0016785   -0.0827484    0.0173606    0.0476118    0.0863266    0.9951286
   0.0009373   -0.0826960    0.0173278   -0.2024397    0.0948362    0.9746919
   0.0006711   -0.0831534    0.0172950   -0.3385139    0.0573894    0.9392097
   0.0009267   -0.0817489    0.0172447   -0.1931254    0.0704805    0.9786394
   0.0000954   -0.0812244    0.0169329   -0.4014116    0.0653156    0.9135659
  -0.0002517   -0.0821515    0.0168366   -0.4958274    0.0649991    0.8659852
   0.0036063   -0.0847950    0.0170122    0.4828442    0.1105167    0.8687045
   0.0042555   -0.0848551    0.0165993    0.6000045    0.1431155    0.7870912
   0.0036001   -0.0843225    0.0169672    0.4950364    0.1114402    0.8616960
   0.0032911   -0.0838217    0.0170675    0.4921460    0.1106938    0.8634461
   0.0031373   -0.0830818    0.0170723    0.5009287    0.0722534    0.8624673
   0.0029059   -0.0823682    0.0171209    0.2882364    0.0679405    0.9551460
  -0.0025912   -0.0878091    0.0126992   -0.5315553   -0.1325880   -0.8365819
  -0.0025738   -0.0882829    0.0127884   -0.4997881   -0.1797747   -0.8472856
  -0.0023287   -0.0886405    0.0127756   -0.1870853   -0.1554220   -0.9699707
  -0.0029414   -0.0840032    0.0121487   -0.9191385   -0.2271758   -0.3218317
  -0.0031626   -0.0830347    0.0122931   -0.9232409   -0.2483031   -0.2932096
  -0.0031003   -0.0835079    0.0124882   -0.9354129   -0.2266386   -0.2713625
  -0.0027256   -0.0845033    0.0120316   -0.7843900   -0.2750557   -0.5559467
  -0.0024320   -0.0859348    0.0122546   -0.6078038   -0.2162438   -0.7640767
  -0.0023959   -0.0868814    0.0124370   -0.5171839   -0.2065577   -0.8305750
  -0.0024869   -0.0849818    0.0119999   -0.6664076   -0.2802782   -0.6909016
  -0.0023633   -0.0878286    0.0126062   -0.2341972   -0.1832833   -0.9547559
  -0.0021415   -0.0872403    0.0124612   -0.2115096   -0.2272141   -0.9505985
  -0.0023811   -0.0871382    0.0125065   -0.4426583   -0.2130940   -0.8710021
  -0.0004890   -0.0814605    0.0166352   -0.6147349    0.0634390    0.7861784
  -0.0004923   -0.0811935    0.0166114   -0.6293895    0.0560744    0.7750642
  -0.0017225   -0.0808494    0.0157420   -0.6467587    0.0357816    0.7618548
  -0.0017263   -0.0811316    0.0157403   -0.7458832    0.0198574    0.6657807
  -0.0019585   -0.0811198    0.0155754   -0.6242944   -0.0009589    0.7811886
  -0.0023302   -0.0792048    0.0152699   -0.6537295   -0.0246274    0.7563275
  -0.0032007   -0.0827027    0.0120638   -0.9488866   -0.2411282   -0.2036452
  -0.0034907   -0.0815789    0.0125330   -0.9772357   -0.2119447   -0.0094816
  -0.0036370   -0.0800800    0.0131834   -0.9452142   -0.1448805    0.2925402
  -0.0036449   -0.0806118    0.0127545   -0.9743386   -0.1874799    0.1245612
  -0.0031649   -0.0791719    0.0144030   -0.7957217   -0.0767773    0.6007763
  -0.0037555   -0.0791602    0.0133994   -0.9011782   -0.1715552    0.3980537
  -0.0035487   -0.0810980    0.0125954   -0.9834446   -0.1693320    0.0645249
  -0.0022972   -0.0906684    0.0129885   -0.0819154   -0.1625312   -0.9832972
  -0.0020563   -0.0906846    0.0130192    0.0997704   -0.1348501   -0.9858303
  -0.0020514   -0.0902130    0.0129432    0.1499900   -0.1194717   -0.9814426
  -0.0020582   -0.0897398    0.0128956    0.1024665   -0.1001634   -0.9896807
  -0.0020881   -0.0883189    0.0127158   -0.0317552   -0.1569006   -0.9871038
   0.0039532   -0.1064754    0.0134810   -0.2390770    0.5300231   -0.8135832
   0.0043210   -0.1068783    0.0129700   -0.2365695    0.5795421   -0.7798499
   0.0057575   -0.1070406    0.0126798    0.0637271    0.3875716   -0.9196342
   0.0055745   -0.1066224    0.0129274    0.0266532    0.6993571   -0.7142753
   0.0057767   -0.1069162    0.0127472    0.0577798    0.4782917   -0.8762982
   0.0061872   -0.1069438    0.0128130    0.2713229    0.4463373   -0.8527408
   0.0060531   -0.1068323    0.0128366    0.2410333    0.5785939   -0.7791868
   0.0058136   -0.1067004    0.0128808    0.1488998    0.6730885   -0.7244175
   0.0043737   -0.0982408    0.0137591    0.5341447   -0.0644893   -0.8429298
   0.0043759   -0.0983840    0.0137744    0.6317297   -0.0621287   -0.7726950
   0.0040926   -0.0986994    0.0136691    0.3359530   -0.0588412   -0.9400390
   0.0043883   -0.0982419    0.0137667    0.4578209   -0.0840328   -0.8850641
   0.0049309   -0.0978014    0.0139436    0.3950826   -0.1468400   -0.9068339
   0.0044240   -0.0977698    0.0137424    0.3864293   -0.0889673   -0.9180181
   0.0051763   -0.0973457    0.0138965    0.3420948   -0.1995650   -0.9182293
   0.0052061   -0.0977918    0.0140317    0.5198704   -0.2015841   -0.8301196
   0.0054175   -0.0973607    0.0139724    0.3409070   -0.2447158   -0.9076875
   0.0056749   -0.0964337    0.0138315    0.4041806   -0.2076230   -0.8908034
   0.0059480   -0.0955028    0.0138705    0.6234751   -0.1388321   -0.7694182
   0.0057240   -0.0950204    0.0135992    0.5759092   -0.1524333   -0.8031767
   0.0057911   -0.0945511    0.0135684    0.5676878   -0.1006775   -0.8170646
   0.0060784   -0.0907808    0.0133719    0.9110874   -0.0521241   -0.4089045
   0.0061417   -0.0903034    0.0135666    0.9856993   -0.0038476   -0.1684697
   0.0061532   -0.0898160    0.0139967    0.9966633    0.0711785    0.0399491
   0.0061079   -0.0897736    0.0142292    0.9830409    0.1138194    0.1437907
   0.0059745   -0.0888336    0.0146725    0.9784173    0.0432518    0.2020614
   0.0060970   -0.0893314    0.0142154    0.9861342    0.0521264    0.1575506
   0.0057826   -0.0878572    0.0151264    0.9260667    0.0756789    0.3696933
   0.0057861   -0.0921868    0.0132583    0.5670380   -0.1279122   -0.8136992
   0.0058488   -0.0917165    0.0132287    0.6840848   -0.1279332   -0.7180955
   0.0059133   -0.0912485    0.0131981    0.6699995   -0.1245415   -0.7318402
   0.0055105   -0.0940611    0.0133836    0.3773425   -0.0901674   -0.9216737
   0.0053105   -0.0935767    0.0132693    0.2393697   -0.1391021   -0.9609125
   0.0056450   -0.0931242    0.0133215    0.5167549   -0.2106900   -0.8298037
   0.0057191   -0.0926561    0.0132890    0.5139157   -0.1354368   -0.8470817
   0.0052696   -0.0854303    0.0156689    0.7662400    0.0781077    0.6377895
   0.0044599   -0.0848514    0.0164142    0.6147243    0.2022427    0.7623725
   0.0052534   -0.0845704    0.0155660    0.7758929    0.0824524    0.6254533
   0.0044542   -0.0844010    0.0163711    0.6079733    0.0829191    0.7896157
   0.0050546   -0.0839882    0.0157471    0.7733952    0.0565678    0.6313952
   0.0049093   -0.0830261    0.0158056    0.6884784    0.0715733    0.7217165
   0.0054986   -0.0849820    0.0153055    0.8751236    0.0252183    0.4832419
   0.0060856   -0.0874414    0.0139239    0.9887790    0.0160628    0.1485198
   0.0060686   -0.0860168    0.0138756    0.9674906   -0.0001811    0.2529068
   0.0037908   -0.0962750    0.0133681    0.5146575   -0.0983942   -0.8517313
   0.0035172   -0.0962963    0.0132871    0.1957357   -0.1183314   -0.9734912
   0.0037784   -0.0958402    0.0133014    0.3737793   -0.1065921   -0.9213724
   0.0033652   -0.0958119    0.0132141    0.1888188   -0.1056708   -0.9763100
   0.0035458   -0.0987859    0.0135100    0.4596867   -0.0590544   -0.8861155
   0.0040834   -0.0971679    0.0135651    0.5036553   -0.0941969   -0.8587539
   0.0043266   -0.0956219    0.0134590    0.2030897   -0.1353704   -0.9697574
   0.0041509   -0.0968077    0.0135385    0.3390157   -0.1225684   -0.9327622
   0.0038687   -0.0958455    0.0133362    0.3145092   -0.1057003   -0.9433512
  -0.0002543   -0.0922337    0.0131542    0.6150439   -0.1475055   -0.7745729
   0.0029036   -0.0919997    0.0126724   -0.0377344   -0.1438423   -0.9888809
   0.0014329   -0.0918895    0.0128339   -0.1243744   -0.1275111   -0.9840081
   0.0034296   -0.0925081    0.0127778    0.2969051   -0.1507050   -0.9429397
  -0.0000171   -0.0922523    0.0130970    0.0690725   -0.1963683   -0.9780943
   0.0016358   -0.0904867    0.0125790   -0.1421142   -0.1607707   -0.9767069
  -0.0017882   -0.0897568    0.0129650    0.0470869   -0.1473333   -0.9879654
  -0.0016020   -0.0883557    0.0126465   -0.1501837   -0.2279894   -0.9620113
  -0.0005981   -0.0892402    0.0126659   -0.1562330   -0.2121424   -0.9646693
   0.0016123   -0.0896200    0.0124497   -0.1518575   -0.1813046   -0.9716316
   0.0005879   -0.0885209    0.0123409   -0.1341205   -0.2106826   -0.9683101
   0.0034893   -0.0948753    0.0131151    0.2559586   -0.1133281   -0.9600218
   0.0042940   -0.0944527    0.0132809    0.2515385   -0.1116471   -0.9613861
   0.0042070   -0.0939747    0.0131987    0.2828145   -0.1388818   -0.9490668
   0.0037167   -0.0934729    0.0129559    0.1899534   -0.1413196   -0.9715691
   0.0032062   -0.0938550    0.0129503    0.3295660   -0.1216946   -0.9362567
   0.0034478   -0.0929806    0.0128689    0.7732487   -0.0915064   -0.6274655
   0.0033272   -0.0934465    0.0129106    0.1475875   -0.1324376   -0.9801419
   0.0021905   -0.0818383    0.0172572    0.1610724    0.0583249    0.9852177
   0.0016933   -0.0813280    0.0172619   -0.0054013    0.0812301    0.9966807
   0.0009235   -0.0812751    0.0172104   -0.1756230    0.0751929    0.9815817
   0.0006470   -0.0803109    0.0170739   -0.2736538    0.0786272    0.9586091
  -0.0004752   -0.0811939    0.0166225   -0.5090774    0.0570933    0.8588251
  -0.0004959   -0.0797704    0.0165324   -0.4887679    0.0390152    0.8715410
   0.0040296   -0.0843612    0.0166785    0.5403254    0.1167441    0.8333182
   0.0043991   -0.0843966    0.0164101    0.6268198    0.0792013    0.7751284
   0.0042402   -0.0839069    0.0164962    0.5860483    0.0903282    0.8052256
   0.0046313   -0.0820520    0.0159744    0.6321699    0.1057761    0.7675758
   0.0044413   -0.0815608    0.0160736    0.6174597    0.0465250    0.7852254
   0.0031290   -0.0814400    0.0169668    0.4370750    0.0617392    0.8973036
   0.0042096   -0.0805894    0.0162284    0.6962098    0.0346610    0.7170011
   0.0026606   -0.0809284    0.0170834    0.2630516    0.0755180    0.9618217
  -0.0020995   -0.0883182    0.0127166   -0.0479573   -0.2081618   -0.9769180
  -0.0027797   -0.0839718    0.0117984   -0.7967475   -0.3085803   -0.5195879
  -0.0030465   -0.0835240    0.0120623   -0.9372510   -0.2151904   -0.2743240
  -0.0031460   -0.0830976    0.0122924   -0.9621038   -0.2103514   -0.1735179
  -0.0025299   -0.0845187    0.0118130   -0.6351306   -0.3449044   -0.6911224
  -0.0021854   -0.0864270    0.0122543   -0.3297998   -0.2598198   -0.9075934
  -0.0022768   -0.0850093    0.0118372   -0.4514001   -0.3001700   -0.8403189
  -0.0018487   -0.0881809    0.0126602   -0.1591491   -0.2343426   -0.9590386
  -0.0014768   -0.0864601    0.0120706   -0.1977754   -0.2897037   -0.9364596
  -0.0013768   -0.0783003    0.0159870   -0.5045987    0.0019256    0.8633518
  -0.0019703   -0.0777951    0.0156211   -0.5770984   -0.0295147    0.8161411
  -0.0030379   -0.0787002    0.0145848   -0.7461114   -0.0861073    0.6602298
  -0.0026273   -0.0782399    0.0150520   -0.6766905   -0.0580931    0.7339722
  -0.0027836   -0.0835580    0.0115594   -0.8228668   -0.3047582   -0.4795964
  -0.0028809   -0.0830823    0.0113661   -0.8167457   -0.3669270   -0.4452988
  -0.0032552   -0.0823336    0.0118367   -0.9581603   -0.2649367   -0.1083392
  -0.0031264   -0.0825039    0.0113666   -0.8757265   -0.3713732   -0.3085207
  -0.0034688   -0.0816080    0.0116298   -0.9579593   -0.2857066   -0.0261848
  -0.0036004   -0.0811244    0.0116389   -0.9662766   -0.2556984    0.0304622
  -0.0035477   -0.0812762    0.0116335   -0.9300653   -0.3671151    0.0143192
  -0.0038024   -0.0798286    0.0125335   -0.9546625   -0.2187340    0.2019279
  -0.0038452   -0.0801572    0.0116541   -0.9793984   -0.2000223    0.0277458
  -0.0037444   -0.0806455    0.0114264   -0.9546032   -0.2953974    0.0383797
  -0.0036196   -0.0786831    0.0138039   -0.8277726   -0.1132695    0.5495112
  -0.0042974   -0.0767539    0.0131984   -0.9003731   -0.1751667    0.3983026
  -0.0040936   -0.0781992    0.0129842   -0.9280716   -0.2077264    0.3090840
  -0.0039680   -0.0772394    0.0135984   -0.8384320   -0.1576091    0.5217194
   0.0048906   -0.0968547    0.0137448    0.2497804   -0.1863399   -0.9502037
   0.0049129   -0.0972416    0.0138474    0.3825713   -0.1811583   -0.9059916
   0.0045433   -0.0968318    0.0136834    0.2798060   -0.1333354   -0.9507525
   0.0051530   -0.0968324    0.0137828    0.1927711   -0.2331734   -0.9531367
   0.0053934   -0.0963678    0.0137163    0.2399273   -0.2132618   -0.9470767
   0.0056533   -0.0959597    0.0137263    0.5533830   -0.1445875   -0.8202815
   0.0056354   -0.0953902    0.0136310    0.6792746   -0.1370637   -0.7209712
   0.0056154   -0.0950134    0.0135369    0.4765844   -0.1324389   -0.8690956
   0.0054401   -0.0945298    0.0134151    0.3352407   -0.1289717   -0.9332631
   0.0059612   -0.0907771    0.0131713    0.7609518   -0.0969494   -0.6415241
   0.0060920   -0.0903060    0.0133521    0.9363637   -0.0371611   -0.3490588
   0.0060939   -0.0893590    0.0133170    0.9782360    0.0007982   -0.2074936
   0.0061412   -0.0893419    0.0139816    0.9984370    0.0400894    0.0389416
   0.0060363   -0.0874653    0.0130348    0.9880330   -0.0076813   -0.1540511
   0.0058210   -0.0917157    0.0132081    0.4867846   -0.1310981   -0.8636284
   0.0055574   -0.0926460    0.0132062    0.2711270   -0.1238642   -0.9545406
   0.0055453   -0.0921737    0.0131393    0.3397452   -0.1360807   -0.9306209
   0.0057295   -0.0907669    0.0129933    0.4773301   -0.1492871   -0.8659499
   0.0056236   -0.0912322    0.0130323    0.4188292   -0.1565801   -0.8944634
   0.0053268   -0.0945237    0.0133752    0.3175012   -0.1181729   -0.9408656
   0.0055716   -0.0931207    0.0132839    0.3480622   -0.1457954   -0.9260650
   0.0045760   -0.0949439    0.0134181    0.1248532   -0.1092087   -0.9861466
   0.0046790   -0.0940037    0.0133276    0.0570640   -0.1073782   -0.9925793
   0.0053051   -0.0931029    0.0132275    0.0761872   -0.0979069   -0.9922750
   0.0060705   -0.0826834    0.0142042    0.8820076   -0.0349922    0.4699341
   0.0053851   -0.0826036    0.0152421    0.7745379    0.0231756    0.6321028
   0.0048909   -0.0825507    0.0157921    0.6977950    0.0451410    0.7148737
   0.0060863   -0.0841148    0.0140277    0.9708524   -0.0326571    0.2374429
   0.0061135   -0.0836430    0.0139734    0.9595249   -0.0217852    0.2807799
   0.0061141   -0.0860417    0.0131920    0.9959067   -0.0499855   -0.0753076
   0.0048947   -0.0959111    0.0135776    0.0496912   -0.1624995   -0.9854566
   0.0053565   -0.0954699    0.0135323    0.2792217   -0.1566853   -0.9473568
   0.0050808   -0.0949787    0.0134193    0.0520709   -0.1215680   -0.9912164
   0.0039448   -0.0920689    0.0127984    0.2156345   -0.1571824   -0.9637403
   0.0018970   -0.0909795    0.0126367   -0.1268070   -0.1726141   -0.9767929
   0.0021060   -0.0900512    0.0124266   -0.1190051   -0.1615535   -0.9796623
   0.0031273   -0.0910699    0.0125196    0.0739019   -0.1656002   -0.9834201
   0.0036021   -0.0925196    0.0128203    0.1569942   -0.1608682   -0.9744097
   0.0034478   -0.0929806    0.0128689    0.8596418   -0.0804939   -0.5045163
   0.0003208   -0.0880305    0.0122625   -0.1374248   -0.2085338   -0.9683120
   0.0014536   -0.0862427    0.0116845   -0.1520057   -0.2444640   -0.9576699
   0.0007878   -0.0875042    0.0120925   -0.1425529   -0.2120445   -0.9668070
  -0.0002711   -0.0861013    0.0118377   -0.0866837   -0.2831353   -0.9551546
   0.0020915   -0.0895349    0.0123480   -0.1121004   -0.1853504   -0.9762575
   0.0013198   -0.0884814    0.0122433   -0.1492534   -0.2206700   -0.9638611
   0.0045347   -0.0930493    0.0131729    0.2437517   -0.1394977   -0.9597528
   0.0037055   -0.0929994    0.0128912    0.2119116   -0.1334955   -0.9681283
   0.0034552   -0.0934545    0.0129196    0.2808985   -0.1175115   -0.9525162
   0.0034478   -0.0929806    0.0128689    0.8452944   -0.0620971   -0.5306800
   0.0021750   -0.0799433    0.0171120    0.1195626    0.0786016    0.9897104
   0.0011711   -0.0804980    0.0171581   -0.0691366    0.0809724    0.9943156
   0.0006383   -0.0793635    0.0169982   -0.2563421    0.0529958    0.9651322
  -0.0004360   -0.0792997    0.0165458   -0.4302455    0.0131316    0.9026164
   0.0046264   -0.0811040    0.0159121    0.6912810    0.0349036    0.7217425
   0.0050422   -0.0820921    0.0156137    0.6849025    0.1054509    0.7209637
   0.0048347   -0.0820552    0.0157855    0.6484744    0.1501654    0.7462783
   0.0048038   -0.0815967    0.0157750    0.6510765    0.0432162    0.7577808
   0.0044138   -0.0810839    0.0160653    0.7851973    0.0354411    0.6182307
   0.0044184   -0.0810843    0.0160611    0.6311390    0.0415899    0.7745539
   0.0040236   -0.0801000    0.0163310    0.5791354    0.0337233    0.8145336
   0.0040014   -0.0786738    0.0163127    0.5501535    0.0382041    0.8341892
   0.0028874   -0.0799997    0.0169428    0.3113558    0.0999781    0.9450195
   0.0033273   -0.0790897    0.0166510    0.3769305    0.0887437    0.9219805
   0.0044142   -0.0806097    0.0160446    0.9875889    0.0067303    0.1569166
   0.0044142   -0.0806097    0.0160446    0.9467714    0.0055250    0.3218594
   0.0044168   -0.0801361    0.0160341    0.6477516    0.0324064    0.7611621
  -0.0025792   -0.0840455    0.0116007   -0.6124635   -0.3836749   -0.6911454
  -0.0023125   -0.0845376    0.0116781   -0.4076287   -0.3700600   -0.8348020
  -0.0017757   -0.0855192    0.0118468   -0.2708597   -0.2968967   -0.9156896
  -0.0015837   -0.0849058    0.0115864   -0.2189848   -0.3295704   -0.9183839
  -0.0010509   -0.0855958    0.0117266   -0.0846386   -0.3094890   -0.9471288
  -0.0013629   -0.0768788    0.0159777   -0.5064155    0.0134732    0.8621843
  -0.0001262   -0.0774198    0.0166386   -0.3664081    0.0439962    0.9294135
  -0.0007745   -0.0769104    0.0163024   -0.4327121    0.0419362    0.9005563
  -0.0010640   -0.0768942    0.0161580   -0.4002722    0.0353461    0.9157144
  -0.0001976   -0.0783642    0.0166471   -0.4318531    0.0291043    0.9014743
  -0.0025999   -0.0776673    0.0151321   -0.6494747   -0.0513213    0.7586493
  -0.0019619   -0.0773209    0.0156324   -0.5616154   -0.0038802    0.8273893
  -0.0034002   -0.0782118    0.0141917   -0.8089965   -0.1298748    0.5732863
  -0.0030691   -0.0772694    0.0147638   -0.6563736   -0.0563679    0.7523273
  -0.0034377   -0.0772534    0.0143896   -0.7723248   -0.1206723    0.6236607
  -0.0026341   -0.0835748    0.0113674   -0.6125724   -0.4066584   -0.6777787
  -0.0026871   -0.0831042    0.0111420   -0.5671262   -0.4121363   -0.7131000
  -0.0029413   -0.0826123    0.0111122   -0.7462346   -0.3727270   -0.5515510
  -0.0032862   -0.0816506    0.0107119   -0.7910878   -0.4298991   -0.4351630
  -0.0032388   -0.0821145    0.0111505   -0.9018458   -0.3845796   -0.1969078
  -0.0029422   -0.0826034    0.0111076   -0.7198532   -0.4331910   -0.5423623
  -0.0030248   -0.0821415    0.0107687   -0.6289127   -0.4880534   -0.6052047
  -0.0036177   -0.0811370    0.0111930   -0.9554707   -0.2881717   -0.0635047
  -0.0036027   -0.0811311    0.0114147    0.1269172   -0.9429841    0.3076899
  -0.0036027   -0.0811311    0.0114147    0.8737270   -0.4854858    0.0300791
  -0.0043329   -0.0781087    0.0123554   -0.9462694   -0.2280384    0.2292873
  -0.0042712   -0.0786947    0.0119137   -0.9736244   -0.2215519    0.0545004
  -0.0038465   -0.0801711    0.0112051   -0.9877962   -0.1512488    0.0371825
  -0.0038399   -0.0801277    0.0114271   -0.9870774   -0.1601791   -0.0045767
  -0.0039789   -0.0796802    0.0114393   -0.9560983   -0.2930446   -0.0010013
  -0.0042506   -0.0787022    0.0116850   -0.9573403   -0.2845931    0.0500634
  -0.0036027   -0.0811311    0.0114147    0.9904220   -0.1362608    0.0222998
  -0.0036575   -0.0809799    0.0111956   -0.9494114   -0.3123506   -0.0324814
  -0.0042222   -0.0779335    0.0127759   -0.9178315   -0.1962925    0.3450429
  -0.0044585   -0.0772367    0.0125744   -0.9277877   -0.1977627    0.3163857
  -0.0045703   -0.0770200    0.0123643   -0.9308478   -0.1903967    0.3118839
  -0.0044836   -0.0757912    0.0132019   -0.8966863   -0.1293993    0.4233315
  -0.0041897   -0.0762749    0.0136088   -0.8236012   -0.1052848    0.5573115
   0.0051107   -0.0959253    0.0135777    0.0767172   -0.1682707   -0.9827510
   0.0053413   -0.0948973    0.0134487    0.4970698   -0.1296016   -0.8579773
   0.0057748   -0.0904813    0.0129739    0.6392315   -0.1350403   -0.7570649
   0.0060193   -0.0898340    0.0131249    0.8570970   -0.0680005   -0.5106474
   0.0060289   -0.0893605    0.0131056    0.8939355   -0.0417000   -0.4462515
   0.0060320   -0.0888874    0.0130876    0.9193894   -0.0312648   -0.3921041
   0.0060359   -0.0884126    0.0130697    0.9627332   -0.0118150   -0.2701946
   0.0060342   -0.0879385    0.0130528    0.9712272   -0.0136660   -0.2377625
   0.0059688   -0.0879398    0.0128414    0.8873332   -0.0458797   -0.4588407
   0.0059797   -0.0874664    0.0128219    0.9125504   -0.0319473   -0.4077146
   0.0058988   -0.0869926    0.0125964    0.8917418   -0.0728529   -0.4466420
   0.0055329   -0.0916293    0.0130655    0.5785848   -0.1220968   -0.8064317
   0.0051184   -0.0926160    0.0131865    0.0575692   -0.1202668   -0.9910710
   0.0052707   -0.0916816    0.0130299    0.0695860   -0.1549902   -0.9854622
   0.0047756   -0.0921206    0.0130872    0.1564926   -0.1560847   -0.9752680
   0.0055181   -0.0912255    0.0129896    0.3634067   -0.1479836   -0.9198024
   0.0055004   -0.0907539    0.0129016    0.1923129   -0.1495949   -0.9698645
   0.0057668   -0.0902970    0.0129363    0.4605752   -0.1459907   -0.8755325
   0.0062968   -0.0836913    0.0128441    0.9902503   -0.1297227    0.0507585
   0.0064308   -0.0822594    0.0134391    0.9544687   -0.1412204    0.2627666
   0.0059916   -0.0817228    0.0143916    0.8060140   -0.0546891    0.5893646
   0.0054448   -0.0807110    0.0151577    0.7150448   -0.0155751    0.6989051
   0.0061816   -0.0811708    0.0141261    0.8468699   -0.1107592    0.5201382
   0.0064897   -0.0817893    0.0133943    0.9350788   -0.1454343    0.3232281
   0.0064670   -0.0813067    0.0136222    0.8872571   -0.0990991    0.4505045
   0.0061915   -0.0846172    0.0133446    0.9971218   -0.0703937    0.0281568
   0.0060904   -0.0855793    0.0127303    0.9716193   -0.0976157   -0.2154693
   0.0058613   -0.0865242    0.0123618    0.8911693   -0.1490661   -0.4284817
   0.0036952   -0.0925247    0.0128295    0.3296469   -0.1319116   -0.9348434
   0.0041260   -0.0925535    0.0129384    0.2828840   -0.1647850   -0.9448929
   0.0044586   -0.0911561    0.0127924    0.2560564   -0.2062002   -0.9444134
   0.0047590   -0.0915781    0.0129977    0.1956237   -0.1654572   -0.9666205
   0.0031140   -0.0905964    0.0124472    0.0052115   -0.1665855   -0.9860132
   0.0043795   -0.0897388    0.0124244    0.2147033   -0.2225646   -0.9509824
   0.0006812   -0.0855220    0.0115922   -0.1131124   -0.2669840   -0.9570398
   0.0023661   -0.0853581    0.0112709   -0.1716365   -0.2860246   -0.9427252
   0.0024837   -0.0877225    0.0118313   -0.1337993   -0.2443821   -0.9604036
   0.0016400   -0.0852327    0.0113844   -0.1668134   -0.2752159   -0.9467996
   0.0000947   -0.0840589    0.0112099   -0.0246607   -0.2972137   -0.9544925
   0.0033437   -0.0899485    0.0123301    0.0401605   -0.2033473   -0.9782827
   0.0035867   -0.0896871    0.0122834    0.0886252   -0.2513345   -0.9638343
   0.0019109   -0.0780304    0.0169806    0.1310844    0.0959603    0.9867160
   0.0014253   -0.0798900    0.0171376   -0.0417804    0.0664580    0.9969141
   0.0003660   -0.0788717    0.0168975   -0.3256670    0.0333963    0.9448945
   0.0008930   -0.0779578    0.0169426   -0.1326726    0.0824431    0.9877252
   0.0046259   -0.0806314    0.0158901    0.6383780    0.0181067    0.7695100
   0.0048315   -0.0815995    0.0157536    0.6371349    0.0434787    0.7695250
   0.0044142   -0.0806097    0.0160446    0.9207789    0.0098238    0.3899613
   0.0044142   -0.0806097    0.0160446    0.9397809    0.0143310    0.3414768
   0.0044271   -0.0801367    0.0160246    0.7464750    0.0188320    0.6651470
   0.0046301   -0.0801570    0.0158847    0.6081388   -0.0023431    0.7938272
   0.0054195   -0.0783310    0.0153046    0.6663645   -0.0279652    0.7451015
   0.0040441   -0.0782039    0.0162582    0.4632691    0.0250521    0.8858635
   0.0029822   -0.0785891    0.0167157    0.2977807    0.0926387    0.9501288
   0.0030862   -0.0781246    0.0166518    0.3132799    0.0667491    0.9473121
  -0.0023582   -0.0840662    0.0114814   -0.3958038   -0.4216328   -0.8158217
  -0.0021168   -0.0841981    0.0114452   -0.2675497   -0.3972718   -0.8778338
  -0.0009186   -0.0840029    0.0111914   -0.0701490   -0.3358205   -0.9393102
  -0.0016851   -0.0836492    0.0111379   -0.1286925   -0.3755150   -0.9178381
  -0.0016585   -0.0768069    0.0158066   -0.5047509    0.0221170    0.8629816
  -0.0010819   -0.0764188    0.0161238   -0.4176913    0.0567548    0.9068147
   0.0000788   -0.0764855    0.0166552   -0.4129923    0.1035387    0.9048299
   0.0000869   -0.0779070    0.0167509   -0.2939903    0.0742358    0.9529212
   0.0008635   -0.0774834    0.0168868   -0.1641966    0.0774703    0.9833808
   0.0003070   -0.0769727    0.0167579   -0.2143056    0.0673639    0.9744410
  -0.0002088   -0.0759948    0.0164970   -0.3731516    0.1364346    0.9176838
  -0.0010677   -0.0763168    0.0161173   -0.3540655    0.0818241    0.9316343
  -0.0022209   -0.0763576    0.0154564   -0.5455402    0.0177776    0.8378961
  -0.0032106   -0.0758344    0.0147413   -0.6468207   -0.0228216    0.7623005
  -0.0038819   -0.0762839    0.0140158   -0.7548709   -0.0666086    0.6524824
  -0.0024141   -0.0835945    0.0112441   -0.3836145   -0.4308960   -0.8168038
  -0.0027417   -0.0826316    0.0109091   -0.5420121   -0.4476433   -0.7112232
  -0.0025188   -0.0825866    0.0107942   -0.1921539   -0.4133676   -0.8900585
  -0.0034744   -0.0814596    0.0109503   -0.9006009   -0.3595184   -0.2442633
  -0.0032905   -0.0816225    0.0106934   -0.7504767   -0.4251499   -0.5059964
  -0.0030904   -0.0816699    0.0104925   -0.5643090   -0.4783159   -0.6728813
  -0.0035231   -0.0811578    0.0107487   -0.9016899   -0.3461812   -0.2590633
  -0.0027581   -0.0825164    0.0108410   -0.4704051   -0.4979011   -0.7285695
  -0.0028667   -0.0816554    0.0103822   -0.2718292   -0.4886553   -0.8290506
  -0.0049206   -0.0772556    0.0108704   -0.9581208   -0.1886495    0.2154433
  -0.0046098   -0.0782216    0.0110663   -0.9115438   -0.3569201    0.2041958
  -0.0038859   -0.0801810    0.0107636   -0.9524201   -0.3000608    0.0534742
  -0.0038949   -0.0799329    0.0112061   -0.9633299   -0.2620388    0.0577163
  -0.0041879   -0.0790757    0.0110104   -0.9199229   -0.3596242    0.1562442
  -0.0049568   -0.0769624    0.0108672   -0.9681260   -0.1892521    0.1640599
  -0.0047583   -0.0762728    0.0123757   -0.9389560   -0.1937391    0.2843005
  -0.0047520   -0.0757519    0.0125805   -0.9325979   -0.0819503    0.3514901
  -0.0044499   -0.0748399    0.0133849   -0.8514947   -0.0251503    0.5237596
  -0.0046799   -0.0743616    0.0129648   -0.9159030   -0.0055253    0.4013617
  -0.0034878   -0.0753465    0.0145217   -0.6872089   -0.0134253    0.7263358
  -0.0040238   -0.0748510    0.0139728   -0.7566651   -0.0229638    0.6533993
  -0.0041918   -0.0743708    0.0137650   -0.8129954   -0.0094556    0.5821934
   0.0058733   -0.0898301    0.0129296    0.7022453   -0.1117664   -0.7031072
   0.0059094   -0.0893581    0.0129051    0.7623080   -0.0769030   -0.6426293
   0.0059357   -0.0888860    0.0128825    0.8060903   -0.0832445   -0.5859085
   0.0059581   -0.0884132    0.0128607    0.8775368   -0.0434936   -0.4775327
   0.0057850   -0.0884075    0.0126711    0.6808298   -0.1003094   -0.7255404
   0.0058257   -0.0879365    0.0126457    0.7333287   -0.0910223   -0.6737536
   0.0056706   -0.0874233    0.0124338    0.6523377   -0.2271435   -0.7230916
   0.0052585   -0.0912092    0.0129624    0.0311759   -0.1325947   -0.9906799
   0.0054867   -0.0902799    0.0128273    0.2425164   -0.1783206   -0.9536181
   0.0050080   -0.0911914    0.0129683    0.1015768   -0.1758710   -0.9791586
   0.0057482   -0.0898240    0.0128421    0.4680499   -0.1327219   -0.8736785
   0.0060957   -0.0837101    0.0117615    0.9408173   -0.1909712   -0.2799873
   0.0063067   -0.0832391    0.0121507    0.9624122   -0.2257501   -0.1509957
   0.0061274   -0.0846408    0.0124635    0.9676691   -0.1343100   -0.2134885
   0.0065666   -0.0821668    0.0127333    0.9725546   -0.2007943    0.1175547
   0.0058324   -0.0807523    0.0147071    0.7967786   -0.0897397    0.5975706
   0.0051305   -0.0802062    0.0154321    0.6237008   -0.0258685    0.7812350
   0.0061426   -0.0779244    0.0148043    0.6771836   -0.0957302    0.7295602
   0.0066059   -0.0798885    0.0137585    0.7847771   -0.1685141    0.5964293
   0.0064459   -0.0793916    0.0140915    0.7874768   -0.1376844    0.6007689
   0.0071423   -0.0799492    0.0129841    0.8909171   -0.2489833    0.3798342
   0.0068186   -0.0808738    0.0130840    0.9421222   -0.2350294    0.2390962
   0.0069203   -0.0805208    0.0130506    0.8778078   -0.2542233    0.4059852
   0.0058591   -0.0855418    0.0121017    0.8588620   -0.1653555   -0.4847820
   0.0057201   -0.0865193    0.0121658    0.6594074   -0.2266811   -0.7167968
   0.0045842   -0.0897499    0.0125174    0.3427838   -0.2177819   -0.9138218
   0.0052034   -0.0897894    0.0126853    0.1840693   -0.1657801   -0.9688320
   0.0051843   -0.0893164    0.0126027    0.2408097   -0.1904986   -0.9516937
   0.0045995   -0.0886843    0.0122506    0.3196765   -0.2452891   -0.9152269
   0.0005745   -0.0837380    0.0110993   -0.0777516   -0.2875493   -0.9546047
   0.0009469   -0.0819758    0.0105087   -0.1044856   -0.3272890   -0.9391297
   0.0027081   -0.0872679    0.0117030   -0.0884448   -0.2348752   -0.9679934
   0.0030771   -0.0852246    0.0110879   -0.1149055   -0.3375885   -0.9342541
   0.0038712   -0.0859409    0.0112640    0.0212737   -0.3047727   -0.9521875
   0.0024824   -0.0834875    0.0106617   -0.2112339   -0.2963320   -0.9314331
   0.0029277   -0.0830514    0.0104123   -0.2213858   -0.2966024   -0.9289862
   0.0034490   -0.0836565    0.0105043   -0.1080382   -0.2998727   -0.9478418
   0.0036145   -0.0826337    0.0101214   -0.1989031   -0.3365886   -0.9204052
   0.0032499   -0.0882507    0.0118919    0.0029482   -0.2602580   -0.9655346
  -0.0012661   -0.0827606    0.0107678   -0.0179361   -0.3048139   -0.9522430
   0.0002952   -0.0833208    0.0109758   -0.0059025   -0.3080729   -0.9513444
   0.0040260   -0.0883041    0.0119687    0.2084386   -0.2768240   -0.9380415
   0.0050266   -0.0869480    0.0118741    0.4168480   -0.2988050   -0.8584599
   0.0016562   -0.0776693    0.0169552    0.0610238    0.0940241    0.9936979
   0.0023763   -0.0771929    0.0167900    0.2388570    0.0873980    0.9671137
   0.0052993   -0.0778445    0.0154414    0.6872255   -0.0685708    0.7232006
   0.0054977   -0.0783391    0.0152555    0.5595235   -0.0337858    0.8281256
   0.0055070   -0.0778638    0.0152697    0.9780195   -0.0163705    0.2078700
   0.0055070   -0.0778638    0.0152697    0.8425812   -0.0479143    0.5364337
   0.0037756   -0.0767588    0.0163287    0.3656646    0.0783063    0.9274468
   0.0051240   -0.0759274    0.0156529    0.5084960   -0.0016045    0.8610628
   0.0042224   -0.0763244    0.0160869    0.3932441    0.0828906    0.9156900
   0.0048254   -0.0759003    0.0157886    0.4113115    0.0740241    0.9084841
   0.0030780   -0.0767031    0.0165559    0.2665195    0.1137355    0.9570954
   0.0026099   -0.0771386    0.0167164    0.2606173    0.1104703    0.9591011
  -0.0021708   -0.0836844    0.0112129   -0.2248188   -0.4210905   -0.8787146
  -0.0013616   -0.0759309    0.0159384   -0.4479825    0.0896619    0.8895350
   0.0003455   -0.0765034    0.0167126   -0.1761131    0.1635073    0.9706954
   0.0000571   -0.0759442    0.0165470   -0.4236940    0.1654923    0.8905592
   0.0000401   -0.0755385    0.0164632   -0.3925134    0.1953774    0.8987552
   0.0011364   -0.0765552    0.0168459   -0.1099747    0.1230669    0.9862860
  -0.0006074   -0.0755011    0.0162174   -0.3596353    0.1889055    0.9137708
  -0.0019303   -0.0754249    0.0155874   -0.5297264    0.0596807    0.8460663
  -0.0007925   -0.0823044    0.0106264    0.0189613   -0.3313114   -0.9433309
  -0.0022016   -0.0809825    0.0099962    0.0343396   -0.4240024   -0.9050098
  -0.0031057   -0.0815576    0.0104283   -0.5425942   -0.4615880   -0.7018034
  -0.0033560   -0.0811792    0.0104209   -0.7285097   -0.4539066   -0.5130716
  -0.0038878   -0.0801876    0.0105393   -0.8998154   -0.4104071   -0.1479804
  -0.0031181   -0.0807368    0.0099505   -0.4427259   -0.5159838   -0.7333175
  -0.0030301   -0.0804434    0.0096969   -0.0814520   -0.4821689   -0.8722836
  -0.0024812   -0.0807836    0.0098829    0.0314029   -0.4510512   -0.8919455
  -0.0048664   -0.0777417    0.0106517   -0.9719719   -0.2255722    0.0662403
  -0.0050670   -0.0765491    0.0104246   -0.9835233   -0.1801328    0.0152974
  -0.0043536   -0.0791531    0.0103726   -0.8933782   -0.4421337   -0.0799568
  -0.0046472   -0.0784106    0.0101808   -0.9397033   -0.3407056    0.0296202
  -0.0041155   -0.0796552    0.0103416   -0.9016130   -0.4245906   -0.0825635
  -0.0051394   -0.0762988    0.0106553   -0.9842806   -0.1670296    0.0573835
  -0.0050283   -0.0758677    0.0115170   -0.9747033   -0.1207842    0.1880549
  -0.0049637   -0.0757959    0.0119509   -0.9632526   -0.1074834    0.2461539
  -0.0049495   -0.0748424    0.0121380   -0.9722390    0.0050860    0.2339346
  -0.0043196   -0.0734194    0.0135317   -0.8330644    0.1252411    0.5388120
  -0.0047464   -0.0738888    0.0127365   -0.9529880    0.0502814    0.2988072
  -0.0034783   -0.0743990    0.0145154   -0.6139454    0.0414011    0.7882620
  -0.0040491   -0.0739003    0.0139435   -0.7442005    0.0558345    0.6656186
   0.0057069   -0.0884040    0.0126189    0.5133790   -0.1355969   -0.8473816
   0.0050807   -0.0875627    0.0121104    0.4429400   -0.2934022   -0.8471832
   0.0054130   -0.0874435    0.0122628    0.5127504   -0.3292857   -0.7928795
   0.0054389   -0.0888592    0.0125772    0.2776841   -0.1516355   -0.9486297
   0.0063442   -0.0826932    0.0118982    0.9434039   -0.2339734   -0.2350435
   0.0059230   -0.0846448    0.0118310    0.8546759   -0.2286253   -0.4661112
   0.0059568   -0.0837106    0.0114219    0.8792670   -0.2674148   -0.3941813
   0.0066820   -0.0818316    0.0124721    0.9740235   -0.2221058   -0.0441283
   0.0068631   -0.0789579    0.0137353    0.7396457   -0.1792042    0.6486988
   0.0063994   -0.0774735    0.0146215    0.6926564   -0.1308802    0.7092936
   0.0057409   -0.0774085    0.0151777    0.5743865   -0.0787916    0.8147834
   0.0071424   -0.0789877    0.0133988    0.8050424   -0.2242549    0.5491962
   0.0070545   -0.0804234    0.0127944    0.9245525   -0.3358607    0.1800007
   0.0072780   -0.0799955    0.0118326    0.9290083   -0.3700571   -0.0011294
   0.0075254   -0.0790382    0.0126469    0.9165642   -0.2890873    0.2762943
   0.0068991   -0.0809145    0.0119441    0.9486797   -0.3136661   -0.0402535
   0.0071230   -0.0803135    0.0118760    0.9169475   -0.3895585   -0.0863217
   0.0066963   -0.0816730    0.0122382    0.9600118   -0.2603141   -0.1030237
   0.0057500   -0.0848355    0.0116487    0.7374056   -0.2334745   -0.6338159
   0.0055386   -0.0860412    0.0118614    0.6345968   -0.2507097   -0.7310482
   0.0049213   -0.0888283    0.0124144    0.3229477   -0.2099260   -0.9228412
   0.0021443   -0.0820379    0.0102643   -0.2215389   -0.3174370   -0.9220381
  -0.0001364   -0.0818812    0.0105033    0.0033100   -0.3460656   -0.9382045
  -0.0003567   -0.0813959    0.0103060   -0.0038856   -0.3666203   -0.9303626
   0.0003054   -0.0803873    0.0099081   -0.0601486   -0.4029033   -0.9132640
  -0.0001467   -0.0809417    0.0101362   -0.0004790   -0.3638114   -0.9314725
   0.0015581   -0.0806046    0.0098831   -0.1573209   -0.3766602   -0.9128950
   0.0035568   -0.0849989    0.0109811   -0.0521271   -0.3230014   -0.9449618
   0.0041981   -0.0867876    0.0115892    0.1633421   -0.2728032   -0.9481022
   0.0047324   -0.0867782    0.0117038    0.2263534   -0.3174912   -0.9208493
   0.0043546   -0.0855043    0.0111619    0.1095104   -0.3231505   -0.9399900
   0.0040904   -0.0853718    0.0111098    0.0689664   -0.3150502   -0.9465659
   0.0039392   -0.0840661    0.0106435   -0.0110368   -0.3517448   -0.9360309
   0.0036541   -0.0835769    0.0104592   -0.1340805   -0.2410538   -0.9612052
   0.0039284   -0.0835139    0.0104005   -0.1453247   -0.3317052   -0.9321225
   0.0042499   -0.0812795    0.0093532   -0.2515765   -0.4086340   -0.8773412
   0.0035272   -0.0816034    0.0097387   -0.2999096   -0.3565848   -0.8848172
   0.0052135   -0.0858432    0.0115705    0.5185683   -0.3191794   -0.7932285
   0.0048869   -0.0855387    0.0112707    0.2903631   -0.3376725   -0.8953583
   0.0013810   -0.0760985    0.0167944    0.0252171    0.1647020    0.9860210
   0.0021368   -0.0769719    0.0168307    0.2176685    0.1293848    0.9674089
   0.0018974   -0.0769750    0.0168804    0.1171621    0.1346905    0.9839367
   0.0015928   -0.0751711    0.0165963    0.1241475    0.2328219    0.9645628
   0.0055070   -0.0778638    0.0152697    0.9382583   -0.0619320    0.3403467
   0.0055299   -0.0773900    0.0153374    0.5962958   -0.0805474    0.7987136
   0.0056747   -0.0774037    0.0152180    0.7099200   -0.0604850    0.7016803
   0.0035219   -0.0757076    0.0162750    0.2993224    0.1636459    0.9400139
   0.0064134   -0.0760441    0.0147898    0.5793412   -0.0768510    0.8114541
   0.0071442   -0.0751594    0.0143841    0.6296950   -0.1161758    0.7681064
   0.0044383   -0.0753947    0.0159028    0.3366430    0.1614595    0.9276865
   0.0055688   -0.0747125    0.0153668    0.4269204    0.1059994    0.8980552
   0.0062282   -0.0746018    0.0149847    0.4857243    0.0630777    0.8718332
   0.0025730   -0.0757190    0.0165103    0.2073725    0.1889439    0.9598421
  -0.0015934   -0.0749715    0.0157263   -0.4505508    0.1049461    0.8865609
   0.0002253   -0.0755515    0.0164979   -0.1727486    0.1988699    0.9646806
   0.0010723   -0.0749363    0.0165259   -0.1241186    0.2123925    0.9692698
   0.0002618   -0.0746109    0.0163041   -0.2090219    0.2552230    0.9440186
  -0.0013611   -0.0740396    0.0156448   -0.3369678    0.2248852    0.9142644
  -0.0008938   -0.0810936    0.0101808    0.0580894   -0.3704123   -0.9270493
  -0.0017221   -0.0806516    0.0098852    0.0989697   -0.3688303   -0.9242127
  -0.0020612   -0.0803433    0.0097188    0.0630563   -0.4219563   -0.9044207
  -0.0035086   -0.0802255    0.0097875   -0.5621688   -0.5314898   -0.6336283
  -0.0036382   -0.0805684    0.0102768   -0.8099152   -0.4593486   -0.3647415
  -0.0032916   -0.0802580    0.0096531   -0.3257117   -0.5485760   -0.7700496
  -0.0030843   -0.0800208    0.0094677   -0.0433191   -0.4699720   -0.8816177
  -0.0021060   -0.0798732    0.0094858    0.0025767   -0.4749059   -0.8800328
  -0.0028440   -0.0798220    0.0094117    0.0463894   -0.5010339   -0.8641835
  -0.0048559   -0.0777490    0.0104250   -0.9623379   -0.2702497   -0.0295102
  -0.0050035   -0.0768123    0.0097071   -0.9765024   -0.1696780   -0.1328628
  -0.0049397   -0.0773333    0.0099768   -0.9799152   -0.1969152   -0.0314731
  -0.0050635   -0.0763384    0.0095163   -0.9758692   -0.1551200   -0.1536783
  -0.0041699   -0.0794407    0.0101205   -0.8479538   -0.4129271   -0.3323636
  -0.0038724   -0.0792768    0.0093138   -0.6954209   -0.5198216   -0.4961606
  -0.0047003   -0.0782491    0.0099672   -0.9295153   -0.3380945   -0.1472868
  -0.0043347   -0.0787138    0.0094525   -0.8410873   -0.4598188   -0.2848489
  -0.0040955   -0.0790695    0.0094167   -0.7486403   -0.5649941   -0.3468707
  -0.0038774   -0.0797355    0.0098456   -0.8165555   -0.4510552   -0.3602587
  -0.0051934   -0.0754381    0.0108605   -0.9939519   -0.0002997    0.1098159
  -0.0052168   -0.0753573    0.0101872   -0.9974750   -0.0524616   -0.0478685
  -0.0051216   -0.0762414    0.0101995   -0.9904292   -0.1234063   -0.0618139
  -0.0050812   -0.0747658    0.0112627   -0.9861455    0.0444130    0.1598265
  -0.0047460   -0.0729448    0.0124772   -0.8927748    0.2168261    0.3948919
  -0.0038326   -0.0734380    0.0140783   -0.6427832    0.2261116    0.7319175
  -0.0040400   -0.0729600    0.0136823   -0.7348741    0.2875824    0.6142121
  -0.0050644   -0.0739060    0.0114527   -0.9867005    0.0110349    0.1621736
  -0.0049697   -0.0734244    0.0118659   -0.9725951    0.0759620    0.2197464
  -0.0027234   -0.0739629    0.0150223   -0.4878492    0.0993298    0.8672582
  -0.0029805   -0.0739494    0.0148499   -0.5856991    0.1082894    0.8032620
   0.0061406   -0.0827858    0.0110437    0.9023756   -0.3106375   -0.2987017
   0.0064739   -0.0818509    0.0113906    0.9323941   -0.2968667   -0.2061827
   0.0055856   -0.0840075    0.0109770    0.7122223   -0.3611164   -0.6019421
   0.0053452   -0.0845058    0.0110448    0.5310247   -0.3601325   -0.7670185
   0.0057855   -0.0832449    0.0107394    0.7350548   -0.3979731   -0.5489189
   0.0076378   -0.0776038    0.0132463    0.8029815   -0.1589296    0.5744233
   0.0072745   -0.0770869    0.0137525    0.7361316   -0.1417826    0.6618217
   0.0075370   -0.0761593    0.0136647    0.7322021   -0.1655801    0.6606537
   0.0076991   -0.0779132    0.0130198    0.8672400   -0.2373495    0.4376756
   0.0077720   -0.0784077    0.0123480    0.9343877   -0.3381606    0.1121026
   0.0070128   -0.0803105    0.0114489    0.9026210   -0.3866778   -0.1890916
   0.0078122   -0.0786280    0.0112229    0.9141893   -0.3851169   -0.1262654
   0.0078367   -0.0781149    0.0125490    0.9231153   -0.2759033    0.2678348
   0.0066049   -0.0812327    0.0108911    0.9198460   -0.3484436   -0.1801956
   0.0030284   -0.0811813    0.0097427   -0.2854653   -0.3418625   -0.8953433
  -0.0001169   -0.0800059    0.0097564   -0.0174220   -0.4012011   -0.9158243
   0.0007844   -0.0802801    0.0098051   -0.0817062   -0.4199046   -0.9038829
   0.0029948   -0.0807175    0.0095912   -0.3082479   -0.3393207   -0.8887321
   0.0024078   -0.0795237    0.0092187   -0.1941261   -0.4258633   -0.8837169
   0.0010525   -0.0796225    0.0095015   -0.1033950   -0.4244824   -0.8995133
   0.0044721   -0.0850421    0.0110190    0.1279005   -0.3199367   -0.9387662
   0.0042765   -0.0845264    0.0108158    0.0505998   -0.3961351   -0.9167970
   0.0048157   -0.0827276    0.0098936   -0.1019933   -0.4876881   -0.8670396
   0.0045933   -0.0828943    0.0100162   -0.0987182   -0.4487728   -0.8881766
   0.0038976   -0.0806632    0.0091781   -0.3634402   -0.3864918   -0.8476646
   0.0049993   -0.0822749    0.0096080   -0.0962101   -0.4718487   -0.8764145
   0.0043224   -0.0803815    0.0088558   -0.3734442   -0.4281753   -0.8229249
   0.0036588   -0.0805020    0.0092218   -0.3462730   -0.3779055   -0.8586515
   0.0050092   -0.0850769    0.0111347    0.2822264   -0.3261758   -0.9021960
   0.0018452   -0.0754768    0.0166116    0.2071493    0.1943141    0.9588176
   0.0023243   -0.0755858    0.0165171    0.1904541    0.2109538    0.9587626
   0.0013128   -0.0746085    0.0164646   -0.0511715    0.2701119    0.9614682
   0.0032231   -0.0743543    0.0160351    0.2449948    0.2405185    0.9392169
   0.0026970   -0.0735321    0.0159154    0.2478456    0.3916542    0.8861036
   0.0024463   -0.0733533    0.0159131    0.2057879    0.3942595    0.8956622
   0.0014686   -0.0732808    0.0160319    0.0531501    0.4147429    0.9083850
   0.0029595   -0.0738634    0.0159699    0.2525136    0.3591298    0.8984780
   0.0013519   -0.0737419    0.0162002   -0.0427380    0.3178116    0.9471902
   0.0077747   -0.0747496    0.0137892    0.7854718   -0.0903346    0.6122693
