NORM_ASCII
2591 5178
   0.0041900   -0.0410879    0.0094774   -0.6572656   -0.3665423    0.6585201
   0.0024875   -0.0405419    0.0058970   -0.7115558   -0.1673446   -0.6824105
   0.0020980   -0.0404794    0.0063204   -0.7916083   -0.2221407   -0.5692187
   0.0020889   -0.0404777    0.0063355   -0.8945640   -0.2264655   -0.3853163
   0.0035105   -0.0401914    0.0093075   -0.5187331   -0.3093718    0.7969975
   0.0027627   -0.0398794    0.0087625   -0.6900314   -0.4509295    0.5661442
   0.0030289   -0.0400714    0.0089543   -0.5986280   -0.4244037    0.6793571
   0.0021905   -0.0396217    0.0079118   -0.8495343   -0.3752849    0.3707461
   0.0022650   -0.0395674    0.0081276   -0.8120177   -0.3653873    0.4551038
   0.0020721   -0.0399864    0.0063185   -0.8026369   -0.0712679   -0.5921949
   0.0020894   -0.0395740    0.0064257   -0.9044586    0.1118966   -0.4116234
   0.0019596   -0.0398493    0.0067739   -0.9970512    0.0498786   -0.0583181
   0.0020474   -0.0394161    0.0066647   -0.9867723    0.0479761   -0.1548509
   0.0020055   -0.0393505    0.0069717   -0.9956436    0.0350955   -0.0863838
   0.0020166   -0.0392529    0.0074036   -0.9888970   -0.0730533    0.1294063
   0.0021048   -0.0391453    0.0078571   -0.9663570   -0.0791352    0.2447279
   0.0020549   -0.0391987    0.0076328   -0.9687652   -0.1074026    0.2235142
   0.0044402   -0.0448003    0.0082888   -0.5551031   -0.6889212    0.4660989
   0.0043797   -0.0447283    0.0082975   -0.6422483   -0.5755444    0.5062271
   0.0049904   -0.0453066    0.0069204   -0.0877718   -0.9652937   -0.2459760
   0.0043197   -0.0449992    0.0066007   -0.1976771   -0.9160826   -0.3488787
   0.0050765   -0.0453562    0.0071510   -0.1094484   -0.9927665   -0.0493527
   0.0049052   -0.0451951    0.0081929   -0.2370532   -0.9395553    0.2470662
   0.0049963   -0.0453296    0.0076796   -0.1610220   -0.9840027    0.0762275
   0.0047254   -0.0449837    0.0084718   -0.4621414   -0.7779307    0.4257336
   0.0041206   -0.0446355    0.0061016   -0.1641251   -0.7872272   -0.5944210
   0.0037975   -0.0443765    0.0059904   -0.3469766   -0.7194976   -0.6016065
   0.0033379   -0.0439157    0.0060016   -0.6504907   -0.5981261   -0.4680886
   0.0033490   -0.0435050    0.0056200   -0.5803175   -0.4988523   -0.6437220
   0.0036348   -0.0438019    0.0056221   -0.4147814   -0.5981292   -0.6857097
   0.0029429   -0.0417239    0.0054964   -0.7838112   -0.2043210   -0.5864238
   0.0031640   -0.0421040    0.0053079   -0.6709105   -0.2238132   -0.7069560
   0.0027150   -0.0410620    0.0057066   -0.7252010   -0.1465608   -0.6727581
   0.0031314   -0.0416163    0.0052871   -0.6589667   -0.0996344   -0.7455440
   0.0030636   -0.0428966    0.0056634   -0.6997649   -0.3415878   -0.6274129
   0.0029758   -0.0425434    0.0056315   -0.7403674   -0.2959862   -0.6035299
   0.0047162   -0.0424621    0.0097876   -0.7034907   -0.1911234    0.6845237
   0.0050115   -0.0439442    0.0096960   -0.4963684   -0.4296804    0.7543164
   0.0049844   -0.0434136    0.0098627   -0.5668509   -0.3218001    0.7583698
   0.0048669   -0.0429192    0.0099037   -0.6938720   -0.2527997    0.6742655
   0.0048508   -0.0439990    0.0095109   -0.6471212   -0.4535522    0.6128005
   0.0047620   -0.0446379    0.0089007   -0.6223829   -0.5476524    0.5592105
   0.0044476   -0.0446082    0.0085033   -0.6281960   -0.5479199    0.5524071
   0.0046531   -0.0446925    0.0086973   -0.6263355   -0.5704063    0.5313572
   0.0049969   -0.0444869    0.0092940   -0.4638228   -0.6282978    0.6245881
   0.0047841   -0.0414006    0.0100773   -0.5392746   -0.2011833    0.8177458
   0.0042795   -0.0405035    0.0098447   -0.5931598   -0.2703253    0.7583440
   0.0028996   -0.0405201    0.0055479   -0.6293406   -0.0055494   -0.7771097
   0.0029035   -0.0400743    0.0056229   -0.5401727    0.1902157   -0.8197752
   0.0045103   -0.0399350    0.0100891   -0.4390171   -0.0769342    0.8951788
   0.0030302   -0.0392402    0.0093085   -0.5742471   -0.3191929    0.7538940
   0.0045232   -0.0394415    0.0100711   -0.4028400   -0.0721632    0.9124212
   0.0038108   -0.0385614    0.0098410   -0.3549852   -0.0391629    0.9340513
   0.0030594   -0.0387101    0.0094550   -0.5964904   -0.1452037    0.7893764
   0.0027143   -0.0393360    0.0089348   -0.7269278   -0.2905021    0.6222415
   0.0021741   -0.0390904    0.0080750   -0.9250109   -0.1490582    0.3494802
   0.0022534   -0.0390366    0.0082890   -0.8728359   -0.1169932    0.4737828
   0.0022666   -0.0397621    0.0061431   -0.6881353    0.1029650   -0.7182395
   0.0021339   -0.0392233    0.0065987   -0.9120187    0.2083453   -0.3532904
   0.0022984   -0.0392885    0.0062988   -0.7035584    0.2706110   -0.6570961
   0.0022625   -0.0383003    0.0071439   -0.9561569    0.0961996   -0.2766036
   0.0021554   -0.0386139    0.0074914   -0.9991342    0.0415974   -0.0007728
   0.0023318   -0.0380834    0.0080896   -0.9515150    0.0318272    0.3059513
   0.0022679   -0.0381390    0.0078696   -0.9799678   -0.0201353    0.1981353
   0.0023332   -0.0372432    0.0074328   -0.9806000   -0.0459815   -0.1905501
   0.0046992   -0.0448343    0.0061822   -0.1075514   -0.8146701   -0.5698643
   0.0050408   -0.0450453    0.0063507    0.0418900   -0.8908643   -0.4523339
   0.0054014   -0.0454103    0.0072963    0.0554629   -0.9834352   -0.1725664
   0.0044366   -0.0447692    0.0062103   -0.1037915   -0.8101668   -0.5769377
   0.0055684   -0.0454666    0.0077507   -0.0017320   -0.9961205    0.0879832
   0.0051370   -0.0452762    0.0081237   -0.0760917   -0.9511599    0.2991736
   0.0050546   -0.0450800    0.0086228   -0.1602887   -0.8976601    0.4105044
   0.0047975   -0.0448997    0.0086832   -0.4615425   -0.7119812    0.5292082
   0.0045152   -0.0443736    0.0057381   -0.0971746   -0.6567535   -0.7478181
   0.0048293   -0.0445591    0.0058344   -0.0358050   -0.7151724   -0.6980304
   0.0042443   -0.0443011    0.0057453   -0.1572852   -0.6380607   -0.7537506
   0.0039048   -0.0439598    0.0056011   -0.2056583   -0.5785460   -0.7892966
   0.0037960   -0.0435274    0.0053614   -0.2863045   -0.4836478   -0.8271122
   0.0034900   -0.0430641    0.0053268   -0.4466084   -0.3501716   -0.8233595
   0.0034876   -0.0425967    0.0052049   -0.5086170   -0.2975428   -0.8079462
   0.0040254   -0.0416590    0.0047702   -0.3553581   -0.1207319   -0.9269004
   0.0040696   -0.0421385    0.0048243   -0.3434734   -0.2243849   -0.9119635
   0.0031203   -0.0411122    0.0053277   -0.5938697   -0.0008868   -0.8045608
   0.0040058   -0.0411604    0.0047866   -0.4541205    0.0098979   -0.8908853
   0.0049822   -0.0428820    0.0100208   -0.5398884   -0.1925535    0.8194166
   0.0052428   -0.0428282    0.0101694   -0.3810140   -0.1827351    0.9063312
   0.0051664   -0.0437819    0.0098634   -0.3509544   -0.4047829    0.8443825
   0.0050605   -0.0443183    0.0094937   -0.3717670   -0.6003858    0.7080439
   0.0053804   -0.0443258    0.0096321   -0.1915876   -0.5844417    0.7884935
   0.0052006   -0.0433256    0.0100223   -0.3386053   -0.2944379    0.8936737
   0.0051267   -0.0449941    0.0088342   -0.2316602   -0.8056815    0.5451704
   0.0052605   -0.0447287    0.0092429   -0.1969519   -0.7055879    0.6807023
   0.0052711   -0.0444744    0.0094455   -0.2764590   -0.6463031    0.7112402
   0.0045153   -0.0405307    0.0100174   -0.4819194   -0.1688796    0.8597868
   0.0052096   -0.0418220    0.0102527   -0.2807205   -0.1274983    0.9512834
   0.0051979   -0.0413160    0.0103015   -0.2918148   -0.1103519    0.9500877
   0.0050492   -0.0403389    0.0102961   -0.3362641   -0.0772864    0.9385911
   0.0031199   -0.0403447    0.0054370   -0.5144682    0.1340693   -0.8469639
   0.0024994   -0.0395101    0.0060766   -0.5059316    0.2979237   -0.8094904
   0.0030459   -0.0388081    0.0061968   -0.3827578    0.3320890   -0.8620982
   0.0032009   -0.0395610    0.0057719   -0.2899443    0.4434285   -0.8481176
   0.0033654   -0.0400835    0.0054068   -0.3881059    0.2910102   -0.8744638
   0.0033888   -0.0398507    0.0055041   -0.3410911    0.4658084   -0.8165044
   0.0054159   -0.0397950    0.0103751   -0.1584833    0.0289515    0.9869371
   0.0048646   -0.0393867    0.0101912   -0.3021726   -0.0188819    0.9530662
   0.0047487   -0.0389113    0.0101482   -0.2778701   -0.0062708    0.9605982
   0.0049854   -0.0381098    0.0101705   -0.2584472    0.0608656    0.9641060
   0.0049625   -0.0379049    0.0101367   -0.2261161    0.0472503    0.9729537
   0.0035554   -0.0381229    0.0096768   -0.4679634    0.0512150    0.8822626
   0.0041727   -0.0375371    0.0098546   -0.3771140    0.0463142    0.9250081
   0.0028389   -0.0382874    0.0092063   -0.7087790   -0.0160882    0.7052471
   0.0023689   -0.0385059    0.0084045   -0.8892802    0.0308377    0.4563220
   0.0026923   -0.0378668    0.0089302   -0.8395452    0.0101216    0.5431956
   0.0023758   -0.0383554    0.0068603   -0.8076710    0.2190259   -0.5474443
   0.0025734   -0.0388578    0.0063750   -0.5463725    0.3419901   -0.7645390
   0.0023024   -0.0377252    0.0072785   -0.9544353    0.0021088   -0.2984104
   0.0024532   -0.0378371    0.0069342   -0.8515593    0.0445357   -0.5223633
   0.0023379   -0.0380360    0.0080788   -0.9122784    0.0052722    0.4095366
   0.0024181   -0.0380284    0.0083014    0.8480814    0.0829881    0.5233268
   0.0023470   -0.0376082    0.0079982   -0.9630107   -0.0656389    0.2613463
   0.0023510   -0.0362326    0.0074974   -0.9897303   -0.1429429    0.0010842
   0.0024342   -0.0359077    0.0071562   -0.9119366   -0.1873759   -0.3650505
   0.0024495   -0.0363047    0.0071421   -0.8772834   -0.1494973   -0.4560969
   0.0026402   -0.0368495    0.0068452   -0.8081881   -0.0854311   -0.5826951
   0.0024626   -0.0373175    0.0070334   -0.8796888    0.0079550   -0.4754834
   0.0052740   -0.0449947    0.0062573    0.1056529   -0.7740625   -0.6242312
   0.0056393   -0.0454023    0.0072094    0.1543072   -0.9371725   -0.3128850
   0.0058091   -0.0454863    0.0076681    0.1975615   -0.9790610   -0.0490824
   0.0062010   -0.0454056    0.0080174    0.3796195   -0.9145907    0.1393305
   0.0057235   -0.0454028    0.0081889    0.1105125   -0.9270578    0.3582609
   0.0054443   -0.0449782    0.0089694    0.0371755   -0.8622529    0.5051118
   0.0049394   -0.0440972    0.0054592   -0.0528181   -0.5670264   -0.8220044
   0.0055091   -0.0442089    0.0055270    0.1353572   -0.5764060   -0.8058750
   0.0048539   -0.0434913    0.0051283   -0.0228240   -0.4825606   -0.8755651
   0.0044456   -0.0430609    0.0049865   -0.1685117   -0.3780795   -0.9103075
   0.0043704   -0.0426045    0.0048444   -0.2498060   -0.3080849   -0.9179764
   0.0048146   -0.0421150    0.0046501   -0.0904205   -0.2419253   -0.9660726
   0.0052792   -0.0416121    0.0045147   -0.0978274   -0.1277746   -0.9869668
   0.0042502   -0.0412962    0.0046974   -0.2812592   -0.0930470   -0.9551102
   0.0035650   -0.0406234    0.0051359   -0.4967206    0.1853599   -0.8478858
   0.0044845   -0.0411586    0.0046189   -0.2428733   -0.0132042   -0.9699681
   0.0042399   -0.0406514    0.0047611   -0.4131030    0.1587964   -0.8967327
   0.0057884   -0.0436132    0.0101153   -0.0783462   -0.3339138    0.9393420
   0.0058301   -0.0427375    0.0103560   -0.1147087   -0.1607122    0.9803130
   0.0054826   -0.0437494    0.0099968   -0.1939246   -0.4072564    0.8924884
   0.0055735   -0.0446623    0.0093715    0.0991930   -0.6934243    0.7136690
   0.0057441   -0.0439720    0.0099426    0.0563124   -0.5561931    0.8291430
   0.0058002   -0.0417357    0.0104160   -0.1293972   -0.1034755    0.9861791
   0.0060915   -0.0422101    0.0104086    0.0815457   -0.0767149    0.9937128
   0.0057865   -0.0412523    0.0104476    0.0997576   -0.0594878    0.9932319
   0.0054772   -0.0407746    0.0104055   -0.1617135   -0.0236282    0.9865548
   0.0033516   -0.0402754    0.0053413   -0.3966583    0.2971023   -0.8685577
   0.0037399   -0.0393763    0.0057976   -0.2443301    0.2705602   -0.9311820
   0.0037883   -0.0384150    0.0060688   -0.3074259    0.1423292   -0.9408675
   0.0033151   -0.0383223    0.0062651   -0.4473591    0.1451793   -0.8824924
   0.0026213   -0.0383994    0.0065733   -0.5999418    0.1963444   -0.7755764
   0.0037293   -0.0394813    0.0057536   -0.2051680    0.5200666   -0.8291181
   0.0036316   -0.0398934    0.0054243   -0.2627017    0.4784368   -0.8379057
   0.0060610   -0.0412077    0.0104668    0.1628335    0.0195930    0.9864590
   0.0063790   -0.0407040    0.0103892    0.0798744    0.1058318    0.9911709
   0.0053027   -0.0383424    0.0102693   -0.0734304    0.0769070    0.9943306
   0.0054873   -0.0373587    0.0101742   -0.0339835    0.0195791    0.9992306
   0.0059800   -0.0358106    0.0102658   -0.0284808    0.0104050    0.9995402
   0.0050749   -0.0364213    0.0100865   -0.2366362   -0.0117669    0.9715271
   0.0044466   -0.0370060    0.0099132   -0.3190538    0.0110805    0.9476718
   0.0033301   -0.0372025    0.0094506   -0.5508339    0.0789062    0.8308766
   0.0029686   -0.0348461    0.0090449   -0.5954929   -0.1096145    0.7958472
   0.0032375   -0.0367495    0.0092912   -0.6172345    0.0148377    0.7866393
   0.0041909   -0.0360721    0.0097555   -0.3704042    0.0082853    0.9288337
   0.0034551   -0.0347368    0.0093552   -0.4100974   -0.0676067    0.9095326
   0.0025009   -0.0380482    0.0085275   -0.8694706    0.0007334    0.4939842
   0.0024181   -0.0380284    0.0083014    0.9842284    0.0219431    0.1755361
   0.0025017   -0.0379750    0.0085137   -0.9000968   -0.0360346    0.4341973
   0.0028685   -0.0369501    0.0089551   -0.7824286   -0.0081270    0.6226872
   0.0026546   -0.0373511    0.0068142   -0.7003057    0.0121610   -0.7137395
   0.0024181   -0.0380284    0.0083014   -0.6554078   -0.1236110    0.7450912
   0.0023696   -0.0361902    0.0076835   -0.9733033   -0.1490162    0.1745704
   0.0024771   -0.0365457    0.0082657   -0.9272355   -0.1521464    0.3421779
   0.0023363   -0.0357034    0.0076591   -0.9718737   -0.1693002    0.1637039
   0.0022904   -0.0352802    0.0073478   -0.9636669   -0.2614111   -0.0548668
   0.0026127   -0.0358640    0.0068325   -0.7645859   -0.1747543   -0.6203783
   0.0023699   -0.0348586    0.0069906   -0.8364198   -0.2607847   -0.4820719
   0.0028477   -0.0368727    0.0066705   -0.6070741   -0.1076722   -0.7873168
   0.0060568   -0.0448575    0.0062044    0.2584111   -0.7591173   -0.5974652
   0.0059503   -0.0446088    0.0059449    0.2185645   -0.6328099   -0.7428198
   0.0061915   -0.0453489    0.0072534    0.3451252   -0.9124986   -0.2196245
   0.0064733   -0.0450140    0.0065880    0.3214947   -0.8499914   -0.4173197
   0.0065034   -0.0452738    0.0073806    0.4376303   -0.8835661   -0.1667055
   0.0065888   -0.0450974    0.0083885    0.5081025   -0.7915519    0.3395254
   0.0063420   -0.0452040    0.0084361    0.3994313   -0.8174746    0.4149576
   0.0068893   -0.0451320    0.0077216    0.6017343   -0.7925856    0.0986095
   0.0061927   -0.0450382    0.0087927    0.3110511   -0.8130931    0.4920639
   0.0057554   -0.0448989    0.0090956    0.1747698   -0.7872964    0.5912867
   0.0063828   -0.0441697    0.0057113    0.1503427   -0.5837445   -0.7978969
   0.0057905   -0.0438568    0.0053628    0.1695897   -0.4734713   -0.8643288
   0.0049507   -0.0430398    0.0048950   -0.0409330   -0.3706286   -0.9278787
   0.0054838   -0.0429990    0.0048839    0.1142935   -0.3661247   -0.9235203
   0.0056777   -0.0425196    0.0047428    0.1229216   -0.2648206   -0.9564311
   0.0056112   -0.0420555    0.0046243    0.1163429   -0.1919874   -0.9744769
   0.0055181   -0.0411000    0.0045032   -0.0016256    0.0072085   -0.9999727
   0.0044868   -0.0404910    0.0047205   -0.3692872    0.3693444   -0.8527671
   0.0038245   -0.0402320    0.0051638   -0.4356862    0.3650789   -0.8227362
   0.0047229   -0.0406460    0.0046060   -0.2504992    0.1744306   -0.9522731
   0.0049799   -0.0406423    0.0045709   -0.1580813    0.0701827   -0.9849288
   0.0060345   -0.0437852    0.0100261    0.2578685   -0.4592935    0.8500313
   0.0060803   -0.0433516    0.0102152    0.1596911   -0.3260046    0.9317831
   0.0063803   -0.0426839    0.0103938    0.0383068   -0.1403647    0.9893585
   0.0061082   -0.0428380    0.0103653    0.0477007   -0.2313858    0.9716919
   0.0059009   -0.0443935    0.0095699    0.2575055   -0.6193254    0.7417054
   0.0063020   -0.0447863    0.0091316    0.3604249   -0.6691612    0.6498594
   0.0059337   -0.0442768    0.0096773    0.3302594   -0.5872450    0.7389669
   0.0060730   -0.0417106    0.0104281    0.8299366   -0.0291692    0.5570947
   0.0063097   -0.0421875    0.0104283   -0.0712566   -0.0736475    0.9947354
   0.0060730   -0.0417106    0.0104281    0.5841287   -0.0358793    0.8108676
   0.0060730   -0.0417106    0.0104281    0.9478738   -0.0251310    0.3176536
   0.0038741   -0.0399279    0.0053439   -0.3569590    0.5226778   -0.7742016
   0.0039893   -0.0394651    0.0057289   -0.2490343    0.2923630   -0.9233124
   0.0042343   -0.0394599    0.0056610   -0.3240559    0.3636753   -0.8733430
   0.0042679   -0.0389250    0.0058310   -0.3458971    0.2284893   -0.9100263
   0.0047397   -0.0374666    0.0058518   -0.2267339   -0.0132239   -0.9738670
   0.0045251   -0.0383994    0.0058716   -0.3244700    0.1211672   -0.9381033
   0.0039805   -0.0369140    0.0060683   -0.3940018   -0.0713385   -0.9163369
   0.0027781   -0.0378771    0.0066304   -0.5339114    0.0658666   -0.8429711
   0.0039884   -0.0394721    0.0057256   -0.2628303    0.5208729   -0.8121648
   0.0039312   -0.0397020    0.0055346   -0.2829580    0.6216120   -0.7304336
   0.0071024   -0.0411429    0.0103731    0.1786692    0.0946550    0.9793456
   0.0063428   -0.0416885    0.0104322    0.0361468    0.0127394    0.9992653
   0.0058704   -0.0387871    0.0102839    0.0966483    0.0590223    0.9935670
   0.0066275   -0.0382451    0.0102181    0.1297982    0.0438747    0.9905692
   0.0062816   -0.0367574    0.0102189    0.1452131    0.0142685    0.9892975
   0.0064711   -0.0352884    0.0102065    0.1921301    0.0807859    0.9780387
   0.0062024   -0.0352064    0.0102209    0.0980510    0.0958861    0.9905513
   0.0056738   -0.0354946    0.0102099   -0.1099564    0.0065071    0.9939151
   0.0045087   -0.0360143    0.0098965   -0.3516094   -0.0100607    0.9360927
   0.0050932   -0.0354244    0.0101059   -0.2568256   -0.0176226    0.9662971
   0.0027321   -0.0359275    0.0087240   -0.7945411   -0.0999050    0.5989353
   0.0032920   -0.0342599    0.0093286   -0.4743270   -0.1035574    0.8742367
   0.0030480   -0.0338241    0.0091510   -0.6271042   -0.1247425    0.7688820
   0.0023460   -0.0335259    0.0085269   -0.7324396   -0.1650409    0.6605253
   0.0049453   -0.0344626    0.0100329   -0.3046046   -0.0511785    0.9511029
   0.0047027   -0.0340002    0.0099744   -0.3080776   -0.0625040    0.9493058
   0.0023370   -0.0357024    0.0076627   -0.9704093   -0.1911557    0.1475305
   0.0022060   -0.0341124    0.0081769   -0.8442138   -0.3030218    0.4421322
   0.0021839   -0.0347508    0.0075428   -0.9252547   -0.3651962    0.1026425
   0.0021516   -0.0343289    0.0072261   -0.8836540   -0.3014680   -0.3581517
   0.0026538   -0.0349127    0.0066459   -0.6697311   -0.2504986   -0.6990785
   0.0032678   -0.0349653    0.0061829   -0.6064506   -0.2148292   -0.7655495
   0.0024669   -0.0344169    0.0067131   -0.7460074   -0.2554696   -0.6149864
   0.0034316   -0.0359432    0.0061799   -0.5152167   -0.1990667   -0.8336211
   0.0066976   -0.0448767    0.0064821    0.4057215   -0.7190511   -0.5642301
   0.0064946   -0.0444771    0.0059781    0.3624315   -0.6047715   -0.7091508
   0.0068776   -0.0450560    0.0069548    0.5052540   -0.8086855   -0.3012410
   0.0068739   -0.0449557    0.0084520    0.5664890   -0.7663951    0.3028675
   0.0067094   -0.0448884    0.0087518    0.4645821   -0.7545311    0.4635152
   0.0073988   -0.0446315    0.0084577    0.6371230   -0.6943789    0.3345329
   0.0072370   -0.0445896    0.0087615    0.5872901   -0.6549758    0.4754967
   0.0077793   -0.0444729    0.0080404    0.6337315   -0.7607779    0.1400045
   0.0074005   -0.0447129    0.0069580    0.6015654   -0.7664933   -0.2249601
   0.0061230   -0.0433806    0.0051574    0.0799667   -0.4758699   -0.8758728
   0.0074535   -0.0437284    0.0057524    0.2952872   -0.5679333   -0.7682820
   0.0062622   -0.0437876    0.0054329    0.0469003   -0.5757441   -0.8162837
   0.0063939   -0.0424268    0.0048889    0.2179016   -0.2976763   -0.9294664
   0.0066306   -0.0409827    0.0046129   -0.0022508   -0.0806892   -0.9967368
   0.0069413   -0.0414428    0.0046613   -0.1173202   -0.2603851   -0.9583504
   0.0070266   -0.0419413    0.0048265    0.0606122   -0.3232230   -0.9443797
   0.0056746   -0.0405782    0.0045618   -0.0374210    0.1712899   -0.9845097
   0.0063391   -0.0406864    0.0045953    0.0290188   -0.0117623   -0.9995097
   0.0052391   -0.0406180    0.0045459   -0.1055505    0.2255265   -0.9685024
   0.0049623   -0.0406339    0.0045751   -0.2178673    0.2728737   -0.9370559
   0.0050155   -0.0402069    0.0047319   -0.2467518    0.4196583   -0.8734990
   0.0049798   -0.0406328    0.0045722   -0.1947345    0.2209842   -0.9556383
   0.0065151   -0.0437203    0.0098730    0.4228907   -0.4282489    0.7986028
   0.0063607   -0.0429739    0.0102989    0.2423309   -0.3237057    0.9145985
   0.0066391   -0.0426685    0.0103655    0.2372587   -0.2730223    0.9322913
   0.0063697   -0.0421802    0.0104359   -0.0055738   -0.0595355    0.9982106
   0.0070641   -0.0444133    0.0090548    0.4504334   -0.5684609    0.6884489
   0.0073516   -0.0441379    0.0091435    0.5371894   -0.5052797    0.6753666
   0.0050668   -0.0399218    0.0049144   -0.3147318    0.5725710   -0.7570379
   0.0044673   -0.0394857    0.0055560   -0.3685130    0.5587934   -0.7429321
   0.0044712   -0.0394607    0.0055704   -0.3919301    0.3587486   -0.8471660
   0.0047083   -0.0394616    0.0054808   -0.3821567    0.3435180   -0.8578762
   0.0047708   -0.0383928    0.0058056   -0.1918700    0.1948521   -0.9618828
   0.0050221   -0.0378883    0.0058265   -0.0963778   -0.0063839   -0.9953244
   0.0049843   -0.0373883    0.0057940   -0.2129659   -0.1253918   -0.9689801
   0.0038534   -0.0354713    0.0059220   -0.3960196   -0.1966918   -0.8969286
   0.0068904   -0.0419116    0.0104229    0.1863212    0.0175832    0.9823315
   0.0073690   -0.0416342    0.0102943    0.4137537    0.0071312    0.9103609
   0.0075811   -0.0411411    0.0102052    0.4148789    0.0144080    0.9097626
   0.0074097   -0.0392190    0.0100050    0.2495575    0.1230134    0.9605148
   0.0069012   -0.0389212    0.0101330    0.2400403    0.0743858    0.9679088
   0.0066417   -0.0421564    0.0104463    0.1342989   -0.0679775    0.9886065
   0.0080705   -0.0377220    0.0098079    0.2678341    0.0688951    0.9609986
   0.0069901   -0.0357681    0.0100814    0.2815961    0.0538464    0.9580210
   0.0073887   -0.0342891    0.0099029    0.2630232    0.1303815    0.9559390
   0.0079332   -0.0352635    0.0097792    0.3893338    0.1264350    0.9123779
   0.0058616   -0.0338498    0.0102176   -0.0178807    0.0426284    0.9989310
   0.0060470   -0.0328683    0.0101083    0.1164195    0.1006065    0.9880915
   0.0054922   -0.0334003    0.0101505   -0.1365601    0.0241504    0.9903374
   0.0032782   -0.0317827    0.0093329   -0.4334137   -0.0396758    0.9003213
   0.0025809   -0.0319443    0.0088735   -0.5733398   -0.1082953    0.8121291
   0.0043438   -0.0334227    0.0098094   -0.3510517   -0.0340134    0.9357381
   0.0039853   -0.0326388    0.0096753   -0.3353116   -0.0229906    0.9418267
   0.0021856   -0.0320580    0.0085096   -0.6667107   -0.1643911    0.7269610
   0.0052354   -0.0329351    0.0101074   -0.1880035    0.0260704    0.9818223
   0.0020896   -0.0342207    0.0077336   -0.9050097   -0.3871564    0.1762596
   0.0019764   -0.0336907    0.0079311   -0.8630874   -0.3802056    0.3324512
   0.0019330   -0.0331604    0.0081037   -0.7831770   -0.2747017    0.5578286
   0.0020861   -0.0331048    0.0082916   -0.6350260   -0.2066036    0.7443500
   0.0020843   -0.0342747    0.0074928   -0.9306140   -0.3536886   -0.0941377
   0.0024243   -0.0339371    0.0066639   -0.7083784   -0.2313049   -0.6668569
   0.0020675   -0.0338495    0.0071807   -0.8884379   -0.3321745   -0.3167619
   0.0020006   -0.0333765    0.0071092   -0.8076777   -0.2958589   -0.5100238
   0.0030915   -0.0344821    0.0061937   -0.4566819   -0.2515970   -0.8533116
   0.0033114   -0.0344956    0.0060540   -0.4663786   -0.2396693   -0.8514984
   0.0032493   -0.0344884    0.0061040   -0.5545597   -0.2252158   -0.8010876
   0.0070101   -0.0448102    0.0066103    0.5251914   -0.6778659   -0.5144627
   0.0076585   -0.0441534    0.0062597    0.4694718   -0.6843011   -0.5579680
   0.0080048   -0.0439104    0.0087452    0.6287060   -0.5456725    0.5540490
   0.0083915   -0.0439738    0.0083128    0.5429444   -0.7364835    0.4034891
   0.0081651   -0.0443674    0.0076308    0.4871667   -0.8519445    0.1919877
   0.0082738   -0.0442632    0.0070677    0.4156780   -0.8884676   -0.1945176
   0.0083159   -0.0442993    0.0073117    0.4599705   -0.8863823   -0.0524736
   0.0077685   -0.0443725    0.0067639    0.4272524   -0.8335853   -0.3501299
   0.0061428   -0.0433776    0.0051605    0.2639937   -0.3997177   -0.8778001
   0.0078857   -0.0440016    0.0061642    0.2191932   -0.7836131   -0.5812958
   0.0070108   -0.0432662    0.0053399    0.1964363   -0.4373587   -0.8775706
   0.0076738   -0.0435551    0.0056413    0.1215711   -0.6506562   -0.7495779
   0.0068454   -0.0424999    0.0049920    0.1468470   -0.3475625   -0.9260865
   0.0068884   -0.0409687    0.0045825   -0.2750816   -0.1774347   -0.9449058
   0.0065944   -0.0404976    0.0045823   -0.1322018    0.0271575   -0.9908507
   0.0073054   -0.0404998    0.0043105   -0.4903062   -0.1338618   -0.8612089
   0.0072339   -0.0416330    0.0046970   -0.2224344   -0.3785986   -0.8984353
   0.0073567   -0.0409744    0.0043850   -0.3432387   -0.3304560   -0.8791963
   0.0072081   -0.0429202    0.0051895    0.0170827   -0.4565533   -0.8895320
   0.0072733   -0.0418861    0.0047706   -0.2193099   -0.4040760   -0.8880460
   0.0060611   -0.0403029    0.0046263   -0.1013531    0.2659379   -0.9586473
   0.0052975   -0.0400640    0.0047862   -0.1570799    0.4276461   -0.8901937
   0.0070812   -0.0430116    0.0100477    0.4756749   -0.3871113    0.7898596
   0.0078577   -0.0436316    0.0091235    0.5880107   -0.4109931    0.6966549
   0.0068876   -0.0426647    0.0103073    0.3794982   -0.3343831    0.8626523
   0.0068878   -0.0426611    0.0103085    0.3433136   -0.1932352    0.9191278
   0.0053630   -0.0396985    0.0050199   -0.2862910    0.5433047   -0.7892132
   0.0047052   -0.0394798    0.0054696   -0.3706467    0.5659648   -0.7364135
   0.0049476   -0.0394607    0.0053964   -0.3204028    0.4861366   -0.8130272
   0.0055554   -0.0384333    0.0057327   -0.1281054    0.3314162   -0.9347472
   0.0055770   -0.0388795    0.0055528   -0.2031255    0.4144480   -0.8871149
   0.0055608   -0.0383387    0.0057610   -0.0765223    0.1495553   -0.9857878
   0.0055494   -0.0378342    0.0058006   -0.0109678   -0.0308368   -0.9994643
   0.0054036   -0.0364049    0.0056010   -0.1227229   -0.1763524   -0.9766468
   0.0045627   -0.0354740    0.0056457   -0.2811829   -0.2066077   -0.9371497
   0.0035316   -0.0345075    0.0059151   -0.4448131   -0.2207331   -0.8679967
   0.0071421   -0.0421386    0.0103413    0.4064981   -0.1049423    0.9076048
   0.0075879   -0.0417350    0.0101402    0.6017362   -0.0974531    0.7927272
   0.0078067   -0.0415366    0.0100265    0.5371650   -0.1262526    0.8339748
   0.0082709   -0.0414126    0.0098370    0.4205257   -0.2178311    0.8807427
   0.0085301   -0.0411430    0.0098458    0.2812366   -0.1863265    0.9413758
   0.0080244   -0.0406528    0.0100092    0.2547503    0.0690929    0.9645354
   0.0079531   -0.0396811    0.0099498    0.1711118    0.0833810    0.9817170
   0.0083675   -0.0384697    0.0097778    0.2878825    0.1143256    0.9508172
   0.0087102   -0.0363778    0.0095314    0.4132419    0.1191244    0.9027959
   0.0074470   -0.0318617    0.0096648    0.3523933    0.1459790    0.9243966
   0.0078731   -0.0344210    0.0097324    0.3965783    0.1425076    0.9068722
   0.0089608   -0.0357731    0.0093328    0.4752234    0.1824091    0.8607495
   0.0091319   -0.0343452    0.0090138    0.5469663    0.2033720    0.8120762
   0.0085566   -0.0333392    0.0092921    0.5212725    0.1822102    0.8337112
   0.0051947   -0.0324531    0.0100634   -0.1416902    0.0619708    0.9879694
   0.0060062   -0.0323829    0.0100808    0.1316293    0.0987610    0.9863671
   0.0031381   -0.0298380    0.0092225   -0.4108908   -0.0302124    0.9111838
   0.0035396   -0.0310332    0.0094167   -0.3554619   -0.0022372    0.9346881
   0.0042239   -0.0316155    0.0097352   -0.3148051    0.0131471    0.9490653
   0.0028041   -0.0303979    0.0090609   -0.5282319   -0.0694430    0.8462557
   0.0020723   -0.0310924    0.0084390   -0.6697023   -0.1156088    0.7335758
   0.0047780   -0.0320272    0.0099075   -0.2183108    0.0353879    0.9752374
   0.0018327   -0.0326844    0.0080542   -0.7686468   -0.1924605    0.6100336
   0.0019639   -0.0337986    0.0074505   -0.9183675   -0.3709444   -0.1378453
   0.0019526   -0.0337446    0.0076971   -0.9090054   -0.4067830    0.0907564
   0.0018313   -0.0332139    0.0078980   -0.8825331   -0.3316921    0.3333401
   0.0031790   -0.0330555    0.0058922   -0.5240747   -0.2440951   -0.8159432
   0.0030486   -0.0340020    0.0061430   -0.5574969   -0.2195255   -0.8006283
   0.0026658   -0.0330065    0.0062993   -0.6720459   -0.2556148   -0.6949931
   0.0018530   -0.0333233    0.0074046   -0.8847302   -0.3869891   -0.2597920
   0.0017179   -0.0323968    0.0071673   -0.7721906   -0.3629811   -0.5215039
   0.0019138   -0.0323917    0.0069634   -0.6948647   -0.3554482   -0.6251557
   0.0032711   -0.0340120    0.0060106    0.7556793   -0.1654017   -0.6337121
   0.0032711   -0.0340120    0.0060106    0.7523237   -0.1699304   -0.6365003
   0.0032711   -0.0340120    0.0060106    0.4791347   -0.2270656   -0.8478627
   0.0034853   -0.0340299    0.0058551   -0.4883140   -0.2064851   -0.8478876
   0.0081343   -0.0432197    0.0092016    0.5332322   -0.4354956    0.7252634
   0.0084369   -0.0438727    0.0084534    0.4507475   -0.6665858    0.5937087
   0.0088422   -0.0439556    0.0080706    0.3616531   -0.7842731    0.5041059
   0.0090819   -0.0439646    0.0079862    0.3125321   -0.8388396    0.4457262
   0.0083941   -0.0442726    0.0075316    0.4256186   -0.8998838    0.0951728
   0.0087822   -0.0441883    0.0071249    0.2215128   -0.9748538   -0.0243345
   0.0085362   -0.0441542    0.0064495    0.1842232   -0.9567051   -0.2253380
   0.0081521   -0.0442767    0.0068617    0.3773477   -0.9231456   -0.0735593
   0.0086250   -0.0441990    0.0074351    0.3030123   -0.9436119    0.1333423
   0.0083473   -0.0438880    0.0059645   -0.0329530   -0.8366615   -0.5467281
   0.0080207   -0.0430666    0.0051774   -0.1182889   -0.6631302   -0.7390981
   0.0070817   -0.0404906    0.0044395   -0.4187364   -0.0411215   -0.9071763
   0.0068454   -0.0401822    0.0045752   -0.3363018    0.0286434   -0.9413186
   0.0064052   -0.0399929    0.0046985   -0.2302571    0.2280706   -0.9460261
   0.0070705   -0.0399864    0.0044806   -0.4636758    0.0865938   -0.8817632
   0.0077428   -0.0395048    0.0041704   -0.5978838    0.2017730   -0.7757722
   0.0081819   -0.0405550    0.0037436   -0.4858621   -0.2279992   -0.8437739
   0.0077764   -0.0407339    0.0040881   -0.4576498   -0.3698193   -0.8085730
   0.0077436   -0.0404202    0.0040426   -0.6184058   -0.0112053   -0.7857791
   0.0077214   -0.0417313    0.0045398   -0.4122661   -0.4434797   -0.7958407
   0.0079400   -0.0427713    0.0049963   -0.2856144   -0.5310177   -0.7977748
   0.0080651   -0.0423406    0.0046578   -0.3669927   -0.5068169   -0.7800340
   0.0077204   -0.0430483    0.0095725    0.5719215   -0.2718416    0.7739561
   0.0071208   -0.0426162    0.0102142    0.5460919   -0.2301241    0.8054977
   0.0068647   -0.0395859    0.0047137   -0.3670488    0.4446705   -0.8170332
   0.0064378   -0.0392975    0.0050666   -0.3118735    0.5356953   -0.7847072
   0.0063051   -0.0387566    0.0055220   -0.2246043    0.4555353   -0.8614177
   0.0058318   -0.0383137    0.0057676   -0.0305655    0.2918013   -0.9559904
   0.0058309   -0.0380049    0.0058097    0.0037776    0.0725859   -0.9973550
   0.0058220   -0.0378090    0.0058127   -0.0774373   -0.0684564   -0.9946443
   0.0057693   -0.0373370    0.0057342    0.0542466   -0.1578876   -0.9859659
   0.0056595   -0.0363927    0.0055654    0.0661269   -0.1638700   -0.9842631
   0.0055535   -0.0354464    0.0054072   -0.1966033   -0.2112349   -0.9574586
   0.0059478   -0.0345126    0.0051388   -0.1968662   -0.2473109   -0.9487260
   0.0053259   -0.0335636    0.0050453   -0.2180345   -0.2468249   -0.9442131
   0.0049729   -0.0326242    0.0049490   -0.3476408   -0.2335646   -0.9080713
   0.0084515   -0.0424112    0.0094480    0.2931953   -0.3446824    0.8917570
   0.0087878   -0.0410101    0.0098320    0.1206933   -0.1468203    0.9817723
   0.0087586   -0.0416623    0.0096586    0.1635361   -0.2599560    0.9516716
   0.0090557   -0.0405958    0.0098861    0.0909555    0.0058788    0.9958376
   0.0089920   -0.0391614    0.0096785    0.2288557    0.1710188    0.9583202
   0.0095983   -0.0362867    0.0090169    0.4824486    0.2119654    0.8498906
   0.0093371   -0.0357927    0.0091111    0.5437885    0.1969413    0.8157868
   0.0068106   -0.0313835    0.0098195    0.2524289    0.1222592    0.9598606
   0.0085911   -0.0328639    0.0091937    0.5323453    0.2025913    0.8219278
   0.0070542   -0.0299264    0.0095993    0.3186570    0.1655241    0.9333057
   0.0093245   -0.0334158    0.0086686    0.7246266    0.2646847    0.6362847
   0.0056170   -0.0314400    0.0100059   -0.1047451    0.0858461    0.9907870
   0.0063911   -0.0309140    0.0098626    0.1911449    0.1426553    0.9711401
   0.0058414   -0.0304554    0.0098993    0.1045107    0.1296550    0.9860361
   0.0025188   -0.0299761    0.0088351   -0.5733720   -0.0544268    0.8174853
   0.0041568   -0.0306542    0.0096310   -0.3030991    0.0071839    0.9529320
   0.0044044   -0.0301227    0.0097013   -0.2388207    0.0251912    0.9707369
   0.0037246   -0.0292463    0.0094378   -0.2876393    0.0127042    0.9576546
   0.0033722   -0.0286308    0.0092966   -0.4101728   -0.0188779    0.9118124
   0.0020071   -0.0281266    0.0084338   -0.5878691   -0.0943236    0.8034382
   0.0050232   -0.0305311    0.0098633   -0.2018672    0.0399892    0.9785962
   0.0016647   -0.0317320    0.0079432   -0.7472891   -0.1721221    0.6418200
   0.0016723   -0.0297180    0.0080833   -0.7110991   -0.1368287    0.6896492
   0.0053461   -0.0309812    0.0099460   -0.0533651    0.0835462    0.9950740
   0.0016232   -0.0322628    0.0078010   -0.8880987   -0.2669130    0.3742167
   0.0017921   -0.0332681    0.0076694   -0.9220929   -0.3859778    0.0276734
   0.0015989   -0.0323167    0.0075671   -0.9426796   -0.3302645    0.0477544
   0.0032248   -0.0335346    0.0059512   -0.2584277   -0.2477056   -0.9337329
   0.0032988   -0.0321187    0.0056117   -0.5390271   -0.2592717   -0.8013913
   0.0039738   -0.0321468    0.0052372   -0.4110037   -0.2721603   -0.8700602
   0.0032781   -0.0335358    0.0059222   -0.4823219   -0.2038592   -0.8519431
   0.0025733   -0.0315794    0.0060750   -0.5484838   -0.3035467   -0.7791180
   0.0017085   -0.0319493    0.0069567   -0.6498212   -0.4169634   -0.6355107
   0.0024012   -0.0315674    0.0061913   -0.5389139   -0.3821590   -0.7506839
   0.0022937   -0.0322307    0.0065451   -0.6420899   -0.3137285   -0.6994963
   0.0017297   -0.0328468    0.0073632   -0.8995850   -0.3554380   -0.2537926
   0.0016443   -0.0319377    0.0070285   -0.8085627   -0.4371416   -0.3938701
   0.0016431   -0.0323704    0.0073089   -0.9066729   -0.3388945   -0.2511867
   0.0088476   -0.0431876    0.0089406    0.3007256   -0.5596498    0.7722410
   0.0089717   -0.0436459    0.0084730    0.2936782   -0.7234098    0.6248451
   0.0093229   -0.0439883    0.0079041    0.2687404   -0.8760507    0.4003921
   0.0094195   -0.0441777    0.0073982    0.2364903   -0.9535789    0.1864395
   0.0091815   -0.0442160    0.0067341    0.0873803   -0.9961499    0.0070715
   0.0093389   -0.0442113    0.0064236    0.0193022   -0.9765406   -0.2144667
   0.0095635   -0.0440059    0.0078210    0.2859098   -0.8320748    0.4752969
   0.0093094   -0.0439557    0.0056319   -0.1518666   -0.9022002   -0.4036971
   0.0086651   -0.0432123    0.0049718   -0.2897539   -0.7136339   -0.6377848
   0.0070984   -0.0395417    0.0046210   -0.5580682    0.3238124   -0.7640062
   0.0079359   -0.0399699    0.0038927   -0.6064325   -0.0001365   -0.7951350
   0.0082563   -0.0389651    0.0041755   -0.5713330    0.4621003   -0.6782639
   0.0086483   -0.0391506    0.0037418   -0.5160696    0.3913387   -0.7619227
   0.0077789   -0.0391921    0.0043146   -0.5681259    0.4556799   -0.6852655
   0.0083806   -0.0396493    0.0036760   -0.5249311    0.1817961   -0.8315031
   0.0080677   -0.0412446    0.0040752   -0.5104223   -0.3891978   -0.7668078
   0.0086032   -0.0400825    0.0034841   -0.4209791   -0.0208928   -0.9068297
   0.0093563   -0.0405662    0.0032609   -0.2767976   -0.1756736   -0.9447338
   0.0085417   -0.0414889    0.0038592   -0.4195305   -0.4181668   -0.8056865
   0.0091660   -0.0410432    0.0034123   -0.3406807   -0.2869560   -0.8953172
   0.0084906   -0.0422473    0.0043564   -0.4129097   -0.5284441   -0.7417900
   0.0086338   -0.0419348    0.0040510   -0.4520883   -0.5362275   -0.7127947
   0.0088402   -0.0428084    0.0044978   -0.4051040   -0.5785505   -0.7079336
   0.0083841   -0.0427491    0.0047366   -0.4022483   -0.4938095   -0.7709400
   0.0087204   -0.0423680    0.0042955   -0.4581053   -0.5470496   -0.7006256
   0.0067846   -0.0387767    0.0053536   -0.4604547    0.4224090   -0.7807382
   0.0063471   -0.0383826    0.0056919   -0.3290330    0.3071587   -0.8929674
   0.0061030   -0.0383272    0.0057701   -0.1861295    0.3427006   -0.9208214
   0.0060407   -0.0382927    0.0057861   -0.0822157    0.1667851   -0.9825596
   0.0063308   -0.0377855    0.0057313   -0.2283433   -0.1527232   -0.9615274
   0.0061048   -0.0382887    0.0057801   -0.2001665    0.0735430   -0.9769978
   0.0056900   -0.0366373    0.0056142    0.2107088   -0.1297746   -0.9688965
   0.0059091   -0.0363844    0.0055112   -0.2059471   -0.2360975   -0.9496546
   0.0065882   -0.0358975    0.0052206   -0.2637017   -0.2214098   -0.9388499
   0.0060025   -0.0349537    0.0052271   -0.2122744   -0.2221289   -0.9516293
   0.0063773   -0.0340036    0.0049072   -0.0780023   -0.2081912   -0.9749728
   0.0057659   -0.0330778    0.0048394   -0.1778667   -0.2210024   -0.9589168
   0.0054062   -0.0321437    0.0047236   -0.2321013   -0.2305278   -0.9449793
   0.0048156   -0.0312029    0.0047154   -0.2995810   -0.2423710   -0.9227716
   0.0092412   -0.0423413    0.0094041    0.1719347   -0.3647469    0.9150946
   0.0091483   -0.0430108    0.0090524    0.2008662   -0.5619473    0.8024139
   0.0089251   -0.0416518    0.0096455    0.1219698   -0.2784821    0.9526653
   0.0090598   -0.0411049    0.0098252    0.0910658   -0.1800482    0.9794333
   0.0095725   -0.0405664    0.0098277    0.2218362    0.0925363    0.9706831
   0.0101773   -0.0396223    0.0093980    0.4722277    0.2098895    0.8561235
   0.0099009   -0.0391388    0.0094480    0.3093325    0.1955525    0.9306302
   0.0099755   -0.0377214    0.0091102    0.4797341    0.2772094    0.8324723
   0.0096469   -0.0353507    0.0087576    0.6658201    0.2851418    0.6894764
   0.0087877   -0.0319242    0.0088877    0.6378760    0.2532569    0.7273068
   0.0078174   -0.0304293    0.0092863    0.5268497    0.2411937    0.8150184
   0.0063831   -0.0304324    0.0098015    0.1885341    0.1512352    0.9703519
   0.0067642   -0.0294534    0.0096109    0.2032809    0.1551138    0.9667557
   0.0069223   -0.0284869    0.0094397    0.4223596    0.2136700    0.8808845
   0.0097993   -0.0344397    0.0083440    0.7530438    0.2799763    0.5954311
   0.0097950   -0.0339752    0.0082050    0.7943824    0.3272816    0.5117063
   0.0097280   -0.0323925    0.0076918    0.8447737    0.2774371    0.4575872
   0.0095162   -0.0320706    0.0079624    0.8365664    0.2650917    0.4794613
   0.0093258   -0.0320169    0.0082736    0.7911358    0.2652469    0.5511336
   0.0100706   -0.0336080    0.0075345    0.8650280    0.3339889    0.3744035
   0.0055622   -0.0309649    0.0099396   -0.1426406    0.0806417    0.9864839
   0.0055765   -0.0304745    0.0099097   -0.1345692    0.0629597    0.9889020
   0.0052644   -0.0300173    0.0098578   -0.0768678    0.0795638    0.9938616
   0.0054162   -0.0285434    0.0097406   -0.0518016    0.1266045    0.9905998
   0.0056488   -0.0282763    0.0096770    0.1044989    0.1476291    0.9835068
   0.0044765   -0.0281639    0.0095731   -0.1392718    0.0948236    0.9857037
   0.0043589   -0.0262340    0.0093832   -0.1844362    0.0710366    0.9802740
   0.0033480   -0.0283230    0.0092727   -0.3541481   -0.0016948    0.9351878
   0.0009562   -0.0284538    0.0073557   -0.8056564   -0.1594356    0.5705244
   0.0025869   -0.0269957    0.0088491   -0.4777509   -0.0654538    0.8760536
   0.0017211   -0.0266980    0.0082794   -0.6273788   -0.1020428    0.7719994
   0.0015272   -0.0277597    0.0080352   -0.6945838   -0.1410404    0.7054509
   0.0014500   -0.0313099    0.0076921   -0.8624799   -0.2453812    0.4426245
   0.0014746   -0.0307791    0.0078404   -0.7890097   -0.1780876    0.5880038
   0.0010891   -0.0299360    0.0073224   -0.8498454   -0.2369247    0.4707754
   0.0009793   -0.0294608    0.0072759   -0.8243388   -0.2373423    0.5139398
   0.0054555   -0.0304882    0.0098924   -0.0439420    0.0678155    0.9967297
   0.0014969   -0.0318406    0.0075183   -0.9348829   -0.3544433    0.0190784
   0.0029141   -0.0305545    0.0055162   -0.4647627   -0.2792235   -0.8402558
   0.0039837   -0.0302653    0.0047866   -0.4033651   -0.2837842   -0.8699213
   0.0021736   -0.0301976    0.0057568   -0.2933891   -0.4838382   -0.8245140
   0.0015459   -0.0314979    0.0068198   -0.6616398   -0.5575661   -0.5013510
   0.0020491   -0.0319898    0.0066498   -0.5575019   -0.4675176   -0.6860167
   0.0019581   -0.0315429    0.0064603   -0.4369644   -0.5570836   -0.7062011
   0.0020898   -0.0310361    0.0061511   -0.3234855   -0.4389684   -0.8382505
   0.0014718   -0.0314723    0.0069565   -0.8579941   -0.4697087   -0.2078939
   0.0094361   -0.0432955    0.0087484    0.3071997   -0.6993333    0.6454156
   0.0097502   -0.0439878    0.0077508    0.3664581   -0.8274944    0.4253957
   0.0099636   -0.0440419    0.0074310    0.3700626   -0.8850200    0.2824771
   0.0094719   -0.0442264    0.0067901    0.1800448   -0.9799280    0.0855861
   0.0101271   -0.0440946    0.0071294    0.3386662   -0.9178071    0.2072083
   0.0098998   -0.0442365    0.0064796    0.2265979   -0.9722383    0.0583620
   0.0102103   -0.0441851    0.0058539    0.1446887   -0.9793814   -0.1409868
   0.0095618   -0.0439941    0.0055795   -0.0736735   -0.9587275   -0.2746158
   0.0095505   -0.0439815    0.0055495   -0.1351852   -0.8635425   -0.4858182
   0.0092495   -0.0434119    0.0047979   -0.2621823   -0.7784166   -0.5703753
   0.0096981   -0.0438817    0.0052262   -0.1102633   -0.8696329   -0.4812282
   0.0096521   -0.0432493    0.0044429   -0.1678535   -0.7210313   -0.6722641
   0.0093537   -0.0390330    0.0034723   -0.3901297    0.3336636   -0.8581768
   0.0080305   -0.0389279    0.0044286   -0.5759045    0.5011857   -0.6458691
   0.0083450   -0.0384893    0.0044891   -0.5864107    0.3298887   -0.7397945
   0.0091606   -0.0387037    0.0037305   -0.4929799    0.4356014   -0.7531416
   0.0090819   -0.0395067    0.0033985   -0.3733445    0.1804271   -0.9099780
   0.0095738   -0.0400684    0.0031870   -0.1513179    0.0373868   -0.9877779
   0.0094702   -0.0415065    0.0034414   -0.2058870   -0.3381046   -0.9183114
   0.0098576   -0.0405470    0.0031574   -0.0561720   -0.1364064   -0.9890591
   0.0093525   -0.0421298    0.0037731   -0.2978284   -0.4982401   -0.8142819
   0.0089995   -0.0425531    0.0042286   -0.3514185   -0.5643812   -0.7469798
   0.0097592   -0.0428323    0.0040522   -0.1880620   -0.5769429   -0.7948393
   0.0068236   -0.0383732    0.0055194   -0.4486892    0.2499426   -0.8580249
   0.0070558   -0.0383059    0.0054244   -0.5291731    0.1405332   -0.8367952
   0.0065941   -0.0382798    0.0056439   -0.3877804    0.1284091   -0.9127636
   0.0072442   -0.0386062    0.0051577   -0.5588406    0.3185099   -0.7656688
   0.0063519   -0.0382817    0.0057192   -0.3066736    0.0911613   -0.9474391
   0.0065711   -0.0377838    0.0056507   -0.3462647   -0.1333949   -0.9286046
   0.0072371   -0.0349216    0.0049169   -0.1684114   -0.1852850   -0.9681462
   0.0072265   -0.0373152    0.0052927   -0.3535585   -0.1766882   -0.9185737
   0.0068051   -0.0377874    0.0055511   -0.4131606   -0.1327462   -0.9009311
   0.0075343   -0.0353898    0.0049260   -0.2399926   -0.1491279   -0.9592520
   0.0074422   -0.0344333    0.0048075   -0.0759087   -0.1796412   -0.9807991
   0.0067702   -0.0330397    0.0046392   -0.0897094   -0.1527195   -0.9841895
   0.0063153   -0.0334423    0.0048150    0.2178455   -0.1196423   -0.9686222
   0.0062691   -0.0330589    0.0047427    0.0422455   -0.1479406   -0.9880936
   0.0064733   -0.0325718    0.0046310   -0.0915006   -0.1590243   -0.9830254
   0.0061037   -0.0316437    0.0044866   -0.1163752   -0.1946256   -0.9739495
   0.0051916   -0.0302522    0.0043999   -0.0839050   -0.1963366   -0.9769401
   0.0102236   -0.0426101    0.0090997    0.3481585   -0.4549294    0.8196493
   0.0097783   -0.0421419    0.0094273    0.1820624   -0.3449262    0.9208036
   0.0098788   -0.0431498    0.0088153    0.2904250   -0.6482231    0.7038893
   0.0097037   -0.0410657    0.0097651    0.2544639   -0.1186966    0.9597704
   0.0100713   -0.0415727    0.0095723    0.3303124   -0.1668494    0.9290075
   0.0098126   -0.0405645    0.0097465    0.4152915    0.1266761    0.9008253
   0.0100916   -0.0386601    0.0092973    0.4743890    0.2513039    0.8436833
   0.0102893   -0.0410754    0.0095000    0.5924715    0.1059357    0.7985958
   0.0106351   -0.0401461    0.0090968    0.6999694    0.2089247    0.6829299
   0.0104547   -0.0382310    0.0088710    0.7391785    0.2773594    0.6137483
   0.0103570   -0.0368326    0.0085164    0.7336302    0.3327537    0.5925046
   0.0099225   -0.0349271    0.0083306    0.7766271    0.3218468    0.5415395
   0.0088077   -0.0300349    0.0084662    0.7364793    0.2724839    0.6191533
   0.0080462   -0.0285353    0.0088120    0.6113913    0.2701082    0.7438025
   0.0066386   -0.0280082    0.0094689    0.2822976    0.1742286    0.9433729
   0.0078193   -0.0280489    0.0088569    0.5651269    0.2779237    0.7767818
   0.0077378   -0.0275730    0.0088005    0.5706526    0.2657772    0.7769930
   0.0076897   -0.0270968    0.0087323    0.6769265    0.2615141    0.6880268
   0.0074201   -0.0265970    0.0088478    0.4950065    0.2511192    0.8318099
   0.0100940   -0.0340598    0.0077215    0.8279694    0.3260902    0.4562146
   0.0096616   -0.0316486    0.0075819    0.8609171    0.2733461    0.4290730
   0.0098499   -0.0321789    0.0073572    0.9256539    0.2756476    0.2591974
   0.0091485   -0.0301136    0.0079943    0.8309197    0.2849594    0.4778813
   0.0104715   -0.0357608    0.0077779    0.8516635    0.3432528    0.3960390
   0.0102403   -0.0341251    0.0073702    0.8479108    0.3548819    0.3938352
   0.0101722   -0.0336618    0.0072555    0.7679374    0.3593638    0.5302168
   0.0101088   -0.0331970    0.0071386    0.8571745    0.3469394    0.3806375
   0.0055321   -0.0275768    0.0095935    0.0088058    0.1085589    0.9940510
   0.0060586   -0.0270602    0.0094916    0.2184461    0.1780579    0.9594669
