NORM_ASCII
1616 3228
   0.0058551   -0.0003658   -0.0014276    0.9484896   -0.2091206    0.2379834
   0.0050189   -0.0026956   -0.0024065    0.8848517   -0.4535804   -0.1063122
   0.0052541   -0.0023384   -0.0021933    0.9520306   -0.3042419   -0.0327806
   0.0049224    0.0018597    0.0023173    0.7832561   -0.4999774    0.3695031
   0.0049152    0.0026216    0.0039450    0.8425626   -0.4924551    0.2181199
   0.0054204    0.0018087    0.0014213    0.8412108   -0.3466064    0.4150041
  -0.0014392    0.0024677    0.0055944   -0.5949077    0.0448235    0.8025433
  -0.0007854    0.0020528    0.0060076   -0.4207125   -0.1376722    0.8966869
  -0.0005919    0.0025812    0.0061059   -0.4919354    0.0417813    0.8696286
   0.0005408    0.0018520    0.0065106   -0.0873247   -0.2589683    0.9619303
   0.0001031    0.0021810    0.0064484   -0.2954515   -0.1163489    0.9482465
  -0.0003445    0.0021161    0.0062345   -0.4062055   -0.0856901    0.9097551
   0.0038751    0.0022372    0.0057266    0.6489741   -0.6543870    0.3880853
   0.0047310    0.0026728    0.0050258    0.8179414   -0.5646279    0.1103052
   0.0045081    0.0025419    0.0054562    0.7126522   -0.6429546    0.2805998
   0.0040277    0.0023593    0.0057245    0.6154105   -0.6685064    0.4175751
   0.0046684    0.0025289    0.0043696    0.8028414   -0.5754874    0.1557560
   0.0027939    0.0013823    0.0053830    0.5041758   -0.7172088    0.4810596
   0.0018425    0.0016886    0.0063596    0.2927500   -0.5494607    0.7825538
   0.0020356    0.0015812    0.0062075    0.3830510   -0.6141858    0.6899621
   0.0015629    0.0018949    0.0065324    0.1921198   -0.3334560    0.9229827
   0.0016697    0.0028285    0.0067902    0.0998772   -0.2131122    0.9719093
  -0.0041148    0.0010012   -0.0034811   -0.8020491    0.5025339   -0.3227645
  -0.0034256    0.0017246   -0.0033587   -0.7589867    0.5077578   -0.4075796
  -0.0037345    0.0016146   -0.0028345   -0.8670285    0.4711048   -0.1622400
  -0.0032217    0.0023353   -0.0029714   -0.8418841    0.3636888   -0.3986999
  -0.0037728    0.0019688   -0.0013101   -0.9985820    0.0007377   -0.0532297
  -0.0037721    0.0016808   -0.0010750   -0.9644549   -0.2002005    0.1724717
  -0.0035142    0.0027319   -0.0015878   -0.9773567    0.1993209   -0.0710284
  -0.0032132    0.0029821   -0.0022421   -0.9225097    0.2506408   -0.2935216
  -0.0015197    0.0027153    0.0054555   -0.6709425    0.2151793    0.7096014
  -0.0031896    0.0024326    0.0000389   -0.8772409   -0.0807667    0.4732072
  -0.0035035    0.0024682   -0.0004579   -0.9226756   -0.0088247    0.3854762
  -0.0037602    0.0020602   -0.0009888   -0.9832706    0.0099177    0.1818804
  -0.0032318    0.0031516    0.0002636   -0.9287677   -0.1857897    0.3207377
  -0.0032839    0.0026757   -0.0000754   -0.8515468   -0.2381593    0.4670633
  -0.0032537    0.0032906    0.0001555   -0.9768280   -0.0378393    0.2106545
  -0.0030806    0.0039432    0.0001598   -0.9474085    0.2329119    0.2194750
  -0.0027492    0.0043393    0.0006713   -0.8652881    0.2824224    0.4141426
  -0.0024647    0.0046251    0.0008987   -0.8057953    0.3137396    0.5022562
  -0.0020436    0.0053197    0.0009308   -0.7628904    0.3785349    0.5241275
  -0.0006735    0.0059984    0.0019459   -0.7822656    0.4384899    0.4424784
  -0.0012199    0.0049171    0.0028713   -0.8237150    0.5163723    0.2342077
  -0.0012125    0.0048111    0.0031482   -0.7761249    0.4721939    0.4179271
  -0.0012792    0.0047648    0.0030996   -0.7950745    0.4033120    0.4529856
  -0.0009167    0.0039333    0.0052022   -0.6234318    0.4609921    0.6315213
  -0.0013374    0.0031931    0.0053891   -0.6604358    0.2918738    0.6918340
  -0.0012469    0.0032739    0.0054200   -0.6171550    0.3752473    0.6915990
  -0.0007380    0.0047516    0.0041526   -0.7131471    0.5849790    0.3862912
  -0.0005259    0.0044524    0.0050448   -0.6613784    0.5911133    0.4616966
  -0.0032261    0.0034917    0.0002137   -0.9805206    0.0745595    0.1817147
   0.0010693    0.0007354   -0.0040179   -0.0649503    0.5416789   -0.8380724
   0.0012426    0.0011767   -0.0038062   -0.2728861    0.1984833   -0.9413488
   0.0009039    0.0016087   -0.0037777   -0.0224269    0.0896087   -0.9957245
   0.0010477    0.0013835   -0.0037480   -0.1198684    0.0158307   -0.9926636
   0.0011174    0.0021278   -0.0036989   -0.4462231    0.1886764   -0.8748063
   0.0013943    0.0027165   -0.0037078   -0.4296974   -0.0346858   -0.9023065
   0.0016740    0.0029179   -0.0037954   -0.2615864    0.0674406   -0.9628210
   0.0024233    0.0027778   -0.0039726   -0.1697551    0.1404732   -0.9754232
   0.0018316    0.0030432   -0.0038008    0.0145645    0.2055272   -0.9785430
   0.0020622    0.0028614   -0.0038731   -0.1767564    0.2529130   -0.9512057
   0.0030263    0.0025488   -0.0040367   -0.0463721    0.1067282   -0.9932063
   0.0031943    0.0023317   -0.0040492    0.0636222    0.1239284   -0.9902495
   0.0028928    0.0028030   -0.0039853   -0.1245918    0.1492390   -0.9809203
   0.0035694    0.0019334   -0.0040627    0.0944257    0.1118616   -0.9892274
   0.0042035    0.0017696   -0.0039681    0.3028317    0.0739073   -0.9501740
   0.0051529   -0.0001063   -0.0033872    0.6277591    0.0393935   -0.7774102
   0.0048215    0.0006055   -0.0036478    0.5258256    0.0495509   -0.8491479
   0.0053248   -0.0017172   -0.0029058    0.8531593   -0.1865664   -0.4871470
   0.0054743   -0.0009769   -0.0029581    0.8471539   -0.0367123   -0.5300778
   0.0007157    0.0010816   -0.0038866    0.4009234    0.3588648   -0.8428977
   0.0005848    0.0013125   -0.0039368    0.4646076    0.3047564   -0.8314225
   0.0009034    0.0008731   -0.0039309    0.1199613    0.5082299   -0.8528257
   0.0000465    0.0015194   -0.0041622    0.1261633    0.5091916   -0.8513558
   0.0003749    0.0016083   -0.0039501    0.2034809    0.5019648   -0.8406110
   0.0004407    0.0015376   -0.0039658    0.3460263    0.3969942   -0.8500949
  -0.0033082    0.0018007   -0.0034285   -0.7264613    0.4385031   -0.5291210
  -0.0026564    0.0035586   -0.0026809   -0.7085560    0.3312484   -0.6230753
  -0.0010285    0.0035382   -0.0037852   -0.4970679    0.1250920   -0.8586475
  -0.0019436    0.0055945   -0.0021276   -0.8019450    0.3569957   -0.4789972
  -0.0016234    0.0050166   -0.0029436   -0.7166599    0.2755502   -0.6406799
  -0.0012229    0.0049002   -0.0032939   -0.5417458    0.2320349   -0.8078808
  -0.0010195    0.0033684   -0.0038154   -0.4697134    0.1048567   -0.8765697
  -0.0013064    0.0029707   -0.0037726   -0.3455319    0.1130269   -0.9315753
  -0.0011698    0.0027139   -0.0038449   -0.0970882    0.0928634   -0.9909340
  -0.0007216    0.0021515   -0.0038936    0.0882617    0.3532622   -0.9313515
  -0.0010007    0.0024971   -0.0038598    0.0767687    0.2109658   -0.9744742
   0.0000675    0.0019563   -0.0038791    0.1449214    0.4057426   -0.9024249
  -0.0006782    0.0024200   -0.0038121    0.0312761    0.1235042   -0.9918511
  -0.0004751    0.0025919   -0.0037772    0.1008987    0.0086703   -0.9948589
  -0.0003141    0.0023719   -0.0037785    0.1008708    0.2486034   -0.9633387
   0.0052982   -0.0021639   -0.0024256    0.9455101   -0.2857159   -0.1561314
   0.0052897   -0.0021811   -0.0023976    0.9523443   -0.2922013   -0.0875145
   0.0056513    0.0004547   -0.0001981    0.8244894   -0.3401084    0.4522647
   0.0056518    0.0008552    0.0001805    0.7955652   -0.3595880    0.4876192
   0.0056716    0.0009119    0.0002039    0.8564786   -0.2841017    0.4309647
   0.0054822    0.0012117    0.0007440    0.8326549   -0.2835759    0.4756790
   0.0055460    0.0018494    0.0012094    0.8883840   -0.2534274    0.3828164
   0.0055319   -0.0015613   -0.0024567    0.9561709   -0.1505879   -0.2511185
   0.0056915   -0.0008360   -0.0025059    0.9643113   -0.0303640   -0.2630244
   0.0058532   -0.0005217   -0.0017558    0.9958340   -0.0867840   -0.0279840
   0.0061072    0.0005867   -0.0009421    0.9333655   -0.2518128    0.2557719
   0.0060036    0.0001328   -0.0012363    0.9719470   -0.2026251    0.1194243
   0.0061269    0.0010160   -0.0006848    0.9553915   -0.0215310    0.2945565
   0.0061535    0.0006262   -0.0010449    0.9874058   -0.1190713    0.1041717
   0.0061971    0.0010073   -0.0009398    0.9858320    0.0979025    0.1361999
   0.0059436   -0.0000627   -0.0016069    0.9920185   -0.0808179   -0.0967870
   0.0053117    0.0026196    0.0027050    0.9283996   -0.2669520    0.2584781
   0.0052079    0.0021496    0.0022513    0.8721393   -0.3544962    0.3372026
   0.0053838    0.0032184    0.0034616    0.9462435   -0.2954655    0.1316185
   0.0053761    0.0032452    0.0035903    0.9764393   -0.2143050    0.0252935
   0.0054084    0.0031638    0.0031702    0.9733640   -0.1937804    0.1225222
   0.0051617    0.0029590    0.0041609    0.8686484   -0.4811823    0.1179559
   0.0055501    0.0023337    0.0016075    0.9494807   -0.1527444    0.2741451
   0.0056127    0.0021579    0.0013129    0.9517812   -0.0572672    0.3013852
  -0.0007678    0.0030731    0.0058568   -0.5645336    0.2709610    0.7796679
  -0.0003523    0.0031267    0.0061261   -0.4877005    0.2289978    0.8424418
  -0.0002561    0.0028839    0.0062368   -0.4078981    0.1559336    0.8996132
   0.0009297    0.0025653    0.0067202   -0.1261616   -0.1141341    0.9854221
   0.0003064    0.0027144    0.0065319   -0.3852939    0.1261585    0.9141294
   0.0011595    0.0031073    0.0067570   -0.2513067    0.1152200    0.9610251
   0.0037803    0.0022430    0.0058490    0.6207694   -0.5834263    0.5236975
   0.0041747    0.0025881    0.0058589    0.6089863   -0.4712309    0.6380259
   0.0048792    0.0029250    0.0054601    0.8561356   -0.4815264    0.1875209
   0.0050794    0.0030913    0.0050238    0.8594454   -0.4968073    0.1205659
   0.0043573    0.0025381    0.0056614    0.6389881   -0.5706857    0.5157635
   0.0047344    0.0029112    0.0056668    0.8894714   -0.3083989    0.3372399
   0.0042662    0.0025607    0.0057636    0.5918356   -0.4468191    0.6708824
   0.0032000    0.0019521    0.0060358    0.5284221   -0.6287742    0.5704499
   0.0021876    0.0017201    0.0062747    0.3353649   -0.6274199    0.7027622
   0.0029141    0.0019248    0.0061561    0.4251508   -0.6929047    0.5823486
   0.0025454    0.0017819    0.0062038    0.4075161   -0.6420599    0.6493764
   0.0021122    0.0020668    0.0065058    0.2725456   -0.3885394    0.8802023
   0.0020228    0.0023689    0.0066077    0.2267187   -0.2242771    0.9477860
   0.0016281    0.0031551    0.0068337   -0.0264508    0.0263327    0.9993032
   0.0020660    0.0031478    0.0067956    0.2145563   -0.1070719    0.9708250
  -0.0028140    0.0040558   -0.0020777   -0.9026795    0.2575545   -0.3447252
  -0.0025501    0.0046119   -0.0021007   -0.8452659    0.3345754   -0.4166351
  -0.0036636    0.0024459   -0.0011461   -0.9830883    0.1678616    0.0732116
  -0.0034019    0.0028685   -0.0003146   -0.9802489    0.1195234    0.1575638
  -0.0033707    0.0029893   -0.0002710   -0.9854787    0.0428182    0.1643119
  -0.0032156    0.0037217   -0.0003215   -0.9845362    0.1527200    0.0858202
  -0.0027922    0.0045099   -0.0016753   -0.9280140    0.2751627   -0.2511483
  -0.0029282    0.0044843   -0.0005822   -0.9678911    0.2513668    0.0012412
  -0.0033699    0.0029223   -0.0002040   -0.9487765   -0.0548838    0.3111444
  -0.0026085    0.0050313    0.0002116   -0.9247689    0.3282991    0.1924114
  -0.0026328    0.0047450    0.0005291   -0.8701560    0.2937886    0.3956220
  -0.0023446    0.0052603    0.0005126   -0.8440648    0.3928330    0.3650161
  -0.0013737    0.0064797    0.0006437   -0.7347119    0.4601236    0.4984824
  -0.0020140    0.0058868    0.0003300   -0.8542468    0.4346355    0.2852269
  -0.0003911    0.0059889    0.0024557   -0.7957371    0.5072074    0.3309730
  -0.0000964    0.0062771    0.0026572   -0.8178139    0.3910340    0.4222237
  -0.0000203    0.0068458    0.0019182   -0.7286498    0.5170679    0.4491216
   0.0002295    0.0067496    0.0026346   -0.7875251    0.5154358    0.3378316
  -0.0009540    0.0050485    0.0032663   -0.7798734    0.5259886    0.3393133
  -0.0007455    0.0049924    0.0037560   -0.7340802    0.5345428    0.4187962
  -0.0001605    0.0044877    0.0054002   -0.5600895    0.5480522    0.6212395
   0.0000434    0.0037673    0.0060275   -0.4731982    0.3899983    0.7899271
  -0.0003730    0.0050207    0.0042761   -0.6707870    0.5982508    0.4383386
   0.0007384    0.0018263   -0.0037699    0.1286489    0.3021216   -0.9445486
   0.0011039    0.0021400   -0.0036901   -0.2619792    0.2683435   -0.9270160
   0.0011567    0.0025568   -0.0035865   -0.3988823    0.0160879   -0.9168610
   0.0012883    0.0029768   -0.0037158   -0.0040208   -0.1948366   -0.9808275
   0.0011608    0.0028965   -0.0036331   -0.2855257   -0.3251104   -0.9015422
   0.0016388    0.0032505   -0.0037468    0.7996200    0.0596517   -0.5975362
   0.0022527    0.0033775   -0.0038155    0.0268645    0.1989756   -0.9796362
   0.0020564    0.0032239   -0.0038011   -0.0313097    0.1544299   -0.9875075
   0.0016388    0.0032505   -0.0037468    0.6024345    0.0437509   -0.7969684
   0.0020439    0.0035784   -0.0037344    0.6637118    0.0849446   -0.7431495
   0.0037239    0.0031629   -0.0038208    0.1490572    0.2169181   -0.9647427
   0.0032110    0.0030738   -0.0039235    0.0070842    0.2133799   -0.9769436
   0.0038854    0.0029443   -0.0038206    0.2043416    0.2097020   -0.9561744
   0.0024343    0.0039018   -0.0036962   -0.0788359    0.2500466   -0.9650190
   0.0042057    0.0025054   -0.0038181    0.2818957    0.2246789   -0.9327670
   0.0046531    0.0018363   -0.0037557    0.4847857    0.1319252   -0.8646263
   0.0049986    0.0011288   -0.0035199    0.6160149    0.0860630   -0.7830191
   0.0052064    0.0006495   -0.0033237    0.7440639    0.1582028   -0.6491076
   0.0056021   -0.0003178   -0.0028994    0.8428519    0.0895028   -0.5306504
   0.0006324    0.0019304   -0.0037313    0.0440575    0.4127839   -0.9097628
  -0.0008848    0.0032752   -0.0039042   -0.3789533   -0.0289032   -0.9249643
  -0.0007573    0.0033641   -0.0039562   -0.3775136   -0.0410699   -0.9250928
  -0.0004983    0.0039133   -0.0039838   -0.4630238    0.1287537   -0.8769444
  -0.0004917    0.0037430   -0.0040154   -0.4594983    0.0902208   -0.8835845
  -0.0016446    0.0056036   -0.0025389   -0.7356240    0.3917759   -0.5526021
  -0.0017022    0.0058315   -0.0022307   -0.7803915    0.4737863   -0.4080633
  -0.0021380    0.0056311   -0.0016452   -0.8546994    0.4441224   -0.2687830
  -0.0012937    0.0067543   -0.0015029   -0.7546986    0.5967059   -0.2727127
  -0.0014802    0.0055286   -0.0027523   -0.6499036    0.3870025   -0.6541057
  -0.0007477    0.0058756   -0.0031323   -0.5563295    0.4100415   -0.7227472
  -0.0006394    0.0053212   -0.0034786   -0.4313585    0.3079327   -0.8480020
  -0.0000378    0.0050326   -0.0037738   -0.3000807    0.3229454   -0.8975845
  -0.0001137    0.0041950   -0.0040878   -0.3840813    0.2169442   -0.8974502
  -0.0009278    0.0029042   -0.0038581   -0.1111300   -0.1393898   -0.9839820
  -0.0007794    0.0026854   -0.0038161    0.0265963   -0.0431767   -0.9987134
  -0.0000615    0.0022252   -0.0037839    0.0446607    0.2182910   -0.9748613
   0.0002146    0.0024674   -0.0037023    0.2383733    0.1202118   -0.9637050
   0.0003686    0.0022459   -0.0036899    0.2481361    0.2977067   -0.9218455
  -0.0005983    0.0028245   -0.0038425    0.0643722   -0.2638226   -0.9624208
  -0.0001004    0.0025542   -0.0037382    0.0607306   -0.0164248   -0.9980190
  -0.0000384    0.0029311   -0.0038198    0.1516968   -0.3604030   -0.9203791
   0.0058093    0.0009345   -0.0000048    0.9585209   -0.1723553    0.2270050
   0.0059412    0.0009691   -0.0002147    0.9297822   -0.2256050    0.2908735
   0.0058093    0.0009345   -0.0000048    0.9908631   -0.0532669    0.1239071
   0.0059011    0.0013945    0.0001451    0.9337657   -0.0885692    0.3467522
   0.0056701    0.0014041    0.0006004    0.8724377   -0.2133457    0.4396999
   0.0056952    0.0021615    0.0010676    0.9653171    0.0164489    0.2605615
   0.0057454    0.0017642    0.0007199    0.9271940   -0.0534958    0.3707418
   0.0057645   -0.0000786   -0.0024725    0.9041732    0.1632074   -0.3947584
   0.0058694   -0.0002161   -0.0019773    0.9677787    0.0573020   -0.2451958
   0.0060907    0.0004530   -0.0014127    0.9819709   -0.0563994   -0.1804225
   0.0059471    0.0009939   -0.0002059    0.9333108   -0.1028040    0.3440382
   0.0061136    0.0011804   -0.0006582    0.9791053    0.0791775    0.1873063
   0.0061411    0.0013188   -0.0009078    0.9443489    0.3286654    0.0135686
   0.0061885    0.0009192   -0.0012578    0.9804807    0.1394632   -0.1385918
   0.0060405    0.0003815   -0.0015346    0.9504639    0.0162891   -0.3104079
   0.0054904    0.0026771    0.0022331    0.9519795   -0.1936511    0.2371379
   0.0055612    0.0030793    0.0023586    0.9797191   -0.0053788    0.2003035
   0.0054865    0.0035310    0.0029980    0.9964979    0.0570730    0.0611107
   0.0055411    0.0026116    0.0019546    0.9676486   -0.0947559    0.2338324
   0.0054072    0.0033013    0.0034928    0.9894764   -0.1022055    0.1024229
   0.0055476    0.0038093    0.0045654    0.9952557   -0.0967045   -0.0106929
   0.0054823    0.0036694    0.0047922    0.9682818   -0.2073854    0.1393619
   0.0054997    0.0041495    0.0040190    0.9894563    0.1239716   -0.0748821
   0.0055420    0.0039037    0.0042871    0.9872739    0.0627687   -0.1461174
   0.0054431    0.0036282    0.0048841    0.9083653   -0.3745928    0.1858836
   0.0056024    0.0025944    0.0016926    0.9908866    0.0119006    0.1341719
   0.0056197    0.0024669    0.0013815    0.9849591   -0.0265120    0.1707414
   0.0056726    0.0025064    0.0011263    0.9740013    0.1851869    0.1304882
   0.0008932    0.0038433    0.0063860   -0.3912845    0.4188854    0.8194092
   0.0007506    0.0030874    0.0065971   -0.3704664    0.2386166    0.8976730
   0.0009810    0.0035693    0.0065389   -0.3897665    0.2643489    0.8821574
   0.0019919    0.0037724    0.0067451    0.0051631    0.3229654    0.9463967
   0.0016569    0.0038396    0.0066988   -0.2691996    0.3844776    0.8830111
   0.0036073    0.0022765    0.0060488    0.5994385   -0.4573968    0.6568575
   0.0039643    0.0026833    0.0060493    0.5709526   -0.3362826    0.7489507
   0.0042632    0.0029643    0.0059895    0.4860808   -0.1885539    0.8533305
   0.0047344    0.0029112    0.0056668    0.9664035   -0.1314390    0.2208800
   0.0049164    0.0030151    0.0055012    0.8460849   -0.2889617    0.4479303
   0.0049964    0.0030163    0.0052538    0.8803304   -0.4176334    0.2249461
   0.0051605    0.0034533    0.0054414    0.8843268   -0.3130692    0.3463434
   0.0044262    0.0026813    0.0057318    0.5642385   -0.4283141    0.7058200
   0.0045351    0.0029886    0.0058601    0.6690596   -0.2792428    0.6887545
   0.0047344    0.0029112    0.0056668    0.9783512   -0.0677918    0.1955333
   0.0044034    0.0030682    0.0059574    0.4163991   -0.2276926    0.8802090
   0.0030150    0.0020205    0.0062166    0.4580536   -0.4820853    0.7468471
   0.0034060    0.0023553    0.0062412    0.4933223   -0.3403058    0.8005155
   0.0023623    0.0018806    0.0063541    0.2626973   -0.4128708    0.8720825
   0.0030014    0.0020292    0.0062294    0.4284722   -0.5055433    0.7488909
   0.0027561    0.0021780    0.0064105    0.3676308   -0.4102092    0.8346113
   0.0027532    0.0025773    0.0064922    0.2812724   -0.1133884    0.9529055
   0.0020865    0.0027924    0.0067029    0.2901090   -0.1784859    0.9402019
   0.0021279    0.0035442    0.0067874    0.1639107    0.1620834    0.9730685
   0.0023785    0.0033831    0.0067341    0.3616879    0.0125498    0.9322148
  -0.0026099    0.0049533   -0.0014754   -0.9209809    0.3502285   -0.1706875
  -0.0023072    0.0054471   -0.0014888   -0.8909044    0.3986642   -0.2176148
  -0.0027416    0.0049188   -0.0003817   -0.9449950    0.3258839    0.0280037
  -0.0022146    0.0057926   -0.0007731   -0.9047461    0.4249040    0.0298513
  -0.0013609    0.0066159    0.0004911   -0.7522604    0.5218015    0.4022780
  -0.0016770    0.0063898    0.0002577   -0.6999853    0.5798785    0.4168471
  -0.0009891    0.0069985    0.0004953   -0.5952573    0.6952580    0.4028461
  -0.0019768    0.0061406   -0.0008550   -0.8947076    0.4461693   -0.0207669
  -0.0016489    0.0064769    0.0001338   -0.8567367    0.4594153    0.2343922
  -0.0002640    0.0058947    0.0030494   -0.7807905    0.5247095    0.3391846
   0.0001848    0.0065754    0.0028667   -0.7789100    0.3503530    0.5201461
   0.0002793    0.0061528    0.0037178   -0.7468018    0.4909668    0.4485963
   0.0004390    0.0066552    0.0033277   -0.7567600    0.5297143    0.3830366
   0.0002415    0.0066119    0.0029076   -0.7801677    0.3578510    0.5131091
   0.0007596    0.0075066    0.0020537   -0.6847832    0.6704494    0.2856037
   0.0005157    0.0068610    0.0030210   -0.7522652    0.5546651    0.3555893
   0.0000258    0.0056035    0.0040433   -0.7180410    0.4990089    0.4851878
   0.0007338    0.0056895    0.0047729   -0.6711301    0.5268010    0.5215986
   0.0007129    0.0054751    0.0050107   -0.5763926    0.5429083    0.6107554
   0.0003481    0.0042978    0.0057864   -0.4263822    0.5049733    0.7504667
   0.0008509    0.0023130   -0.0035226   -0.0827529    0.2646386   -0.9607905
   0.0007922    0.0026366   -0.0034898    0.0555327   -0.2144928   -0.9751456
   0.0010600    0.0028274   -0.0035869   -0.0728176   -0.3577711   -0.9309659
   0.0010622    0.0031374   -0.0037416    0.0706114   -0.4109404   -0.9089235
   0.0011374    0.0031931   -0.0037595    0.0997831   -0.2554443   -0.9616608
   0.0014869    0.0034725   -0.0037628    0.3038771   -0.1235172   -0.9446704
   0.0016388    0.0032505   -0.0037468    0.9478266   -0.0300934   -0.3173629
   0.0020439    0.0035784   -0.0037344    0.6905326    0.1236885   -0.7126471
   0.0020439    0.0035784   -0.0037344    0.9432712    0.0473522   -0.3286294
   0.0015298    0.0035089   -0.0037573    0.1986960   -0.0224393   -0.9798043
   0.0018752    0.0037954   -0.0037205    0.2717434    0.0467541   -0.9612334
   0.0040446    0.0034609   -0.0036628    0.3106493    0.3600948   -0.8796754
   0.0031995    0.0038053   -0.0037495    0.0429861    0.3523677   -0.9348739
   0.0038777    0.0036768   -0.0036542    0.2155080    0.4328799   -0.8753121
   0.0043599    0.0030194   -0.0036524    0.3643148    0.2910073   -0.8846409
   0.0042031    0.0032404   -0.0036591    0.3492105    0.3367581   -0.8744404
   0.0025812    0.0044127   -0.0035183    0.1582369    0.3241103   -0.9326916
   0.0020025    0.0039049   -0.0036908    0.0668880    0.1478658   -0.9867430
   0.0026124    0.0043785   -0.0035271    0.0474407    0.4299363   -0.9016120
   0.0049429    0.0021217   -0.0035467    0.5300779    0.2123499   -0.8209293
   0.0052592    0.0014038   -0.0032611    0.7455761    0.0943139   -0.6597130
   0.0051771    0.0009763   -0.0033149    0.7732015    0.1173347   -0.6232110
  -0.0006496    0.0031046   -0.0039470   -0.1290848   -0.2913875   -0.9478557
  -0.0003638    0.0036457   -0.0040899   -0.3164378   -0.0389332   -0.9478140
  -0.0003897    0.0032864   -0.0040505   -0.1219807   -0.2707271   -0.9548966
  -0.0002056    0.0037599   -0.0041379   -0.3035818    0.0050249   -0.9527921
  -0.0012493    0.0064373   -0.0021320   -0.7327282    0.5155896   -0.4441584
  -0.0010929    0.0064311   -0.0023357   -0.6312054    0.5640633   -0.5323648
  -0.0011535    0.0067752   -0.0017106   -0.6846710    0.6509808   -0.3277951
  -0.0016320    0.0065656   -0.0008578   -0.8128336    0.5756549   -0.0890110
  -0.0005586    0.0072869   -0.0012534   -0.5901971    0.7847211   -0.1894207
  -0.0008410    0.0072524   -0.0008377   -0.6299652    0.7683446   -0.1130945
  -0.0009255    0.0063748   -0.0025436   -0.5800099    0.5342608   -0.6149422
  -0.0003268    0.0061766   -0.0031159   -0.3576310    0.5216409   -0.7745908
  -0.0002321    0.0056518   -0.0034644   -0.2796220    0.4157828   -0.8654110
   0.0001697    0.0056088   -0.0035311   -0.1485653    0.4778330   -0.8657967
   0.0009776    0.0051333   -0.0038401    0.0425263    0.4076224   -0.9121598
   0.0002978    0.0045259   -0.0040860   -0.2143831    0.3175912   -0.9236751
   0.0001148    0.0039921   -0.0041954   -0.2347906    0.1110414   -0.9656828
   0.0000735    0.0026946   -0.0037349    0.1581360   -0.1367189   -0.9779064
   0.0005170    0.0027278   -0.0036329    0.3584756   -0.2753578   -0.8920052
   0.0006789    0.0025402   -0.0035139    0.3133009    0.0284171   -0.9492286
  -0.0001862    0.0031236   -0.0039647    0.0950142   -0.4468655   -0.8895412
   0.0005742    0.0030740   -0.0038218    0.2431840   -0.4383278   -0.8652920
   0.0000955    0.0033279   -0.0040509    0.1210562   -0.4504969   -0.8845326
   0.0058093    0.0009345   -0.0000048    0.9785520   -0.0910495    0.1847864
   0.0059993    0.0014144   -0.0000875    0.9584449    0.0854319    0.2721850
   0.0059767    0.0017592   -0.0000288    0.9590231    0.2097720    0.1904476
   0.0058474    0.0017879    0.0004901    0.9453958    0.0156415    0.3255491
   0.0057454    0.0020205    0.0007730    0.9769135    0.0604877    0.2048933
   0.0058136    0.0021215    0.0005399    0.9566785    0.1729874    0.2341830
   0.0057553    0.0024305    0.0005700    0.9199132    0.3851781    0.0734676
   0.0055142    0.0014134   -0.0027307    0.9463032    0.1345106   -0.2939678
   0.0057663    0.0005144   -0.0021802    0.9099902    0.1958358   -0.3654671
   0.0059754    0.0006259   -0.0017392    0.8984071    0.1170233   -0.4232850
   0.0061696    0.0008872   -0.0013251    0.9266670    0.1296566   -0.3528136
   0.0060723    0.0014079   -0.0003404    0.9712110    0.0969628    0.2175944
   0.0061226    0.0013795   -0.0006114    0.9589404    0.2779277    0.0564753
   0.0060686    0.0014997   -0.0009127    0.8730191    0.4838070   -0.0613870
   0.0061497    0.0012481   -0.0012121    0.9066067    0.3532482   -0.2308248
   0.0060458    0.0015112   -0.0012184    0.8550920    0.4801494   -0.1956378
   0.0056092    0.0030482    0.0020860    0.9935242    0.0412976    0.1058496
   0.0055802    0.0033870    0.0021395    0.9672587    0.2535433    0.0112421
   0.0054803    0.0038123    0.0027586    0.9486056    0.3151265   -0.0290298
   0.0054822    0.0039738    0.0033825    0.9416604    0.3194375   -0.1059972
   0.0056111    0.0029713    0.0017777    0.9530194    0.2625338    0.1510960
   0.0056116    0.0029716    0.0017766    0.9433195    0.2618061    0.2039750
   0.0055898    0.0040314    0.0046366    0.9912275    0.1134781    0.0677544
   0.0054106    0.0036421    0.0050392    0.9309861   -0.1487718    0.3333645
   0.0055382    0.0040587    0.0049064    0.9268127    0.1612517    0.3391402
   0.0055513    0.0042807    0.0043713    0.9542543    0.2858242   -0.0877680
   0.0054160    0.0048009    0.0041054    0.9016530    0.3601801   -0.2393580
   0.0056242    0.0028251    0.0011643    0.9450398    0.3261886   -0.0223790
   0.0056587    0.0027011    0.0005695    0.8666804    0.4972030   -0.0406728
   0.0012190    0.0049771    0.0057083   -0.3711605    0.4802310    0.7947440
   0.0019319    0.0043256    0.0063730   -0.2050416    0.5206159    0.8288046
   0.0020818    0.0053414    0.0057891   -0.3189593    0.4651546    0.8257701
   0.0019229    0.0040276    0.0066002   -0.0714631    0.5522658    0.8305995
   0.0027041    0.0039339    0.0065060    0.3031333    0.1730520    0.9371036
   0.0025659    0.0041617    0.0064677    0.0858226    0.3429116    0.9354390
   0.0036946    0.0025509    0.0061574    0.5100419   -0.2025532    0.8359602
   0.0039144    0.0027103    0.0060904    0.4650226   -0.1476892    0.8728928
   0.0039765    0.0027552    0.0060714    0.4415114   -0.1144141    0.8899310
   0.0039282    0.0030739    0.0061095    0.3483617   -0.0100427    0.9373064
   0.0042243    0.0032441    0.0060249    0.3195923   -0.0636455    0.9454153
   0.0048162    0.0033613    0.0058090    0.7021893   -0.1007164    0.7048308
   0.0050136    0.0034450    0.0056478    0.8169092   -0.2289977    0.5293575
   0.0051804    0.0035692    0.0054776    0.8138056    0.0102999    0.5810459
   0.0053096    0.0036200    0.0052695    0.8821726   -0.0111453    0.4707943
   0.0045677    0.0031905    0.0059214    0.4397847   -0.0999670    0.8925223
   0.0042211    0.0032891    0.0060325    0.3035855   -0.0271856    0.9524163
   0.0031603    0.0025324    0.0063998    0.3693169   -0.1446984    0.9179692
   0.0031293    0.0025084    0.0064048    0.3792168   -0.2134443    0.9003533
   0.0034109    0.0027127    0.0063187    0.3911688    0.0006499    0.9203187
   0.0027673    0.0022238    0.0064269    0.2260399   -0.2500238    0.9414850
   0.0031089    0.0025914    0.0064100    0.2500558    0.0482201    0.9670300
  -0.0013101    0.0067818    0.0002609    0.7519509    0.5666196    0.3369157
  -0.0013101    0.0067818    0.0002609    0.7534339    0.5619800    0.3413441
  -0.0013101    0.0067818    0.0002609    0.3538611    0.8395539    0.4122275
  -0.0009461    0.0070937    0.0003416   -0.6820058    0.6813000    0.2658917
  -0.0005653    0.0073719    0.0002339   -0.5657794    0.7847279    0.2531715
   0.0011649    0.0078002    0.0019316   -0.5690012    0.7979758    0.1986764
   0.0002133    0.0075119    0.0010163   -0.5538376    0.7965035    0.2425819
  -0.0016279    0.0065569    0.0000269   -0.7601465    0.6155874    0.2079167
   0.0015187    0.0072120    0.0039728   -0.6260974    0.5635062    0.5389460
   0.0011178    0.0062962    0.0045365   -0.6578579    0.5089910    0.5551136
   0.0011897    0.0071981    0.0035884   -0.6915266    0.6227596    0.3660074
   0.0016232    0.0076881    0.0033569   -0.6267453    0.6825922    0.3758434
   0.0009185    0.0073534    0.0028720   -0.7018452    0.6359639    0.3208788
   0.0016098    0.0079590    0.0025218   -0.5626113    0.7982686    0.2150248
   0.0017820    0.0080532    0.0023481   -0.3801721    0.9204129    0.0911547
   0.0014986    0.0064160    0.0047861   -0.5631158    0.5404176    0.6251795
   0.0019790    0.0061698    0.0052667   -0.4472808    0.4991907    0.7421244
   0.0006080    0.0027067   -0.0035837    0.3473729   -0.3515959   -0.8693172
   0.0008297    0.0029629   -0.0036942    0.2215584   -0.4875941   -0.8444903
   0.0009672    0.0033804   -0.0038545    0.2907280   -0.2975990   -0.9093471
   0.0011345    0.0041783   -0.0039854    0.3845283   -0.0136141   -0.9230128
   0.0015817    0.0042430   -0.0037704    0.2507772    0.0710762   -0.9654320
   0.0042935    0.0037318   -0.0033833    0.4236305    0.5426426   -0.7253111
   0.0041100    0.0039426   -0.0033450    0.3558529    0.5874938   -0.7267873
   0.0030701    0.0044938   -0.0033739    0.1635759    0.6125780   -0.7732988
   0.0037452    0.0039487   -0.0035386    0.2287622    0.5827227   -0.7798090
   0.0047767    0.0030747   -0.0033835    0.5901282    0.4211307   -0.6887653
   0.0044606    0.0035146   -0.0033945    0.4925826    0.4922733   -0.7176555
   0.0017611    0.0047668   -0.0036471    0.2965390    0.2290164   -0.9271548
   0.0017113    0.0054842   -0.0034079    0.2294953    0.4579448   -0.8588472
   0.0028615    0.0046948   -0.0032934    0.2907954    0.5687056   -0.7694232
   0.0021541    0.0055480   -0.0031847    0.3067454    0.6074569   -0.7327369
   0.0053003    0.0021540   -0.0031780    0.7083454    0.2822384   -0.6469839
   0.0054037    0.0019142   -0.0030790    0.8528987    0.1370502   -0.5037668
  -0.0001970    0.0034285   -0.0041005   -0.0374890   -0.2965333   -0.9542864
  -0.0000982    0.0035007   -0.0041288   -0.0718996   -0.2767272   -0.9582549
   0.0001850    0.0037060   -0.0042136   -0.1105706   -0.2121206   -0.9709681
  -0.0002988    0.0066227   -0.0027118   -0.4346777    0.6955704   -0.5720465
  -0.0008361    0.0070534   -0.0015303   -0.5825702    0.7446841   -0.3256649
  -0.0012543    0.0069361    0.0000316   -0.7537781    0.6440248    0.1305780
  -0.0004084    0.0072909   -0.0014586   -0.4517145    0.8313971   -0.3236245
   0.0000726    0.0076166   -0.0008125   -0.3619181    0.9053210   -0.2222819
  -0.0007485    0.0073459   -0.0001743   -0.6136627    0.7864832    0.0697297
  -0.0000580    0.0076441   -0.0002946   -0.4479614    0.8928649   -0.0460743
   0.0001806    0.0063409   -0.0030776   -0.1362670    0.6240235   -0.7694322
   0.0008264    0.0058222   -0.0033945    0.0263129    0.6046504   -0.7960562
   0.0005521    0.0042679   -0.0041748    0.0690503    0.2080058   -0.9756873
   0.0005072    0.0043236   -0.0041700   -0.0444259    0.2309699   -0.9719461
   0.0013110    0.0047000   -0.0038583    0.3116054    0.2924981   -0.9040724
   0.0006836    0.0041113   -0.0041950    0.2343449    0.1175315   -0.9650227
   0.0011500    0.0055112   -0.0035632    0.1684987    0.5286233   -0.8319649
   0.0003008    0.0037910   -0.0042457    0.0347946   -0.0683478   -0.9970546
   0.0005886    0.0027843   -0.0036364    0.3149825   -0.4677652   -0.8258219
   0.0003860    0.0035408   -0.0041299    0.1983153   -0.3911519   -0.8987053
   0.0060164    0.0017193   -0.0003084    0.9304725    0.3637401    0.0437497
   0.0059172    0.0020668    0.0000004    0.9184624    0.3932076    0.0425981
   0.0056651    0.0026279    0.0002633    0.8284744    0.5555682   -0.0705273
   0.0058351    0.0022732   -0.0002997    0.8362825    0.5416265   -0.0852777
   0.0055721    0.0021560   -0.0026613    0.9219503    0.2234737   -0.3163340
   0.0056032    0.0022193   -0.0025100    0.9560514    0.2875819   -0.0571169
   0.0057269    0.0013783   -0.0021005    0.9155243    0.2182958   -0.3378789
   0.0055785    0.0022739   -0.0022184    0.9245719    0.3609356   -0.1220341
   0.0060898    0.0011350   -0.0014655    0.8593952    0.3039900   -0.4111326
   0.0057584    0.0014315   -0.0019937    0.8920174    0.2761672   -0.3578220
   0.0057419    0.0018417   -0.0016962    0.8708180    0.4048854   -0.2788259
   0.0056603    0.0021470   -0.0016075    0.8393958    0.5159051   -0.1710458
   0.0055721    0.0032195    0.0015106    0.8943621    0.4406095   -0.0773292
   0.0055145    0.0036092    0.0018524    0.8667496    0.4685162   -0.1709902
   0.0054167    0.0040372    0.0024734    0.8678996    0.4855589   -0.1047987
   0.0054095    0.0041090    0.0027787    0.8715326    0.4729750   -0.1293275
   0.0048799    0.0055735    0.0033615    0.8016050    0.4947111   -0.3356939
   0.0054639    0.0043515    0.0049239    0.7880634    0.4179218    0.4519928
   0.0055500    0.0043589    0.0046814    0.9052734    0.3798950    0.1901577
   0.0052835    0.0039609    0.0053254    0.7205020    0.2800991    0.6343669
   0.0054298    0.0040291    0.0051310    0.7851838    0.2552521    0.5642098
   0.0053260    0.0042921    0.0051249    0.6490519    0.4531311    0.6110678
   0.0054139    0.0049094    0.0045377    0.9420770    0.3158339    0.1128714
   0.0053771    0.0052091    0.0044622    0.8888825    0.4496309    0.0878636
   0.0053651    0.0051696    0.0043463    0.8699564    0.4479418   -0.2062135
   0.0054574    0.0046330    0.0046840    0.8873467    0.3864649    0.2515170
   0.0049854    0.0057595    0.0037568    0.8366035    0.4780904   -0.2674400
   0.0055302    0.0028602    0.0002324    0.7913367    0.5959388   -0.1365398
   0.0025522    0.0047909    0.0062461   -0.1981248    0.3951714    0.8969873
   0.0026379    0.0066862    0.0052190   -0.3280322    0.5245009    0.7856804
   0.0037650    0.0046820    0.0061019    0.3392831    0.1896695    0.9213645
   0.0036938    0.0029072    0.0061919    0.3828988    0.0156208    0.9236582
   0.0040819    0.0038850    0.0060746    0.4014584    0.1602936    0.9017411
   0.0037202    0.0049923    0.0060924    0.3649239    0.2475928    0.8975123
   0.0030574    0.0048521    0.0062620    0.0455965    0.3161286    0.9476200
   0.0047574    0.0036111    0.0058264    0.4574370    0.2098191    0.8641339
   0.0050190    0.0034865    0.0056597    0.6910254    0.0291281    0.7222433
   0.0045102    0.0035008    0.0059524    0.3592796    0.2054813    0.9103272
   0.0049548    0.0037890    0.0056851    0.4897762    0.3449335    0.8007123
   0.0051232    0.0038795    0.0055086    0.6277799    0.3604420    0.6899086
  -0.0001874    0.0075936   -0.0000869   -0.4538886    0.8855692    0.0987536
   0.0002975    0.0076210    0.0007940   -0.4801065    0.8592065    0.1768106
   0.0013396    0.0078967    0.0017601   -0.4523238    0.8901022    0.0558688
   0.0015814    0.0075122    0.0035902   -0.6305333    0.6862379    0.3626367
   0.0019515    0.0074050    0.0040804   -0.4994480    0.6454221    0.5779117
   0.0015799    0.0075111    0.0035891   -0.7218477    0.6360278    0.2727720
   0.0015814    0.0075125    0.0035892   -0.6723841    0.6626407    0.3298590
   0.0018804    0.0077337    0.0035181   -0.4945057    0.7829891    0.3773488
   0.0020558    0.0080401    0.0028013   -0.3150132    0.9273588    0.2019216
   0.0024763    0.0080322    0.0027525    0.0377869    0.9986320    0.0361438
   0.0025673    0.0080279    0.0025110    0.0753971    0.9971325    0.0064914
   0.0018929    0.0080851    0.0021256   -0.2147896    0.9766204   -0.0088323
   0.0023586    0.0070444    0.0047712   -0.4889085    0.5609328    0.6680740
   0.0008017    0.0038761   -0.0041218    0.3830761   -0.1890381   -0.9041666
   0.0043851    0.0038569   -0.0031808    0.5440994    0.7347951   -0.4050087
   0.0041274    0.0039652   -0.0033100    0.4385251    0.7204541   -0.5372538
   0.0039128    0.0041475   -0.0032845    0.3328135    0.6975571   -0.6345465
   0.0035386    0.0046348   -0.0029280    0.3951041    0.8068992   -0.4390974
   0.0037288    0.0043789   -0.0031638    0.3279196    0.7671727   -0.5512847
   0.0052387    0.0028674   -0.0029182    0.7136465    0.4463915   -0.5398549
   0.0047767    0.0035147   -0.0030215    0.6299255    0.6550365   -0.4172783
   0.0051026    0.0030956   -0.0029604    0.6750488    0.5247782   -0.5185721
   0.0015550    0.0057402   -0.0032768    0.1495960    0.6410492   -0.7527795
   0.0026060    0.0052469   -0.0030551    0.4484843    0.6154058   -0.6481801
   0.0028843    0.0051615   -0.0029022    0.4968626    0.7115592   -0.4968009
   0.0014095    0.0064885   -0.0026175    0.1615935    0.7332690   -0.6604575
   0.0017904    0.0065038   -0.0023897    0.2914484    0.7914601   -0.5372605
   0.0023398    0.0057950   -0.0027984    0.4385527    0.6987564   -0.5651646
   0.0053691    0.0026378   -0.0028648    0.7571534    0.4159276   -0.5037092
   0.0054711    0.0023747   -0.0028500    0.8409349    0.3485524   -0.4139320
  -0.0001257    0.0071795   -0.0019045   -0.3396816    0.8356258   -0.4316779
   0.0000802    0.0068323   -0.0025472   -0.1740228    0.7805702   -0.6003551
   0.0005471    0.0075422   -0.0012314   -0.1015000    0.9247811   -0.3667120
   0.0005098    0.0077684   -0.0002286   -0.2611829    0.9632704   -0.0623982
   0.0005898    0.0076903   -0.0007871   -0.0872711    0.9638402   -0.2517852
   0.0006139    0.0064715   -0.0029093    0.0272509    0.7043488   -0.7093308
   0.0050088    0.0034891   -0.0011222    0.7455400    0.6510686   -0.1424067
   0.0055226    0.0025062   -0.0024978    0.8525196    0.5102510   -0.1133763
   0.0054636    0.0025260   -0.0022337    0.8277420    0.5604919    0.0263070
   0.0052777    0.0035035    0.0008169    0.7676544    0.5891625   -0.2521789
   0.0055020    0.0033948    0.0015057    0.7980446    0.5339725   -0.2792816
   0.0046207    0.0055222    0.0026088    0.7598276    0.5868925   -0.2796770
   0.0035136    0.0074676    0.0027970    0.6912691    0.6801125   -0.2441189
   0.0048754    0.0060164    0.0037457    0.7240072    0.5727989   -0.3843370
   0.0051802    0.0045132    0.0050851    0.5017044    0.4701305    0.7261336
   0.0053450    0.0045999    0.0049055    0.6915903    0.4378672    0.5744346
   0.0049773    0.0041007    0.0054686    0.3960108    0.5512304    0.7343844
   0.0051586    0.0042030    0.0053024    0.4617947    0.5053711    0.7289346
   0.0053863    0.0049299    0.0047040    0.8667556    0.3361309    0.3684437
   0.0051650    0.0054426    0.0046807    0.6254011    0.6796758    0.3832938
   0.0053035    0.0052140    0.0047145    0.7304098    0.5006970    0.4645470
   0.0052522    0.0054512    0.0044393    0.7446562    0.6651906    0.0548502
   0.0052464    0.0054046    0.0042744    0.7883379    0.5979103   -0.1450055
   0.0053163    0.0046720    0.0049038    0.7037405    0.3411595    0.6231850
   0.0051055    0.0056305    0.0042393    0.8485486    0.5232929   -0.0782927
   0.0049170    0.0061169    0.0040097    0.8219373    0.4793163   -0.3076930
   0.0051258    0.0037157    0.0007615    0.7482402    0.6179057   -0.2415141
   0.0048061    0.0039841    0.0000905    0.7557920    0.6303949   -0.1771459
   0.0029680    0.0054177    0.0060327   -0.1295797    0.4336789    0.8917016
   0.0026058    0.0072312    0.0047245   -0.3490384    0.6727832    0.6523304
   0.0028818    0.0068848    0.0051093   -0.4240599    0.5905262    0.6866236
   0.0029097    0.0068808    0.0051249   -0.2517533    0.5959935    0.7625038
   0.0029863    0.0063427    0.0055056   -0.1202552    0.4792910    0.8693784
   0.0039769    0.0044817    0.0060152    0.4918847    0.1749087    0.8529106
   0.0044212    0.0040886    0.0058063    0.4806720    0.3919037    0.7844526
   0.0043707    0.0043844    0.0057597    0.5926622    0.2495449    0.7658191
   0.0035893    0.0052281    0.0060645    0.1960269    0.4281133    0.8822088
   0.0040448    0.0048711    0.0059639    0.5559516    0.2437220    0.7946807
   0.0043269    0.0053455    0.0055705    0.5910583    0.3079411    0.7455349
   0.0041076    0.0055426    0.0056695    0.3881154    0.4229810    0.8188122
   0.0033194    0.0053531    0.0060382    0.1438863    0.4366497    0.8880505
   0.0046105    0.0038904    0.0057978    0.3531432    0.4071193    0.8423442
   0.0047989    0.0040004    0.0056372    0.3770604    0.5551374    0.7413824
   0.0013308    0.0078584    0.0002739   -0.1158476    0.9753585   -0.1877636
   0.0018498    0.0080609    0.0018004   -0.2476480    0.9632879   -0.1036671
   0.0020428    0.0077476    0.0036167   -0.4457746    0.7875723    0.4254585
   0.0022856    0.0077742    0.0037650   -0.3810824    0.8032663    0.4577548
   0.0022729    0.0079702    0.0032093   -0.2290114    0.9402230    0.2520605
   0.0024025    0.0080206    0.0030016   -0.0722534    0.9850599    0.1563217
   0.0031048    0.0078336    0.0027869    0.3103097    0.9478727   -0.0724235
   0.0028553    0.0079087    0.0032449    0.0796157    0.9938231    0.0773116
   0.0033047    0.0077463    0.0031811    0.3822783    0.9232525   -0.0383173
   0.0026213    0.0080033    0.0022429    0.1830275    0.9734515   -0.1374523
   0.0028666    0.0078928    0.0023644    0.3014491    0.9479893   -0.1021995
   0.0019616    0.0080755    0.0018691   -0.0621846    0.9891573   -0.1330449
   0.0047723    0.0035310   -0.0029463    0.6305883    0.7717236   -0.0824685
   0.0041913    0.0041090   -0.0029479    0.5201336    0.8210702   -0.2351697
   0.0043890    0.0039397   -0.0028665    0.6204227    0.7783527   -0.0961394
   0.0039790    0.0042632   -0.0030407    0.4824426    0.8090894   -0.3355941
   0.0037200    0.0045290   -0.0025485    0.5433492    0.8223341   -0.1689326
   0.0051184    0.0031236   -0.0029017    0.7265357    0.6393583   -0.2517277
   0.0052545    0.0028924   -0.0028696    0.7826707    0.5635784   -0.2642082
   0.0025855    0.0056736   -0.0026835    0.5255517    0.6729891   -0.5204624
   0.0036590    0.0050736   -0.0015873    0.6553432    0.6798225   -0.3291909
   0.0009968    0.0069710   -0.0021548    0.1546906    0.8474756   -0.5077952
   0.0005779    0.0069167   -0.0024175    0.0234395    0.8067903   -0.5903728
   0.0023604    0.0063412   -0.0020876    0.4427312    0.7624062   -0.4719383
   0.0019213    0.0072101   -0.0009866    0.2690110    0.8623165   -0.4290027
   0.0023845    0.0070503   -0.0007471    0.4402821    0.8168430   -0.3727188
   0.0026107    0.0062541   -0.0018510    0.5679921    0.7098850   -0.4164713
   0.0025577    0.0059393   -0.0023499    0.5433719    0.6989794   -0.4649461
   0.0053880    0.0025995   -0.0028522    0.8374276    0.4195594   -0.3502642
   0.0053744    0.0026453   -0.0028505    0.8157200    0.4943885   -0.3003012
   0.0005053    0.0072868   -0.0018049   -0.0633199    0.8786212   -0.4733026
   0.0009350    0.0073294   -0.0015430    0.1265159    0.8905054   -0.4370285
   0.0012535    0.0074631   -0.0010328    0.1421584    0.9167999   -0.3731875
   0.0016401    0.0076640   -0.0001737    0.0981705    0.9443404   -0.3139806
   0.0043478    0.0044543   -0.0007212    0.7215437    0.6428487   -0.2571385
   0.0041296    0.0043095   -0.0019683    0.6351704    0.7484864   -0.1905955
   0.0053175    0.0027472   -0.0022736    0.7336933    0.6790510    0.0241640
   0.0048395    0.0034490   -0.0021144    0.7088367    0.6899520   -0.1466860
   0.0049869    0.0032288   -0.0020732    0.7220983    0.6853836   -0.0939328
   0.0052335    0.0029507   -0.0025753    0.7581336    0.6520888    0.0036859
   0.0048129    0.0045046    0.0013314    0.7532813    0.6047299   -0.2585904
   0.0035558    0.0068667    0.0016726    0.8074963    0.5027675   -0.3085038
   0.0034582    0.0072152    0.0019826    0.6780708    0.6629996   -0.3172563
   0.0035430    0.0068405    0.0016114    0.7173130    0.6063106   -0.3432921
   0.0035092    0.0067402    0.0013242    0.7796177    0.5674691   -0.2649057
   0.0033433    0.0076259    0.0025895    0.5737775    0.7931688   -0.2041140
   0.0036833    0.0074316    0.0034868    0.5610599    0.8150019   -0.1448576
   0.0039896    0.0070592    0.0034415    0.6543944    0.7116499   -0.2555826
   0.0045571    0.0066355    0.0039819    0.6049845    0.6995684   -0.3802602
   0.0047816    0.0063454    0.0039661    0.6642406    0.5967649   -0.4501733
   0.0048010    0.0042907    0.0054044    0.4358387    0.5012720    0.7475099
   0.0050615    0.0047615    0.0050670    0.5746749    0.3119670    0.7565880
   0.0046983    0.0045550    0.0053991    0.5963078    0.2864331    0.7499154
   0.0051594    0.0051485    0.0049106    0.6294923    0.3622635    0.6873897
   0.0050258    0.0053821    0.0048806    0.5689382    0.5840732    0.5789368
   0.0049846    0.0056290    0.0046133    0.5657891    0.7066110    0.4249512
   0.0050944    0.0056598    0.0043896    0.7338040    0.6540775    0.1836145
   0.0049357    0.0061563    0.0041054    0.8633047    0.5035553   -0.0337215
   0.0049694    0.0059019    0.0043666    0.8055783    0.5082478    0.3045123
   0.0048071    0.0063948    0.0040791    0.7437256    0.6367842   -0.2034162
   0.0028734    0.0073875    0.0046201   -0.3909209    0.6413812    0.6601599
   0.0027717    0.0076068    0.0043112   -0.3124248    0.8060175    0.5027192
   0.0030912    0.0075600    0.0044899   -0.1536093    0.8215816    0.5490062
   0.0029008    0.0071598    0.0048833   -0.3935409    0.5903468    0.7047100
   0.0036679    0.0068284    0.0052661    0.0161322    0.6791025    0.7338662
   0.0038022    0.0063069    0.0055311    0.1643464    0.4236407    0.8907967
   0.0036342    0.0065057    0.0054738    0.0137868    0.4579064    0.8888935
   0.0045322    0.0044672    0.0055774    0.6498716    0.3020831    0.6974329
   0.0047168    0.0052300    0.0052561    0.6572504    0.3655211    0.6591026
   0.0042633    0.0059565    0.0054350    0.5331167    0.3532779    0.7687531
   0.0039513    0.0060898    0.0055736    0.3689073    0.3581378    0.8576973
   0.0016967    0.0077798    0.0001783    0.1265971    0.9467957   -0.2958904
   0.0020090    0.0078842    0.0009734    0.0256271    0.9758529   -0.2169200
   0.0024717    0.0078816    0.0036025   -0.2297680    0.9225845    0.3099106
   0.0029529    0.0077092    0.0041447   -0.0970233    0.9302528    0.3538590
   0.0029191    0.0078844    0.0035721    0.0548823    0.9904984    0.1260986
   0.0028952    0.0078315    0.0020738    0.4842928    0.8320251   -0.2705452
   0.0031818    0.0077809    0.0037055    0.3002112    0.9523219    0.0543716
   0.0025836    0.0076474    0.0009680    0.4233553    0.8598612   -0.2853227
