NORM_ASCII
2925 5846
   0.0132492   -0.0168029   -0.0127004    0.1594117    0.2249369   -0.9612447
   0.0117340   -0.0172409   -0.0115118   -0.4058964    0.0175400   -0.9137508
   0.0114101   -0.0176283   -0.0112557   -0.3468690    0.0287878   -0.9374717
   0.0100632   -0.0165430   -0.0100877   -0.2764930   -0.0036490   -0.9610090
   0.0084922   -0.0156867   -0.0088328   -0.3167244   -0.0854309   -0.9446625
   0.0088681   -0.0159095   -0.0091574   -0.3624879   -0.0602111   -0.9300415
   0.0097594   -0.0182010   -0.0100242   -0.4103076   -0.0418782   -0.9109851
   0.0082804   -0.0166513   -0.0086055   -0.4541380   -0.1406151   -0.8797648
   0.0075370   -0.0154558   -0.0080819   -0.4709627   -0.1609481   -0.8673464
   0.0068169   -0.0145756   -0.0074503   -0.4907535   -0.1596681   -0.8565437
   0.0156918   -0.0192448   -0.0136561    0.7258341    0.4259678   -0.5401077
   0.0162328   -0.0194309   -0.0134293    0.7701055    0.4719617   -0.4291733
   0.0146281   -0.0186137   -0.0137140    0.5458287    0.3001972   -0.7822741
   0.0146596   -0.0191225   -0.0140561    0.4682774    0.3377704   -0.8164725
   0.0045889   -0.0077884   -0.0062637   -0.3123735   -0.2165386   -0.9249507
   0.0038468   -0.0087193   -0.0055785   -0.3392697   -0.1869803   -0.9219189
   0.0034015   -0.0070474   -0.0055626   -0.1494281   -0.1940399   -0.9695462
   0.0015349   -0.0077416   -0.0044735   -0.1629741   -0.3700024   -0.9146243
   0.0030936   -0.0066835   -0.0054279   -0.1699182   -0.2786767   -0.9452339
   0.0030572   -0.0066433   -0.0054139   -0.2105438   -0.3159345   -0.9251252
   0.0012733   -0.0055214   -0.0049550   -0.0318081   -0.4184361   -0.9076891
   0.0004529   -0.0042225   -0.0052879    0.1105127   -0.6137762   -0.7817070
   0.0008376   -0.0046212   -0.0051215    0.0645758   -0.5497103   -0.8328556
  -0.0007940   -0.0017322   -0.0054907   -0.1481074   -0.1369552   -0.9794424
  -0.0004761   -0.0039467   -0.0053985    0.0556532   -0.5056278   -0.8609549
  -0.0005198   -0.0035655   -0.0054715   -0.0758544   -0.3560195   -0.9313948
  -0.0006356   -0.0022456   -0.0055766   -0.1119703   -0.1413344   -0.9836093
  -0.0020023   -0.0018451   -0.0048445   -0.1679051   -0.2308887   -0.9583832
  -0.0008960   -0.0032383   -0.0053815   -0.1912782   -0.2768313   -0.9416884
  -0.0010672   -0.0006698   -0.0053171   -0.0715372   -0.0007545   -0.9974376
  -0.0014485    0.0012099   -0.0030569   -0.2317657    0.8098530   -0.5389089
  -0.0014152   -0.0003830   -0.0050828   -0.0270533    0.1834771   -0.9826517
  -0.0009149    0.0000569   -0.0051140   -0.0554582    0.2816879   -0.9579020
  -0.0006832    0.0002570   -0.0051213    0.0202031    0.3669372   -0.9300263
  -0.0018010    0.0004431   -0.0042443   -0.0960230    0.5770759   -0.8110259
  -0.0015104    0.0008656   -0.0038906   -0.0993592    0.7202960   -0.6865140
  -0.0019089   -0.0002423   -0.0047957   -0.0488359    0.3379566   -0.9398938
  -0.0008159   -0.0069944    0.0033396   -0.6691238   -0.3379777    0.6618492
  -0.0013165   -0.0051309    0.0043744    0.7724216   -0.0666384    0.6316044
  -0.0012243   -0.0048219    0.0045965   -0.8133666   -0.0677139    0.5777972
  -0.0021862   -0.0071453    0.0025913   -0.6892272   -0.2914587    0.6633382
  -0.0015038   -0.0052159    0.0042053   -0.7633667   -0.0329590    0.6451240
  -0.0024379   -0.0056367    0.0033547   -0.7982301    0.0152053    0.6021607
  -0.0025064   -0.0060400    0.0031413   -0.7259855   -0.1251488    0.6762269
  -0.0013165   -0.0051309    0.0043744    0.7629564   -0.0752644    0.6420536
  -0.0011391   -0.0044876    0.0048176   -0.8157280   -0.0173024    0.5781769
  -0.0013332   -0.0038945    0.0048459   -0.8635399    0.1460407    0.4826706
  -0.0007201   -0.0030576    0.0054973   -0.8297142    0.3397100    0.4429125
  -0.0005043   -0.0029581    0.0056870   -0.8355510    0.3506229    0.4229871
  -0.0007162   -0.0014143    0.0056933   -0.8975727    0.2470663    0.3651322
  -0.0010577   -0.0025644    0.0052823   -0.8757897    0.2158436    0.4317452
  -0.0004762    0.0000752    0.0061033   -0.9176775    0.3019321    0.2582732
  -0.0007363    0.0010598    0.0054587   -0.9038857    0.3880014    0.1801266
  -0.0007921   -0.0000515    0.0056282   -0.9081552    0.3261464    0.2624552
   0.0001135   -0.0093869    0.0012158   -0.3353699   -0.6005349    0.7258684
  -0.0006907   -0.0084510    0.0022127   -0.4005695   -0.5533717    0.7302902
  -0.0004907   -0.0083367    0.0023410   -0.5475684   -0.3957916    0.7372366
   0.0004861   -0.0103047   -0.0001186   -0.3765564   -0.7398122    0.5575690
   0.0002946   -0.0101373    0.0001507   -0.3653036   -0.6741977    0.6418807
  -0.0016305    0.0011122   -0.0026534   -0.2762880    0.8206631   -0.5001770
  -0.0008808    0.0027302    0.0001652   -0.5390200    0.6188819   -0.5713516
  -0.0023533    0.0000665    0.0016346   -0.7265696    0.6722993   -0.1418108
  -0.0026401    0.0001533    0.0004045   -0.6160910    0.7631243   -0.1951233
  -0.0022642   -0.0001164    0.0021454   -0.8145497    0.5737285   -0.0856993
  -0.0033073   -0.0000690   -0.0016484   -0.4084355    0.8749168   -0.2601943
  -0.0031120   -0.0001649   -0.0002382   -0.5061286    0.8464766   -0.1652613
  -0.0029936   -0.0001519    0.0001049   -0.5781179    0.7983003   -0.1688088
  -0.0020444   -0.0003116    0.0029879   -0.8766093    0.4666263   -0.1175416
  -0.0014842    0.0005529    0.0042999   -0.8984279    0.4364489   -0.0483708
  -0.0013404    0.0010164    0.0043353   -0.8986064    0.4348200   -0.0586359
  -0.0012038    0.0004965    0.0049487   -0.8998354    0.4306261    0.0696946
  -0.0022932    0.0008131   -0.0023668   -0.2801461    0.8327148   -0.4776025
   0.0083037   -0.0192570   -0.0057453   -0.9270695   -0.3432154    0.1508157
   0.0105605   -0.0232413   -0.0063601   -0.9701111   -0.1397081    0.1984088
   0.0094442   -0.0217770   -0.0071710   -0.9743249   -0.2185796   -0.0539806
   0.0090259   -0.0208868   -0.0068851   -0.9699640   -0.2387824    0.0463973
   0.0091404   -0.0212707   -0.0073522   -0.9531782   -0.2732780   -0.1295010
   0.0085019   -0.0198975   -0.0070292   -0.9225642   -0.3126889   -0.2260553
   0.0086546   -0.0202146   -0.0071372   -0.9603333   -0.2272804   -0.1615661
   0.0081622   -0.0192334   -0.0060732   -0.9355451   -0.3531000    0.0087082
   0.0072543   -0.0176574   -0.0053606   -0.9283200   -0.3703452    0.0326567
   0.0066938   -0.0168548   -0.0053271   -0.9328470   -0.3558844   -0.0560594
   0.0044948   -0.0133545   -0.0046992   -0.7339058   -0.3985632   -0.5500270
   0.0042264   -0.0129433   -0.0045953   -0.7269059   -0.4383450   -0.5286412
   0.0028251   -0.0119129   -0.0034062   -0.7702765   -0.5515010   -0.3201887
   0.0032386   -0.0119092   -0.0041756   -0.6352549   -0.4837013   -0.6020666
   0.0058514   -0.0142291   -0.0063301   -0.6605615   -0.2673459   -0.7015588
   0.0056261   -0.0147677   -0.0055400   -0.7251354   -0.2938568   -0.6227575
   0.0045994   -0.0130906   -0.0050999   -0.6311508   -0.3668589   -0.6834202
   0.0060887   -0.0156853   -0.0056756   -0.8040767   -0.3122850   -0.5059038
   0.0065805   -0.0166897   -0.0055575   -0.8903115   -0.3485246   -0.2930462
   0.0024939   -0.0115930   -0.0032141   -0.7248326   -0.6269516   -0.2855686
   0.0020307   -0.0114093   -0.0024349   -0.7017149   -0.6701075   -0.2419754
   0.0008576   -0.0107046   -0.0017521   -0.6590705   -0.7468658   -0.0884164
   0.0007375   -0.0106344   -0.0009861   -0.6342018   -0.7602540    0.1407190
   0.0009237   -0.0105570   -0.0025371   -0.6399599   -0.7193587   -0.2701377
   0.0004419   -0.0104139   -0.0004996   -0.5394066   -0.7970525    0.2715656
   0.0200025   -0.0236576   -0.0121181    0.7638547    0.4206024    0.4895096
   0.0203314   -0.0239071   -0.0124739    0.7061966    0.5244450    0.4756510
   0.0202344   -0.0241217   -0.0120395    0.6794084    0.5419038    0.4947166
   0.0197213   -0.0230728   -0.0124351    0.7927890    0.4605516    0.3992215
   0.0206622   -0.0242602   -0.0125941    0.7495281    0.4864583    0.4489610
   0.0193736   -0.0264799   -0.0069000    0.6930987    0.2463127    0.6774542
   0.0202582   -0.0281349   -0.0076685    0.7125234    0.1594543    0.6832897
   0.0200976   -0.0284306   -0.0073047    0.6187941    0.1139117    0.7772503
   0.0207047   -0.0280102   -0.0086508    0.7758884    0.3107320    0.5490380
   0.0204105   -0.0274320   -0.0089762    0.8163437    0.4173754    0.3992251
   0.0216283   -0.0273318   -0.0115342    0.7792626    0.2435950    0.5774178
   0.0215174   -0.0276000   -0.0111379    0.7447702    0.2651440    0.6123855
   0.0214741   -0.0277272   -0.0109315    0.7431327    0.2778076    0.6087502
   0.0215713   -0.0274670   -0.0113371    0.7275162    0.2580624    0.6357074
   0.0217405   -0.0266517   -0.0128683    0.8970495    0.1054827    0.4291569
   0.0216130   -0.0259796   -0.0130837    0.8605634    0.1285931    0.4928432
   0.0210358   -0.0277447   -0.0101785    0.7614931    0.3848480    0.5215556
   0.0214204   -0.0278605   -0.0107324    0.7288568    0.2375932    0.6421194
   0.0211828   -0.0246241   -0.0135614    0.8174505    0.4224487    0.3915504
   0.0214681   -0.0254220   -0.0130712    0.8339126    0.2575658    0.4881082
   0.0208939   -0.0243412   -0.0131728    0.8302087    0.4317834    0.3525857
   0.0208979   -0.0241994   -0.0138374    0.8496822    0.4547128    0.2669763
   0.0185251   -0.0214476   -0.0137695    0.8803203    0.4636399    0.1003705
   0.0184789   -0.0214369   -0.0138824    0.8386725    0.5274413   -0.1357726
   0.0167402   -0.0204460   -0.0143898    0.7277616    0.4834502   -0.4864554
   0.0183266   -0.0218001   -0.0149135    0.7674339    0.4795347   -0.4255486
   0.0179775   -0.0219128   -0.0153344    0.7070734    0.3815576   -0.5953662
   0.0177269   -0.0215512   -0.0150813    0.8072471    0.3720780   -0.4581594
   0.0173098   -0.0212484   -0.0150183    0.9251426    0.2497518   -0.2858939
   0.0185508   -0.0216371   -0.0142853    0.8231389    0.5242984   -0.2180678
   0.0199386   -0.0230247   -0.0138347    0.8601462    0.5037897    0.0796523
   0.0190255   -0.0221523   -0.0143201    0.8853030    0.4629098    0.0441939
   0.0207582   -0.0240717   -0.0136435    0.8234696    0.4918002    0.2828965
   0.0179023   -0.0271582   -0.0050815    0.4120002    0.0088988    0.9111403
   0.0193612   -0.0273332   -0.0065418    0.4967251    0.0952731    0.8626628
   0.0175141   -0.0262996   -0.0046616    0.3697424    0.0810111    0.9255959
   0.0168336   -0.0263140   -0.0042794    0.0556013    0.0909750    0.9942998
   0.0171314   -0.0267213   -0.0044444    0.1602944    0.0323467    0.9865391
   0.0150266   -0.0258759   -0.0039576   -0.2638093    0.1766070    0.9482693
   0.0148374   -0.0252794   -0.0039403   -0.2687066    0.2126360    0.9394587
   0.0163879   -0.0261282   -0.0041106   -0.0977304    0.1094143    0.9891801
   0.0158545   -0.0264434   -0.0040611   -0.1934403    0.1349787    0.9717827
   0.0115938   -0.0218926   -0.0043008    0.2732924   -0.2557539    0.9273086
   0.0115262   -0.0251859   -0.0063048   -0.9530384   -0.0940156    0.2878869
   0.0118355   -0.0245837   -0.0055169   -0.9069951   -0.1408554    0.3968876
   0.0115876   -0.0223604   -0.0045962   -0.8527081   -0.1660020    0.4953103
   0.0119905   -0.0239912   -0.0050025   -0.9060591   -0.0511774    0.4200450
   0.0125159   -0.0243347   -0.0046545   -0.8735512    0.0243984    0.4861204
   0.0132327   -0.0252886   -0.0043238   -0.8302951    0.0335581    0.5563128
   0.0145924   -0.0280607   -0.0047508   -0.7272612   -0.1590276    0.6676836
   0.0136960   -0.0265470   -0.0044858   -0.8125359   -0.1243174    0.5695003
   0.0130591   -0.0253481   -0.0045261   -0.8611562    0.0710299    0.5033534
   0.0133689   -0.0258150   -0.0044254   -0.8186126    0.0655488    0.5705933
   0.0145136   -0.0273414   -0.0044360   -0.6767718   -0.0995254    0.7294345
   0.0139816   -0.0261082   -0.0041304   -0.6284307    0.0404468    0.7768133
   0.0134132   -0.0263787   -0.0046171   -0.8743870   -0.0483489    0.4828144
   0.0144090   -0.0258182   -0.0039625   -0.4131611    0.1519014    0.8978997
   0.0128794   -0.0254115   -0.0047288   -0.9259686   -0.0126621    0.3773881
   0.0058676   -0.0126292   -0.0068174   -0.2608611    0.0082441   -0.9653411
   0.0059785   -0.0132077   -0.0068475   -0.5366666   -0.1839479   -0.8234999
   0.0036174   -0.0112850   -0.0048650   -0.4743081   -0.3055147   -0.8256468
   0.0045184   -0.0108021   -0.0057828   -0.4154078   -0.2096409   -0.8851480
   0.0051372   -0.0106828   -0.0064171   -0.4089702   -0.1513416   -0.8999106
   0.0052974   -0.0127205   -0.0061512   -0.5548788   -0.1674154   -0.8149120
   0.0051654   -0.0098157   -0.0064624   -0.0409397   -0.0591504   -0.9974092
   0.0049299   -0.0095184   -0.0063477   -0.2012413   -0.0992203   -0.9745036
   0.0050132   -0.0094269   -0.0063960   -0.2345005   -0.1230820   -0.9642927
   0.0124519   -0.0170109   -0.0122062   -0.4393851    0.0625575   -0.8961179
   0.0132498   -0.0173814   -0.0129421   -0.1214313    0.1438003   -0.9821283
   0.0128222   -0.0178304   -0.0127471   -0.3386831    0.0862137   -0.9369423
   0.0134915   -0.0177529   -0.0131904    0.0683738    0.1696177   -0.9831352
   0.0144210   -0.0187438   -0.0138214    0.2735335    0.2495363   -0.9289301
   0.0117870   -0.0178366   -0.0116123   -0.3953545    0.0418032   -0.9175769
   0.0105215   -0.0192832   -0.0107700   -0.3824215   -0.0126476   -0.9239014
   0.0119090   -0.0183205   -0.0118371   -0.4106405    0.0716245   -0.9089798
   0.0117398   -0.0197999   -0.0119195   -0.4289447    0.0688801   -0.9007008
   0.0113706   -0.0195988   -0.0115297   -0.3744103    0.0595206   -0.9253509
   0.0110726   -0.0193049   -0.0112142   -0.3365595    0.0455819   -0.9405583
   0.0083670   -0.0172437   -0.0086514   -0.5005209   -0.1124469   -0.8583907
   0.0093111   -0.0195055   -0.0094837   -0.5738485   -0.0542435   -0.8171631
   0.0097325   -0.0196006   -0.0100130   -0.5102642   -0.0435210   -0.8589158
   0.0088590   -0.0187531   -0.0089479   -0.5578046   -0.1054120   -0.8232511
   0.0077077   -0.0167662   -0.0078909   -0.6134628   -0.1676507   -0.7717231
   0.0075770   -0.0161773   -0.0079241   -0.5812772   -0.2220696   -0.7828166
   0.0070712   -0.0153853   -0.0075815   -0.5802244   -0.2092761   -0.7871107
   0.0064171   -0.0148838   -0.0068677   -0.6522837   -0.2370520   -0.7199530
   0.0159598   -0.0199520   -0.0143372    0.6249764    0.4522007   -0.6363325
   0.0168811   -0.0209615   -0.0149401    0.7370982    0.4109973   -0.5364396
   0.0147085   -0.0201716   -0.0146989    0.1470637    0.2998895   -0.9425702
   0.0144548   -0.0198270   -0.0144108    0.1645612    0.2825977   -0.9450176
   0.0156279   -0.0206055   -0.0150526    0.4892652    0.3749195   -0.7874357
   0.0151791   -0.0203644   -0.0149107    0.2831423    0.3104853   -0.9074301
   0.0046271   -0.0098941   -0.0060777   -0.3901458   -0.2040898   -0.8978494
   0.0032726   -0.0087103   -0.0051494   -0.3004210   -0.2418920   -0.9226242
   0.0033953   -0.0077621   -0.0054146   -0.2110879   -0.2685516   -0.9398521
   0.0022343   -0.0097765   -0.0043401   -0.3349184   -0.3618231   -0.8700079
   0.0009656   -0.0092165   -0.0037776   -0.3308735   -0.4278862   -0.8410922
   0.0021162   -0.0078584   -0.0046421   -0.1971681   -0.3232355   -0.9255504
   0.0009182   -0.0069093   -0.0044387   -0.1471755   -0.4241777   -0.8935394
   0.0005934   -0.0072983   -0.0041833   -0.1520046   -0.4197442   -0.8948237
   0.0003695   -0.0067829   -0.0042275    0.3866445   -0.4033402   -0.8293508
   0.0002337   -0.0085861   -0.0035057   -0.2574329   -0.4316124   -0.8645456
   0.0032354   -0.0072182   -0.0054215   -0.1083990   -0.2740547   -0.9555855
   0.0002392   -0.0057988   -0.0045470   -0.0135868   -0.5328286   -0.8461141
   0.0007064   -0.0064278   -0.0045003   -0.1030794   -0.4289936   -0.8974069
  -0.0004184   -0.0045499   -0.0051609    0.0579579   -0.6103327   -0.7900221
   0.0000763   -0.0054608   -0.0046840   -0.0139006   -0.5567166   -0.8305862
  -0.0001045   -0.0053962   -0.0046986    0.0499680   -0.6670085   -0.7433726
  -0.0009095   -0.0018616   -0.0054191   -0.1943011   -0.1502523   -0.9693665
  -0.0013265   -0.0009185   -0.0052532   -0.0476093   -0.0828363   -0.9954253
  -0.0012792   -0.0015730   -0.0052321   -0.1464171   -0.2352702   -0.9608382
  -0.0004455   -0.0042775   -0.0052682   -0.0064096   -0.5295043   -0.8482831
  -0.0008402   -0.0040036   -0.0052460   -0.1303797   -0.4097330   -0.9028400
  -0.0022081   -0.0036672   -0.0045545   -0.2143241   -0.2654901   -0.9399895
  -0.0023616   -0.0019125   -0.0046969   -0.0744959   -0.3742962   -0.9243120
  -0.0017470   -0.0013603   -0.0050605   -0.1044129   -0.2960109   -0.9494606
  -0.0011648   -0.0043808   -0.0049835   -0.2003957   -0.4328574   -0.8789062
  -0.0019734    0.0005125   -0.0039543   -0.1750540    0.6952553   -0.6971199
  -0.0025806    0.0004056   -0.0033089   -0.2162273    0.8284848   -0.5165837
  -0.0025192    0.0005230   -0.0029175   -0.2759194    0.8515299   -0.4458310
  -0.0024450    0.0004054   -0.0035672   -0.1540760    0.7705393   -0.6184898
  -0.0016599   -0.0005979   -0.0050656   -0.0160267    0.0668396   -0.9976350
  -0.0019669    0.0002063   -0.0043680   -0.0883688    0.5607962   -0.8232245
  -0.0018607   -0.0007842   -0.0050328   -0.0788267    0.0019886   -0.9968864
  -0.0021580   -0.0004682   -0.0047655   -0.1177270    0.2252912   -0.9671527
  -0.0022799   -0.0000461   -0.0043984   -0.0906048    0.4260577   -0.9001476
  -0.0015342   -0.0078455    0.0023225   -0.6829351   -0.3256023    0.6538982
  -0.0013252   -0.0045706    0.0046432   -0.7775975    0.0026888    0.6287566
  -0.0025046   -0.0077095    0.0017948   -0.7786532   -0.4218922    0.4644417
  -0.0026034   -0.0068324    0.0026321   -0.6989677   -0.3188261    0.6401516
  -0.0026542   -0.0062467    0.0029663   -0.6910213   -0.1757937    0.7011320
  -0.0015094   -0.0046484    0.0044657   -0.8638992    0.0210855    0.5032231
  -0.0024312   -0.0042460    0.0036916   -0.8569084    0.1638343    0.4887395
  -0.0020944   -0.0053644    0.0036911   -0.8382181    0.1249674    0.5308235
  -0.0034056   -0.0061335    0.0026107   -0.7911922   -0.0499482    0.6095245
  -0.0016768   -0.0041093    0.0044754   -0.8745392    0.1707245    0.4539100
  -0.0023267   -0.0027369    0.0037732   -0.8856520    0.3465843    0.3090306
  -0.0012698   -0.0015805    0.0051206   -0.8987655    0.3000080    0.3197121
  -0.0015557   -0.0020135    0.0047621   -0.9122009    0.3397030    0.2291102
  -0.0012981   -0.0003066    0.0050143   -0.9127261    0.3426560    0.2225261
  -0.0012448   -0.0005722    0.0050663   -0.9200972    0.2881436    0.2653196
  -0.0013272   -0.0012921    0.0049850   -0.9126742    0.3373411    0.2307091
  -0.0000100   -0.0101197    0.0001454   -0.4913152   -0.7125848    0.5008316
  -0.0006318   -0.0092428    0.0014040   -0.5211517   -0.5395364    0.6612876
  -0.0005329   -0.0096542    0.0008765   -0.4564295   -0.6433985    0.6145816
  -0.0010759   -0.0086454    0.0019079   -0.5856083   -0.5421340    0.6026224
  -0.0009084   -0.0085623    0.0020454   -0.3802330   -0.6528085    0.6551824
   0.0002336   -0.0103179   -0.0002041   -0.4950311   -0.7916391    0.3581224
  -0.0034884   -0.0014605    0.0012275   -0.6833433    0.7260902    0.0763869
  -0.0029984   -0.0004108    0.0008387   -0.6578084    0.7477726   -0.0901352
  -0.0033045   -0.0005568    0.0003547   -0.5581520    0.8271215   -0.0658513
  -0.0033696   -0.0019477    0.0018557   -0.7848717    0.5916165    0.1842996
  -0.0023528   -0.0011961    0.0029367   -0.8452739    0.5343330   -0.0003937
  -0.0028429    0.0003920   -0.0027992   -0.2430925    0.8407321   -0.4838135
  -0.0036050   -0.0001393   -0.0027664   -0.3083303    0.8269387   -0.4702178
  -0.0040756   -0.0005144   -0.0016497   -0.3487963    0.8933369   -0.2833554
  -0.0040410   -0.0005970   -0.0010925   -0.4100807    0.9008761   -0.1423240
  -0.0018591   -0.0005386    0.0037993   -0.9120001    0.4100498    0.0107236
  -0.0015073    0.0001969    0.0043685   -0.9049323    0.4248521   -0.0244594
  -0.0016081   -0.0001939    0.0043917   -0.9187974    0.3946092    0.0097438
   0.0103665   -0.0236816   -0.0072943   -0.9914868   -0.1175576    0.0559835
   0.0108569   -0.0247667   -0.0069961   -0.9843288   -0.1089232    0.1386816
   0.0100188   -0.0235689   -0.0082273   -0.9516240   -0.1614496   -0.2614305
   0.0094879   -0.0219204   -0.0083220   -0.9035902   -0.2198091   -0.3677073
   0.0092843   -0.0214624   -0.0081974   -0.9217918   -0.2544805   -0.2924713
   0.0089384   -0.0208461   -0.0071473   -0.9535169   -0.2463977   -0.1734751
   0.0088913   -0.0205153   -0.0079933   -0.9009785   -0.2349296   -0.3647546
   0.0073527   -0.0179057   -0.0059800   -0.9110154   -0.3411399   -0.2316777
   0.0086776   -0.0200806   -0.0078337   -0.8678333   -0.2453764   -0.4320367
   0.0077651   -0.0184712   -0.0070194   -0.8571408   -0.3276504   -0.3974353
   0.0080902   -0.0184510   -0.0079979   -0.7796326   -0.2449816   -0.5763307
   0.0071259   -0.0175627   -0.0056395   -0.9066758   -0.3827910   -0.1772288
   0.0024978   -0.0113537   -0.0037533   -0.6313965   -0.5402758   -0.5562737
   0.0023430   -0.0107214   -0.0040025   -0.4775198   -0.4537579   -0.7523819
   0.0029385   -0.0110910   -0.0043520   -0.4708699   -0.3892713   -0.7916750
   0.0069283   -0.0165178   -0.0068397   -0.7195542   -0.2416577   -0.6510325
   0.0068406   -0.0168894   -0.0061636   -0.8539245   -0.3152311   -0.4140560
   0.0022229   -0.0112460   -0.0034708   -0.6850903   -0.5819223   -0.4381984
   0.0017993   -0.0106957   -0.0035541   -0.5565270   -0.5690413   -0.6053674
   0.0004574   -0.0102537   -0.0023972   -0.6194172   -0.7400880   -0.2619009
   0.0002933   -0.0103942   -0.0008318   -0.6041116   -0.7907326    0.0989506
   0.0001644   -0.0103638   -0.0011514   -0.5961067   -0.8001979   -0.0658802
   0.0008675   -0.0104269   -0.0027719   -0.5610765   -0.6655252   -0.4922086
  -0.0003319   -0.0096825   -0.0023713   -0.5883272   -0.6448237   -0.4879277
   0.0208695   -0.0285577   -0.0086452    0.7066729    0.0523973    0.7055976
   0.0206302   -0.0293808   -0.0080381    0.6769416   -0.0296935    0.7354375
   0.0204295   -0.0292610   -0.0077247    0.5583154   -0.0185719    0.8294209
   0.0199227   -0.0286707   -0.0070970    0.4610621    0.0698568    0.8846139
   0.0201277   -0.0289542   -0.0073250    0.4609462   -0.0394854    0.8865492
   0.0210305   -0.0280559   -0.0094778    0.8197237    0.3349393    0.4646167
   0.0209387   -0.0284153   -0.0088342    0.7709493    0.1629407    0.6157008
   0.0217427   -0.0274337   -0.0118624    0.8892561    0.1225097    0.4406983
   0.0218108   -0.0277672   -0.0117516    0.8523200    0.0440883    0.5211591
   0.0217579   -0.0278989   -0.0115517    0.7969138    0.0512462    0.6019155
   0.0216540   -0.0281633   -0.0111507    0.8019726    0.0453000    0.5956408
   0.0217058   -0.0280310   -0.0113512    0.7989815    0.0563661    0.5987081
   0.0215969   -0.0282984   -0.0109537    0.7878316   -0.0108731    0.6157947
   0.0217205   -0.0260118   -0.0143672    0.9685485   -0.0726686    0.2379769
   0.0217301   -0.0261300   -0.0137408    0.9171045    0.0210309    0.3980918
   0.0219397   -0.0281299   -0.0122391    0.8916520   -0.0573588    0.4490731
   0.0219030   -0.0270976   -0.0130989    0.9215734    0.0658605    0.3825766
   0.0218424   -0.0268331   -0.0135496    0.9572966    0.0401842    0.2863014
   0.0215026   -0.0251954   -0.0135229    0.8991608    0.2227648    0.3766772
   0.0213570   -0.0279980   -0.0105392    0.7382917    0.1809260    0.6497623
   0.0213032   -0.0281311   -0.0103399    0.7959213    0.1807502    0.5777877
   0.0212800   -0.0282479   -0.0101206    0.8668108    0.1746170    0.4670631
   0.0215323   -0.0284374   -0.0107613    0.7714678   -0.0006611    0.6362680
   0.0212271   -0.0246060   -0.0138359    0.8814564    0.3912149    0.2645476
   0.0210676   -0.0243934   -0.0140503    0.8917832    0.4509685    0.0367437
   0.0208485   -0.0240753   -0.0142168    0.8871030    0.4396489    0.1405603
   0.0211833   -0.0245286   -0.0140997    0.8961091    0.4418117    0.0423188
   0.0187155   -0.0217092   -0.0139811    0.8920888    0.4331113    0.1288102
   0.0186274   -0.0226185   -0.0155941    0.7090680    0.3598370   -0.6064156
   0.0190463   -0.0229270   -0.0156414    0.7537806    0.3645876   -0.5467089
   0.0185459   -0.0218571   -0.0147243    0.8036339    0.4785364   -0.3538015
   0.0186643   -0.0231144   -0.0159543    0.6214857    0.2444733   -0.7443039
   0.0182451   -0.0228057   -0.0159075    0.6086828    0.2354815   -0.7576633
   0.0176013   -0.0220871   -0.0156663    0.6101171    0.2844303   -0.7394975
   0.0175564   -0.0216087   -0.0152806    0.6972974    0.4173017   -0.5827826
   0.0173098   -0.0212484   -0.0150183    0.9531684    0.1979484   -0.2286624
   0.0173098   -0.0212484   -0.0150183    0.9479389    0.2036822   -0.2447967
   0.0193932   -0.0228192   -0.0152125    0.8270622    0.4557944   -0.3289675
   0.0203272   -0.0235578   -0.0148441    0.8760774    0.4774013   -0.0676490
   0.0198147   -0.0231702   -0.0151608    0.8588967    0.4725511   -0.1974638
   0.0195444   -0.0228156   -0.0149281    0.8576603    0.5009171   -0.1161930
   0.0185985   -0.0282330   -0.0059686    0.2954803   -0.1404967    0.9449614
   0.0177268   -0.0273591   -0.0049620    0.2567940   -0.0514335    0.9650966
   0.0177659   -0.0279413   -0.0051234    0.2446598   -0.1839496    0.9520001
   0.0191416   -0.0282619   -0.0064142    0.2999248   -0.0091210    0.9539193
   0.0165534   -0.0272520   -0.0043561   -0.0968839   -0.0198994    0.9950967
   0.0170139   -0.0274670   -0.0045358    0.0120489   -0.0830530    0.9964723
   0.0151247   -0.0265442   -0.0040479   -0.4326291    0.0619738    0.8994394
   0.0154227   -0.0269569   -0.0040924   -0.3218591    0.0284126    0.9463612
   0.0149130   -0.0263939   -0.0040183   -0.4205867    0.0440731    0.9061812
   0.0159322   -0.0271663   -0.0041918   -0.1829574    0.0006080    0.9831206
   0.0118020   -0.0253952   -0.0061363   -0.8893370   -0.1311504    0.4380404
   0.0111026   -0.0257548   -0.0074730   -0.9877157   -0.0901673    0.1276225
   0.0112857   -0.0262656   -0.0074388   -0.9896260   -0.0334202    0.1397262
   0.0114677   -0.0259660   -0.0068960   -0.9562336   -0.0619532    0.2859704
   0.0124174   -0.0254419   -0.0055569   -0.9447724   -0.1591154    0.2865089
   0.0125468   -0.0253509   -0.0052824   -0.9476181   -0.1383437    0.2878905
   0.0134360   -0.0269070   -0.0049338   -0.9275319   -0.1390415    0.3469179
   0.0146271   -0.0285621   -0.0051022   -0.7852658   -0.3116714    0.5349940
   0.0150023   -0.0283907   -0.0047674   -0.6529080   -0.2562781    0.7127641
   0.0140501   -0.0282726   -0.0053192   -0.8790954   -0.2442988    0.4092790
   0.0149680   -0.0272723   -0.0042537   -0.5503691   -0.0197170    0.8346886
   0.0147292   -0.0272607   -0.0043192   -0.5726211   -0.0545138    0.8180057
   0.0151888   -0.0277272   -0.0043520   -0.5321555   -0.1099394    0.8394783
   0.0130569   -0.0253524   -0.0045292   -0.8808295    0.0580573    0.4698603
   0.0048758   -0.0103169   -0.0061972   -0.4215578   -0.1797483   -0.8888080
   0.0126071   -0.0187374   -0.0126602   -0.4377524    0.0712276   -0.8962698
   0.0135587   -0.0182873   -0.0134072   -0.0503219    0.1662070   -0.9848060
   0.0134955   -0.0190467   -0.0136039   -0.3254887    0.1331947   -0.9361176
   0.0142623   -0.0188635   -0.0138536    0.1666251    0.2488513   -0.9541012
   0.0108204   -0.0195864   -0.0110614   -0.3983146    0.0226220   -0.9169699
   0.0104020   -0.0221183   -0.0107909   -0.5796571   -0.0487701   -0.8133997
   0.0099799   -0.0206400   -0.0102908   -0.5170739   -0.0314398   -0.8553631
   0.0117277   -0.0204474   -0.0120305   -0.4315799    0.0572195   -0.9002582
   0.0126906   -0.0217852   -0.0133690   -0.5033535    0.1373203   -0.8530993
   0.0129508   -0.0195777   -0.0132059   -0.4603431    0.1191342   -0.8797109
   0.0112155   -0.0204040   -0.0115609   -0.3806514    0.0205879   -0.9244894
   0.0095794   -0.0205331   -0.0097473   -0.6305554   -0.0701533   -0.7729673
   0.0093004   -0.0202540   -0.0093584   -0.6662132   -0.1176129   -0.7364287
   0.0083894   -0.0187178   -0.0083731   -0.6916065   -0.1755457   -0.7006170
   0.0072819   -0.0176005   -0.0068130   -0.8085945   -0.2641948   -0.5257148
   0.0160191   -0.0203980   -0.0147667    0.5820018    0.4261205   -0.6926004
   0.0169452   -0.0210531   -0.0150077    0.6369511    0.4591551   -0.6192495
   0.0163112   -0.0212352   -0.0154187    0.5427807    0.3509376   -0.7630412
   0.0139741   -0.0196578   -0.0141682   -0.0565104    0.2242085   -0.9729014
   0.0149744   -0.0210687   -0.0152662    0.0656963    0.2363047   -0.9694556
   0.0154480   -0.0212538   -0.0154875    0.2996907    0.2629974   -0.9170703
   0.0012594   -0.0104304   -0.0032526   -0.4423907   -0.5460835   -0.7113953
   0.0024161   -0.0105519   -0.0041732   -0.4424462   -0.4161437   -0.7943965
   0.0008078   -0.0093313   -0.0035985   -0.3222483   -0.4531225   -0.8311655
   0.0005045   -0.0066046   -0.0043735   -0.1735600   -0.4470424   -0.8775135
   0.0004504   -0.0071810   -0.0041536    0.1420110   -0.3856189   -0.9116638
  -0.0002681   -0.0073123   -0.0038566   -0.1726651   -0.5098561   -0.8427535
   0.0003695   -0.0067829   -0.0042275    0.8208556   -0.2398459   -0.5183338
   0.0003364   -0.0064737   -0.0043428    0.0627976   -0.4685076   -0.8812248
   0.0003695   -0.0067829   -0.0042275    0.8193629   -0.2844185   -0.4977455
  -0.0002246   -0.0083663   -0.0033335   -0.2473475   -0.4676931   -0.8485767
  -0.0002583   -0.0058542   -0.0044348    0.0189385   -0.5215260   -0.8530252
  -0.0000215   -0.0065416   -0.0041954   -0.0119990   -0.5204646   -0.8537989
  -0.0007832   -0.0043565   -0.0051509   -0.0952937   -0.5200770   -0.8487868
  -0.0007460   -0.0046420   -0.0050194   -0.0928218   -0.6169555   -0.7815050
  -0.0001109   -0.0056316   -0.0045493    0.0040712   -0.5861471   -0.8101944
  -0.0004116   -0.0058059   -0.0044511    0.0038294   -0.6050128   -0.7962066
  -0.0004816   -0.0052368   -0.0047135   -0.0595871   -0.6445294   -0.7622540
  -0.0015627   -0.0011542   -0.0051741   -0.0729648   -0.1684356   -0.9830084
  -0.0025205   -0.0036940   -0.0043674   -0.1932796   -0.2825988   -0.9395642
  -0.0023684   -0.0045968   -0.0042892   -0.2356753   -0.3847219   -0.8924384
  -0.0027556   -0.0016649   -0.0046619   -0.0676374   -0.2801122   -0.9575815
  -0.0025344   -0.0014704   -0.0047717   -0.0788187   -0.2319019   -0.9695407
  -0.0031906   -0.0030648   -0.0041771   -0.0849483   -0.3787645   -0.9215863
  -0.0033408   -0.0023360   -0.0043639   -0.0234700   -0.3666663   -0.9300564
  -0.0031005   -0.0017567   -0.0045255   -0.0375463   -0.2774930   -0.9599937
  -0.0020976   -0.0010199   -0.0049537   -0.0916533   -0.0598483   -0.9939909
  -0.0008899   -0.0048252   -0.0048792   -0.1476070   -0.5807401   -0.8005955
  -0.0025248    0.0002013   -0.0038749   -0.1199593    0.6785007   -0.7247390
  -0.0028866    0.0002420   -0.0032058   -0.3229178    0.8605609   -0.3939024
  -0.0029440    0.0001159   -0.0036013   -0.1870716    0.7400401   -0.6460223
  -0.0027052    0.0003737   -0.0030526   -0.3191768    0.8513743   -0.4162788
  -0.0025873   -0.0000428   -0.0041907   -0.1549564    0.5476937   -0.8222044
  -0.0026734   -0.0009557   -0.0046519   -0.1166790    0.1030024   -0.9878140
  -0.0026788   -0.0003887   -0.0043907    0.0050420    0.3873312   -0.9219268
  -0.0018936   -0.0084761    0.0014999   -0.7604288   -0.3603138    0.5402980
  -0.0031562   -0.0070674    0.0020936   -0.7660584   -0.4273474    0.4801340
  -0.0017908   -0.0089090    0.0011247   -0.7888798   -0.4753341    0.3895205
  -0.0025155   -0.0081853    0.0011937   -0.8569568   -0.3979413    0.3275175
  -0.0033116   -0.0074535    0.0011103   -0.8269738   -0.5184745    0.2174823
  -0.0034105   -0.0072272    0.0015216   -0.7601672   -0.5379338    0.3643805
  -0.0033888   -0.0066754    0.0023141   -0.7886321   -0.2641250    0.5552454
  -0.0022941   -0.0040195    0.0038755   -0.8798189    0.2425472    0.4087659
  -0.0037416   -0.0049331    0.0025611   -0.7896134    0.3824906    0.4798037
  -0.0037707   -0.0057029    0.0024822   -0.8302963    0.1104382    0.5462704
  -0.0027387   -0.0036625    0.0033658   -0.8733792    0.3387682    0.3499214
  -0.0025974   -0.0034428    0.0035466   -0.8803891    0.3589500    0.3099515
  -0.0039571   -0.0063657    0.0020696   -0.8402760   -0.1656493    0.5162330
  -0.0036126   -0.0066244    0.0021371   -0.8363371   -0.1881177    0.5149291
  -0.0024779   -0.0029357    0.0036022   -0.8878858    0.3958781    0.2343914
  -0.0023980   -0.0018580    0.0034052   -0.8742244    0.4630350    0.1460488
  -0.0021885   -0.0021747    0.0037608   -0.8833688    0.4334690    0.1782253
  -0.0019217   -0.0015484    0.0040441   -0.9010175    0.4222128    0.0995180
  -0.0016345   -0.0013569    0.0045348   -0.8924052    0.4172100    0.1718977
  -0.0016718   -0.0010536    0.0044314   -0.9450849    0.3035275    0.1211843
  -0.0000090   -0.0102319   -0.0002238   -0.5973796   -0.7782379    0.1936062
  -0.0008196   -0.0096046    0.0008202   -0.6376612   -0.6536174    0.4076427
  -0.0012709   -0.0090217    0.0013473   -0.6767648   -0.5167517    0.5243636
  -0.0055519   -0.0024461   -0.0000212   -0.6122518    0.7686869    0.1851169
  -0.0037398   -0.0019725    0.0014277   -0.6746877    0.6765444    0.2951001
  -0.0043813   -0.0009475   -0.0008178   -0.4718198    0.8801689   -0.0518547
  -0.0033447   -0.0032346    0.0025515   -0.7975702    0.5002225    0.3371338
  -0.0035608   -0.0023224    0.0018614   -0.7271839    0.6167321    0.3014053
  -0.0025487   -0.0018122    0.0030891   -0.8495735    0.5156057    0.1112460
  -0.0029201    0.0002256   -0.0031333   -0.2482012    0.8389572   -0.4843004
  -0.0035282   -0.0002613   -0.0034182   -0.3067515    0.7352960   -0.6043536
  -0.0039491   -0.0006926   -0.0035180   -0.2776348    0.5912572   -0.7571881
  -0.0040751   -0.0006937   -0.0032748   -0.2614573    0.7370619   -0.6232013
  -0.0030708    0.0001024   -0.0033496   -0.2644535    0.8291494   -0.4925197
  -0.0045199   -0.0008652   -0.0029030   -0.3240848    0.7968068   -0.5099686
  -0.0054823   -0.0015427   -0.0018265   -0.4532186    0.8362310   -0.3087243
  -0.0052864   -0.0014056   -0.0022793   -0.3967766    0.7969034   -0.4555363
  -0.0058103   -0.0019132   -0.0015611   -0.5278592    0.7953406   -0.2979900
  -0.0018116   -0.0010255    0.0041069   -0.9092297    0.4134374    0.0486915
  -0.0019286   -0.0013459    0.0039389   -0.8663475    0.4776964    0.1457676
   0.0107745   -0.0251952   -0.0077446   -0.9950206   -0.0995497   -0.0048833
   0.0102847   -0.0241283   -0.0079995   -0.9916953   -0.1253926   -0.0285847
   0.0098483   -0.0228179   -0.0087058   -0.8761625   -0.2015726   -0.4378445
   0.0103680   -0.0243448   -0.0089070   -0.8911850   -0.1320725   -0.4339886
   0.0103817   -0.0245428   -0.0084289   -0.9640264   -0.1524658   -0.2177322
   0.0101245   -0.0236486   -0.0085445   -0.8685935   -0.1659904   -0.4668968
   0.0092716   -0.0213223   -0.0085418   -0.8669588   -0.2403273   -0.4366065
   0.0093704   -0.0209997   -0.0092063   -0.8033820   -0.1775535   -0.5683767
   0.0089202   -0.0202389   -0.0085672   -0.8242430   -0.1921868   -0.5326234
   0.0070615   -0.0171872   -0.0066205   -0.8625172   -0.2573573   -0.4356964
   0.0023190   -0.0111760   -0.0036966   -0.5503594   -0.5106680   -0.6605473
  -0.0001329   -0.0100676   -0.0019538   -0.5566033   -0.7716881   -0.3077178
  -0.0003676   -0.0101248   -0.0011639   -0.6301695   -0.7685962   -0.1102103
   0.0007824   -0.0100301   -0.0031472   -0.5062011   -0.5848433   -0.6338129
  -0.0007416   -0.0091803   -0.0024803   -0.4634894   -0.6031270   -0.6491651
  -0.0005355   -0.0098047   -0.0019117   -0.6355137   -0.6467361   -0.4217283
  -0.0008484   -0.0094587   -0.0020894   -0.5461411   -0.6512943   -0.5268259
  -0.0004374   -0.0097647   -0.0021211   -0.6010388   -0.6244289   -0.4988395
   0.0210241   -0.0290090   -0.0088811    0.7295312   -0.0394680    0.6828078
   0.0209372   -0.0304420   -0.0089095    0.6837660   -0.1612605    0.7116594
   0.0207855   -0.0300546   -0.0085232    0.6900168   -0.1299770    0.7120273
   0.0203394   -0.0301132   -0.0076889    0.5019007   -0.1397386    0.8535624
   0.0198386   -0.0287817   -0.0070057    0.3751179   -0.0233992    0.9266817
   0.0200245   -0.0292150   -0.0072212    0.4288005   -0.0234141    0.9030957
   0.0212774   -0.0283525   -0.0098878    0.8749824    0.0333765    0.4830029
   0.0212115   -0.0285947   -0.0094619    0.8303614    0.0520878    0.5547854
   0.0218472   -0.0283867   -0.0118303    0.8170643   -0.1200491    0.5639098
   0.0214801   -0.0294172   -0.0107937    0.7872848   -0.1628438    0.5946970
   0.0216561   -0.0255440   -0.0139943    0.9667559    0.0787140    0.2432839
   0.0216787   -0.0262456   -0.0147269    0.9749658   -0.2118855    0.0674252
   0.0217723   -0.0266851   -0.0140766    0.9825704   -0.0985569    0.1576135
   0.0216026   -0.0259052   -0.0148362    0.9985945   -0.0470460    0.0244054
   0.0215930   -0.0253793   -0.0139101    0.9225856    0.1593337    0.3513526
   0.0219421   -0.0286655   -0.0125749    0.8438522   -0.2807414    0.4572721
   0.0219666   -0.0285495   -0.0127935    0.8982817   -0.1820819    0.3999201
   0.0219871   -0.0276907   -0.0131463    0.9187916   -0.0985601    0.3822407
   0.0219150   -0.0284766   -0.0121651    0.8468030   -0.1945352    0.4950562
   0.0219643   -0.0273074   -0.0135106    0.9581598    0.0036057    0.2862110
   0.0213932   -0.0249159   -0.0143728    0.9542208    0.2761972    0.1147944
   0.0214667   -0.0285777   -0.0105701    0.7857751   -0.0083833    0.6184555
   0.0214072   -0.0287135   -0.0103744    0.8150528   -0.0602603    0.5762444
   0.0213536   -0.0288467   -0.0101750    0.8529266   -0.0937668    0.5135406
   0.0207560   -0.0240302   -0.0148152    0.9217999    0.3867625   -0.0264514
   0.0212857   -0.0248212   -0.0147971    0.9753509    0.2206440   -0.0026139
   0.0210484   -0.0245679   -0.0150635    0.9532583    0.2895377   -0.0864092
   0.0190832   -0.0234234   -0.0160005    0.7077413    0.2319169   -0.6673206
   0.0193758   -0.0231366   -0.0155732    0.7836373    0.3214688   -0.5315735
   0.0188793   -0.0235463   -0.0161166    0.5189225    0.0049432   -0.8548070
   0.0182524   -0.0233690   -0.0161734    0.5189044    0.0997041   -0.8489978
   0.0171300   -0.0213164   -0.0152113    0.7409375    0.3687440   -0.5612838
   0.0169907   -0.0224528   -0.0160169    0.4579708    0.1571448   -0.8749676
   0.0176260   -0.0226114   -0.0159882    0.5729404    0.0843485   -0.8152451
   0.0196296   -0.0232030   -0.0154442    0.8004109    0.3524155   -0.4849182
   0.0201884   -0.0235339   -0.0151701    0.8892657    0.3884059   -0.2415519
   0.0204178   -0.0239330   -0.0153770    0.8924488    0.3018145   -0.3353254
   0.0205692   -0.0239239   -0.0151047    0.8994017    0.3541002   -0.2562997
   0.0200317   -0.0235498   -0.0154376    0.8266062    0.2923801   -0.4808702
   0.0177695   -0.0289932   -0.0056755    0.1283919   -0.3523685    0.9270124
   0.0180861   -0.0292951   -0.0061074    0.0556309   -0.3659416    0.9289736
   0.0190089   -0.0290193   -0.0065103    0.0690344   -0.1792229    0.9813834
   0.0173378   -0.0279682   -0.0048647    0.0944511   -0.1536796    0.9835962
   0.0175173   -0.0287449   -0.0053370    0.0669304   -0.3729829    0.9254210
   0.0170978   -0.0285592   -0.0050096   -0.0044363   -0.3041741    0.9526061
   0.0196491   -0.0297755   -0.0070889    0.1400993   -0.1090334    0.9841158
   0.0200082   -0.0298642   -0.0073345    0.2519079   -0.0894750    0.9636060
   0.0160383   -0.0282841   -0.0045623   -0.2213776   -0.1882322    0.9568493
   0.0157950   -0.0278836   -0.0043849   -0.3031029   -0.0919544    0.9485109
   0.0165271   -0.0284709   -0.0047549   -0.1384770   -0.2499640    0.9583017
   0.0153604   -0.0274667   -0.0042557   -0.4200454   -0.0361928    0.9067811
   0.0122750   -0.0260052   -0.0061116   -0.8464556   -0.1415689    0.5132944
   0.0119184   -0.0267151   -0.0067510   -0.8693242   -0.1575502    0.4684586
   0.0109953   -0.0261933   -0.0081656   -0.9979517   -0.0585356    0.0258081
   0.0116997   -0.0275986   -0.0075506   -0.9593991   -0.0047302    0.2820123
   0.0115912   -0.0267788   -0.0072392   -0.9419224   -0.1560993    0.2973469
   0.0113918   -0.0274920   -0.0081760   -0.9987083    0.0174392    0.0477239
   0.0126550   -0.0264026   -0.0060345   -0.8669994   -0.1906376    0.4604013
   0.0128434   -0.0264424   -0.0055780   -0.9797945   -0.1593274    0.1209030
   0.0127981   -0.0264169   -0.0057232   -0.9819573   -0.1755973    0.0701823
   0.0138049   -0.0278239   -0.0052539   -0.9474202   -0.1904460    0.2571486
   0.0150427   -0.0288793   -0.0051374   -0.6384292   -0.3989119    0.6582382
   0.0139435   -0.0287550   -0.0059883   -0.8903613   -0.3558097    0.2840004
   0.0143383   -0.0291189   -0.0059577   -0.8169586   -0.4385448    0.3745092
   0.0146767   -0.0290303   -0.0055043   -0.7477684   -0.4371908    0.4997066
   0.0156253   -0.0285764   -0.0046991   -0.4780259   -0.2864400    0.8303272
   0.0136943   -0.0283202   -0.0058989   -0.9603881   -0.2186986    0.1727007
   0.0134341   -0.0202015   -0.0139745   -0.3874878    0.1653528   -0.9069243
   0.0110630   -0.0205923   -0.0114264   -0.4352316    0.0227360   -0.9000314
   0.0102348   -0.0224183   -0.0104315   -0.7496848   -0.1608230   -0.6419570
   0.0107659   -0.0238355   -0.0108601   -0.7752861   -0.0642921   -0.6283295
   0.0107852   -0.0235849   -0.0109959   -0.7551488   -0.0515408   -0.6535241
   0.0116878   -0.0217513   -0.0122626   -0.4503135    0.1229061   -0.8843709
   0.0099184   -0.0214171   -0.0101991   -0.6706262   -0.0851784   -0.7368888
   0.0110764   -0.0233757   -0.0116732   -0.7071935   -0.0010212   -0.7070193
   0.0112347   -0.0229549   -0.0119596   -0.6095646    0.0719693   -0.7894628
   0.0120905   -0.0218850   -0.0127403   -0.4429984    0.1343171   -0.8864036
   0.0116116   -0.0207047   -0.0119282   -0.4235968    0.0364479   -0.9051173
   0.0127828   -0.0228753   -0.0138308   -0.5744743    0.1877319   -0.7967032
   0.0130486   -0.0213145   -0.0137478   -0.5299931    0.1855297   -0.8274576
   0.0131798   -0.0217032   -0.0141709   -0.5502470    0.2134737   -0.8072529
   0.0161279   -0.0218909   -0.0158443    0.3964208    0.2041494   -0.8950830
   0.0136738   -0.0210581   -0.0145131   -0.3349045    0.2040417   -0.9198946
   0.0140645   -0.0201543   -0.0144246   -0.0855876    0.2244753   -0.9707140
   0.0142205   -0.0223374   -0.0153989   -0.1169590    0.1738698   -0.9777985
   0.0152214   -0.0225876   -0.0160129    0.0707431    0.1474069   -0.9865428
   0.0144902   -0.0209065   -0.0150098   -0.0728309    0.2096020   -0.9750706
   0.0156802   -0.0216470   -0.0157050    0.2591771    0.1835318   -0.9482317
   0.0006458   -0.0097045   -0.0032840   -0.3885262   -0.5217810   -0.7594682
  -0.0003772   -0.0085638   -0.0031793   -0.2764606   -0.4492814   -0.8495386
   0.0001880   -0.0069885   -0.0041124   -0.0781048   -0.4278549   -0.9004664
  -0.0006507   -0.0078346   -0.0034033   -0.2652888   -0.5136379   -0.8159645
  -0.0010776   -0.0077824   -0.0031931   -0.2457202   -0.5839975   -0.7736721
   0.0000290   -0.0068832   -0.0040952    0.1470158   -0.4665474   -0.8721926
  -0.0005429   -0.0079137   -0.0034201   -0.2487771   -0.5358159   -0.8068527
  -0.0014317   -0.0071039   -0.0034824   -0.1567453   -0.5890069   -0.7927810
  -0.0006907   -0.0067657   -0.0039416   -0.0874357   -0.5337295   -0.8411230
  -0.0018311   -0.0075939   -0.0030140   -0.2765410   -0.6515014   -0.7064496
  -0.0006378   -0.0083548   -0.0031276   -0.2531780   -0.5040394   -0.8257392
  -0.0018823   -0.0052607   -0.0042585   -0.1708941   -0.5362246   -0.8265944
  -0.0017520   -0.0050803   -0.0044049   -0.1604659   -0.5613682   -0.8118599
  -0.0018494   -0.0060681   -0.0038573   -0.1366148   -0.5595761   -0.8174417
  -0.0026945   -0.0038939   -0.0042469   -0.1881959   -0.3059120   -0.9332739
  -0.0030179   -0.0042818   -0.0039907   -0.3457789   -0.4168010   -0.8406628
  -0.0033904   -0.0056461   -0.0031654   -0.3370739   -0.4225155   -0.8413453
  -0.0022728   -0.0052695   -0.0040839   -0.2444167   -0.4772169   -0.8441116
  -0.0033607   -0.0039097   -0.0039398   -0.2531015   -0.4561697   -0.8531405
  -0.0029501   -0.0040032   -0.0040944   -0.1106429   -0.3249850   -0.9392246
  -0.0029361   -0.0012117   -0.0045786    0.0566586    0.0171987   -0.9982455
  -0.0032040   -0.0014789   -0.0044866   -0.0911651   -0.0309153   -0.9953558
  -0.0034977   -0.0033018   -0.0040278   -0.0121846   -0.3750095   -0.9269409
  -0.0039773   -0.0025735   -0.0041087   -0.0420082   -0.4127380   -0.9098806
  -0.0035154   -0.0017931   -0.0043757   -0.0944355   -0.1123050   -0.9891762
  -0.0037328   -0.0020178   -0.0042840   -0.0969763   -0.1754894   -0.9796934
  -0.0032895   -0.0015630   -0.0044617   -0.0957429   -0.0294639   -0.9949699
  -0.0027521    0.0000256   -0.0039140   -0.1543711    0.5951094   -0.7886789
  -0.0029852   -0.0001632   -0.0039348   -0.2152336    0.5393372   -0.8141191
  -0.0033831   -0.0002806   -0.0036852   -0.2221218    0.5695751   -0.7913571
  -0.0029299   -0.0006178   -0.0043569    0.8100943    0.1203284   -0.5738190
  -0.0029299   -0.0006178   -0.0043569    0.9440440    0.1340042   -0.3013699
  -0.0028900   -0.0002128   -0.0040906    0.0789786    0.5014223   -0.8615904
  -0.0035151   -0.0068049    0.0020539   -0.7701845   -0.4558359    0.4461272
  -0.0014948   -0.0092246    0.0008528   -0.7318211   -0.5852860    0.3491106
  -0.0024419   -0.0085779    0.0006700   -0.8733395   -0.4738694    0.1128088
  -0.0020823   -0.0089459    0.0005491   -0.7993042   -0.5835380    0.1435137
  -0.0016911   -0.0092313    0.0004890   -0.6776653   -0.7126852    0.1812444
  -0.0029869   -0.0079888    0.0005744   -0.8823993   -0.4696264   -0.0286806
  -0.0039118   -0.0068432    0.0016816   -0.8002039   -0.4461831    0.4007422
  -0.0032891   -0.0076606    0.0003885   -0.8321336   -0.5520538   -0.0528229
  -0.0040736   -0.0068711    0.0014299   -0.8078615   -0.5263972    0.2650770
  -0.0037387   -0.0067896    0.0018969   -0.7891079   -0.3745552    0.4868439
  -0.0041064   -0.0052059    0.0022623   -0.8059861    0.2843052    0.5191888
  -0.0043121   -0.0040952    0.0020154   -0.7311635    0.5035651    0.4602414
  -0.0041142   -0.0037334    0.0020038   -0.5831006    0.6776257    0.4481261
  -0.0037374   -0.0034697    0.0022841   -0.7582127    0.5299989    0.3797561
  -0.0044416   -0.0055584    0.0019551   -0.8476794    0.1505969    0.5086848
  -0.0043272   -0.0059459    0.0019596   -0.8682721   -0.0288131    0.4952508
  -0.0042243   -0.0062087    0.0019126   -0.8679123   -0.0714983    0.4915447
  -0.0042217   -0.0064541    0.0017587   -0.8687510   -0.2291078    0.4390686
  -0.0017760   -0.0013392    0.0042202    0.7912157    0.6057903    0.0836409
  -0.0017760   -0.0013392    0.0042202    0.8819056    0.4614514    0.0964627
  -0.0007457   -0.0099509   -0.0002726   -0.6739515   -0.7347564    0.0769570
  -0.0012644   -0.0095296    0.0004322   -0.7203431   -0.6653059    0.1961477
  -0.0045790   -0.0028394    0.0012259   -0.6634240    0.6576252    0.3569281
  -0.0059697   -0.0028820   -0.0001230   -0.7600779    0.6350947    0.1376094
  -0.0057950   -0.0032215    0.0003155   -0.7398038    0.6231639    0.2536871
  -0.0056011   -0.0033497    0.0005937   -0.7451982    0.5732236    0.3407262
  -0.0056281   -0.0020391   -0.0006865   -0.5516154    0.8314060    0.0669664
  -0.0061271   -0.0028213   -0.0004323   -0.7229814    0.6879216    0.0637315
  -0.0047588   -0.0037320    0.0015083   -0.7242331    0.5314116    0.4394180
  -0.0043425   -0.0035422    0.0017547   -0.7278751    0.5545236    0.4033625
  -0.0057730   -0.0020002   -0.0010060   -0.4948947    0.8622545   -0.1076869
  -0.0034769   -0.0005980   -0.0038975   -0.2139492    0.4191509   -0.8823481
  -0.0037309   -0.0008338   -0.0038514   -0.2235892    0.3668386   -0.9030157
  -0.0040236   -0.0011053   -0.0038003   -0.1960483    0.3376173   -0.9206409
