NORM_ASCII
1288 2572
   0.0036839   -0.0132387   -0.0001661    0.9658614    0.2292144    0.1207167
   0.0036148   -0.0128249   -0.0003728    0.9104133    0.3390370   -0.2370684
   0.0034382   -0.0125351   -0.0005795    0.6521924    0.3539129   -0.6703661
   0.0032354   -0.0124245   -0.0006964    0.3695881    0.6109579   -0.7000964
   0.0034093   -0.0124153   -0.0005644    0.7245538    0.4521632   -0.5201637
   0.0032727   -0.0120893   -0.0004456    0.5662824    0.6341605   -0.5264643
   0.0030629   -0.0120183   -0.0005645    0.4613639    0.5253888   -0.7149195
   0.0028438   -0.0120159   -0.0006584    0.2978044    0.3571036   -0.8853189
   0.0023528   -0.0116174   -0.0008519    0.4117098   -0.0151212   -0.9111895
   0.0025510   -0.0116059   -0.0007330    0.5330195    0.1073028   -0.8392713
   0.0027339   -0.0115958   -0.0005936    0.5806945    0.2844458   -0.7628135
   0.0023338   -0.0157757    0.0019100    0.2367530    0.3685802    0.8989420
  -0.0006097   -0.0150376    0.0018384   -0.3786446    0.2572470    0.8890738
   0.0001318   -0.0150039    0.0019990   -0.1414116    0.1697260    0.9752927
   0.0002911   -0.0145761    0.0019579   -0.2178226    0.0630986    0.9739466
   0.0000786   -0.0141630    0.0019064   -0.2224596    0.0145735    0.9748330
   0.0025803   -0.0145102    0.0012502    0.4470123    0.3221090    0.8345213
   0.0019998   -0.0145214    0.0016683    0.5277088    0.1965330    0.8263765
   0.0011232   -0.0136992    0.0019642    0.1091396    0.0628423    0.9920380
   0.0015111   -0.0136878    0.0018519    0.4245625    0.1268917    0.8964626
   0.0007114   -0.0124492    0.0018842    0.1789591    0.1054769    0.9781862
   0.0002895   -0.0136754    0.0019155   -0.2211875    0.0623222    0.9732379
   0.0004171   -0.0120385    0.0018117   -0.1622351    0.0843827    0.9831375
   0.0001606   -0.0128942    0.0018084   -0.2388088    0.0296907    0.9706126
   0.0029810   -0.0149186    0.0012648    0.3266552    0.3998145    0.8564139
  -0.0019182   -0.0147013    0.0004358   -0.8951838   -0.0072182    0.4456387
  -0.0016697   -0.0146806    0.0008706   -0.8441859    0.1394144    0.5176039
  -0.0015831   -0.0150909    0.0012201   -0.8530377    0.0832414    0.5151675
  -0.0014319   -0.0155001    0.0014839   -0.7478062    0.0016863    0.6639150
  -0.0014316   -0.0150798    0.0014016   -0.7052920    0.1019311    0.7015506
  -0.0013920   -0.0147456    0.0012839   -0.7210809    0.2520662    0.6453719
  -0.0020056   -0.0147103    0.0002068   -0.9684947   -0.1228017    0.2166514
  -0.0020094   -0.0147115    0.0001741   -0.9881626   -0.1473396    0.0427283
  -0.0020012   -0.0142958   -0.0000553   -0.9729699   -0.1194018   -0.1976681
  -0.0018548   -0.0135764   -0.0002533   -0.9284327    0.0339913   -0.3699423
  -0.0019662   -0.0138719   -0.0000554   -0.9889045    0.0032003   -0.1485178
  -0.0014320   -0.0130337   -0.0005372   -0.5287934    0.3054598   -0.7918786
  -0.0012845   -0.0132500   -0.0006917   -0.2875337    0.2812177   -0.9155550
  -0.0016012   -0.0130210   -0.0003851   -0.8236128    0.2197556   -0.5228474
  -0.0018301   -0.0134491   -0.0002457   -0.9515659    0.1712161   -0.2553574
  -0.0007941   -0.0129979   -0.0006249   -0.2917445    0.3130710   -0.9038095
  -0.0007336   -0.0129954   -0.0006456   -0.3306104    0.2158215   -0.9187589
  -0.0010992   -0.0130088   -0.0006007   -0.2083865    0.3947736   -0.8948346
  -0.0004312   -0.0129866   -0.0007251    0.1038976    0.7347510   -0.6703330
  -0.0004317   -0.0129864   -0.0007246   -0.3873559    0.3495255   -0.8531045
  -0.0004312   -0.0129866   -0.0007249   -0.0951888    0.3438292   -0.9341951
  -0.0001722   -0.0125578   -0.0008475   -0.3523452   -0.1507634   -0.9236467
   0.0006825   -0.0116878   -0.0011542   -0.0779164   -0.2191401   -0.9725773
   0.0008670   -0.0112614   -0.0012516   -0.0191256   -0.2137335   -0.9767048
   0.0002447   -0.0121232   -0.0010243   -0.1846034   -0.2297797   -0.9555746
  -0.0012559   -0.0154892    0.0016323   -0.6153369    0.1098538    0.7805720
   0.0031253   -0.0144959    0.0010587    0.3768047    0.3717922    0.8484037
   0.0029895   -0.0148839    0.0012472    0.2952631    0.3872269    0.8734272
   0.0033489   -0.0144908    0.0009357    0.6693449    0.3852894    0.6352397
   0.0033034   -0.0139051    0.0006379    0.6236690    0.4045923    0.6688364
   0.0032086   -0.0140756    0.0008392    0.5350548    0.4403302    0.7209893
   0.0036558   -0.0140791    0.0001030    0.8903580    0.2456169    0.3833209
   0.0032854   -0.0132407    0.0003519    0.7109433    0.3153604    0.6285757
   0.0014288   -0.0120796   -0.0010706    0.1701212   -0.1411785   -0.9752576
   0.0012474   -0.0120864   -0.0010704    0.0365749   -0.1904749   -0.9810105
   0.0036076   -0.0136583    0.0000569    0.8463438    0.2416021    0.4746901
   0.0035822   -0.0132376    0.0000235    0.8236851    0.2207199    0.5223270
   0.0036299   -0.0128209   -0.0002147    0.9168671    0.3652079    0.1611770
   0.0035385   -0.0128177   -0.0000199    0.7585981    0.3194718    0.5678615
   0.0035037   -0.0124040   -0.0003039    0.8862071    0.4627833   -0.0216471
   0.0035033   -0.0124043   -0.0003063    0.8210686    0.4703887   -0.3233896
   0.0035020   -0.0123999   -0.0003049    0.8141081    0.5780789   -0.0552523
   0.0033559   -0.0122072   -0.0001483    0.7359865    0.6243634    0.2617140
   0.0032077   -0.0119951   -0.0003773    0.6459814    0.7000348   -0.3043999
   0.0029032   -0.0116490   -0.0004237    0.6629466    0.6017635   -0.4454015
   0.0025236   -0.0111863   -0.0007784    0.6254017    0.0502387   -0.7786840
   0.0021314   -0.0112071   -0.0010218    0.3611785   -0.1347198   -0.9227137
   0.0022996   -0.0101168   -0.0010728    0.6575112   -0.0743715   -0.7497653
   0.0028813   -0.0115850   -0.0004066    0.8294396    0.3124181   -0.4630603
   0.0027522   -0.0111697   -0.0005290    0.7478219    0.0901971   -0.6577438
   0.0026846   -0.0145091    0.0011952    0.3364461    0.3684659    0.8666238
  -0.0012384   -0.0150682    0.0015271   -0.5222250    0.2265392    0.8221685
  -0.0007777   -0.0147547    0.0016227   -0.5173094    0.2334954    0.8233291
  -0.0003381   -0.0146061    0.0017772   -0.3556986    0.1189050    0.9270060
  -0.0001884   -0.0137539    0.0017971   -0.3981979    0.0269504    0.9169036
   0.0027177   -0.0140876    0.0010608    0.5401060    0.2686278    0.7975742
   0.0024813   -0.0132482    0.0011375    0.6555341    0.1900853    0.7308506
   0.0007790   -0.0124462    0.0018830   -0.0067221    0.1083889    0.9940858
   0.0009944   -0.0124388    0.0018902    0.2236324    0.1199829    0.9672604
   0.0012125   -0.0128530    0.0018949    0.2786159    0.1345520    0.9509306
   0.0017369   -0.0128389    0.0016918    0.5309944    0.1201288    0.8388170
   0.0006988   -0.0120277    0.0018194    0.8296956    0.0840311    0.5518550
   0.0006988   -0.0120277    0.0018194    0.6867842    0.0756720    0.7229116
  -0.0003296   -0.0116498    0.0015763   -0.3770922    0.0299306    0.9256920
  -0.0002946   -0.0120706    0.0016113   -0.3897588    0.0298112    0.9204344
   0.0006632   -0.0116071    0.0017803   -0.0819442    0.0933801    0.9922526
  -0.0000489   -0.0124811    0.0017487   -0.2859636    0.0255678    0.9578993
  -0.0001229   -0.0110368    0.0015667   -0.2747959    0.0718002    0.9588180
   0.0006436   -0.0111861    0.0017294   -0.0522499    0.1171223    0.9917421
  -0.0002707   -0.0124909    0.0016613   -0.4206396   -0.0160903    0.9070851
  -0.0020042   -0.0142914    0.0000852   -0.9840728   -0.0446664    0.1720629
  -0.0017671   -0.0144658    0.0005731   -0.8084266    0.1510480    0.5688857
  -0.0018879   -0.0138728    0.0002335   -0.8526532    0.1205476    0.5083806
  -0.0013990   -0.0142438    0.0010114   -0.7442632    0.2417273    0.6226075
  -0.0011100   -0.0140769    0.0011627   -0.5389671    0.2843696    0.7928735
  -0.0019626   -0.0138572   -0.0000545   -0.9924216    0.1227123   -0.0064088
  -0.0019662   -0.0138709   -0.0000474   -0.9871433    0.0766310    0.1402706
  -0.0012476   -0.0127790   -0.0004474   -0.4196251    0.6237911   -0.6593932
  -0.0015702   -0.0129412   -0.0003715   -0.7831224    0.3927943   -0.4821120
  -0.0016581   -0.0130186   -0.0002388   -0.8981135    0.1239305   -0.4219400
  -0.0018392   -0.0134427   -0.0000054   -0.9773943    0.1817190    0.1080676
  -0.0017993   -0.0133411    0.0000121   -0.9380332    0.2737563    0.2124880
  -0.0016923   -0.0130411   -0.0001888   -0.9546045    0.2972412   -0.0194392
  -0.0008459   -0.0125723   -0.0004812   -0.5669628    0.1665190   -0.8067370
  -0.0009146   -0.0127580   -0.0005106   -0.3565649    0.3992053   -0.8446873
  -0.0005452   -0.0125650   -0.0006550   -0.4920118   -0.0320981   -0.8699966
  -0.0002873   -0.0117190   -0.0009497   -0.4006541   -0.2545171   -0.8801689
  -0.0004936   -0.0117231   -0.0008174   -0.6060132   -0.2576880   -0.7525589
  -0.0006178   -0.0121441   -0.0006209   -0.5138348   -0.1705982   -0.8407557
   0.0001868   -0.0100242   -0.0015040   -0.1510622   -0.2838619   -0.9468910
   0.0002475   -0.0114473   -0.0011594   -0.1805621   -0.2474722   -0.9519216
   0.0005603   -0.0100121   -0.0015442    0.0086265   -0.2508140   -0.9679969
  -0.0000159   -0.0117107   -0.0010465   -0.1203035   -0.2087926   -0.9705322
   0.0027287   -0.0140872    0.0010545    0.3742251    0.3365847    0.8640986
   0.0027797   -0.0136661    0.0009047    0.5546087    0.3401677    0.7594045
   0.0027677   -0.0132472    0.0008038    0.6666615    0.2817509    0.6900571
   0.0029909   -0.0125344    0.0004026    0.6805003    0.3230322    0.6577002
   0.0011528   -0.0108300   -0.0013314    0.1327181   -0.1789988   -0.9748566
   0.0034441   -0.0124006   -0.0000911    0.7768802    0.4927157    0.3920310
   0.0032911   -0.0124022    0.0000706    0.6257707    0.4494053    0.6375311
   0.0031241   -0.0118555   -0.0002925    0.7291091    0.6794631   -0.0820360
   0.0031567   -0.0119861   -0.0000228    0.8003232    0.5377775    0.2651003
   0.0032273   -0.0122268    0.0000273    0.6830417    0.4372750    0.5850167
   0.0029732   -0.0115999   -0.0001415    0.8199012    0.5542446   -0.1434396
   0.0012130   -0.0104066   -0.0014123    0.1733651   -0.2112182   -0.9619415
   0.0018965   -0.0101924   -0.0012912    0.2575402   -0.1917497   -0.9470507
   0.0021548   -0.0092234   -0.0014393    0.4249366   -0.1931104   -0.8843852
   0.0024721   -0.0097109   -0.0009963    0.7733462   -0.0703982   -0.6300633
   0.0024232   -0.0083761   -0.0015763    0.5692282   -0.2329380   -0.7884916
   0.0025268   -0.0090822   -0.0011920    0.8029980   -0.1480382   -0.5773031
   0.0028995   -0.0111556   -0.0002027    0.9567554    0.2609162   -0.1286151
   0.0027597   -0.0103238   -0.0004906    0.9431463    0.1746052   -0.2828218
   0.0029625   -0.0115749   -0.0001488    0.9151963    0.3745397   -0.1487806
   0.0026249   -0.0094932   -0.0008579    0.8808694    0.0359969   -0.4719887
  -0.0010329   -0.0133999    0.0009284   -0.7387593    0.0879134    0.6682110
  -0.0005537   -0.0141963    0.0015997   -0.5669200    0.0700035    0.8207931
  -0.0008851   -0.0133760    0.0011116   -0.7279473    0.0228930    0.6852508
  -0.0005779   -0.0133538    0.0014682   -0.6332696   -0.0331136    0.7732225
   0.0022848   -0.0119857    0.0012172    0.7443166    0.1920837    0.6396066
   0.0011273   -0.0120116    0.0018088    0.1980475    0.1628129    0.9665760
   0.0009756   -0.0120167    0.0018336    0.0471182    0.1604242    0.9859229
   0.0006988   -0.0120277    0.0018194    0.8235113    0.0603325    0.5640826
   0.0017086   -0.0124177    0.0016567    0.3944412    0.1605920    0.9047797
   0.0021276   -0.0119866    0.0013761    0.5840801    0.1474766    0.7981861
   0.0006663   -0.0116078    0.0017807    0.1794897    0.1292999    0.9752256
  -0.0004977   -0.0120822    0.0014989   -0.6141207   -0.0682987    0.7862513
  -0.0005561   -0.0112414    0.0014129   -0.5078935    0.0075566    0.8613867
  -0.0004718   -0.0125032    0.0015460   -0.6197513   -0.0548827    0.7828769
  -0.0002379   -0.0103819    0.0014734   -0.2722682    0.0155636    0.9620955
   0.0006168   -0.0107667    0.0016832   -0.0749648    0.0824049    0.9937755
  -0.0006076   -0.0103994    0.0013178   -0.4990772   -0.0246569    0.8662067
   0.0013517   -0.0107403    0.0016285    0.1715645    0.1274022    0.9769003
  -0.0015618   -0.0138389    0.0005632   -0.7115296    0.2490105    0.6570536
  -0.0016750   -0.0134297    0.0002487   -0.6880593    0.2905090    0.6649653
  -0.0018223   -0.0134405    0.0000621   -0.9057170    0.2101710    0.3681098
  -0.0013717   -0.0129948    0.0002316   -0.7841595    0.3442243    0.5163367
  -0.0011113   -0.0129748    0.0006199   -0.8597576    0.1295876    0.4939878
  -0.0011859   -0.0126260   -0.0001746   -0.6763385    0.6560036   -0.3350006
  -0.0010546   -0.0126380   -0.0003473   -0.5934673    0.5130069   -0.6201778
  -0.0013820   -0.0127316   -0.0002777   -0.6143457    0.7630909   -0.2006782
  -0.0015059   -0.0128118   -0.0000965   -0.7763267    0.6138204    0.1433230
  -0.0016136   -0.0131041    0.0001035   -0.7638382    0.3722067    0.5272698
  -0.0015823   -0.0130080    0.0000433   -0.7267353    0.4689790    0.5019107
  -0.0010211   -0.0125741   -0.0003319   -0.7364021    0.3027929   -0.6050028
  -0.0006170   -0.0122817   -0.0006143   -0.6447199   -0.0633853   -0.7617864
  -0.0009237   -0.0121475   -0.0002978   -0.8281040   -0.0469042   -0.5586087
  -0.0005651   -0.0108836   -0.0009564   -0.5366330   -0.3195941   -0.7809511
  -0.0001971   -0.0108758   -0.0011847   -0.2489388   -0.2445955   -0.9371246
  -0.0006685   -0.0116319   -0.0006724   -0.4202981   -0.2062130   -0.8836434
  -0.0006560   -0.0113041   -0.0007533   -0.6348997   -0.2747836   -0.7220778
  -0.0007101   -0.0113053   -0.0007103   -0.6074874   -0.2852026   -0.7413626
   0.0001049   -0.0089307   -0.0018450   -0.0862197   -0.3142048   -0.9454319
  -0.0000767   -0.0108727   -0.0012247   -0.2621957   -0.2766633   -0.9245057
  -0.0002872   -0.0104575   -0.0012537   -0.3478371   -0.3004585   -0.8881070
  -0.0002975   -0.0092000   -0.0016408   -0.3056567   -0.3518420   -0.8847492
  -0.0001038   -0.0112385   -0.0011167   -0.0747603   -0.2092569   -0.9749987
   0.0012183   -0.0093706   -0.0017027    0.1726385   -0.2638666   -0.9489839
   0.0030432   -0.0119867    0.0001606    0.7819471    0.3421222    0.5210672
   0.0029614   -0.0115744   -0.0001304    0.9117643    0.4106333    0.0081354
   0.0029476   -0.0115694    0.0000888    0.8943175    0.3282445    0.3040589
   0.0017966   -0.0082080   -0.0019292    0.3140769   -0.2604356   -0.9129781
   0.0026938   -0.0090675   -0.0009040    0.9088281   -0.0979244   -0.4055148
   0.0026899   -0.0078211   -0.0016551    0.5771465   -0.2823775   -0.7662669
   0.0026154   -0.0082405   -0.0014739    0.7394491   -0.2965977   -0.6043548
   0.0028693   -0.0082198   -0.0010458    0.8930025   -0.2202606   -0.3924689
   0.0029037   -0.0111494    0.0000453    0.9657232    0.2410102    0.0963995
   0.0028024   -0.0098912   -0.0002460    0.9775119    0.0672080   -0.1998841
   0.0028172   -0.0098856   -0.0000609    0.9830623    0.1637286    0.0823500
  -0.0008903   -0.0126190    0.0009710   -0.8709445   -0.0099500    0.4912807
  -0.0006392   -0.0125136    0.0013862   -0.8051511   -0.0727178    0.5885947
   0.0021039   -0.0115662    0.0013438    0.6586096    0.1489090    0.7376039
   0.0027616   -0.0115645    0.0004772    0.8432717    0.2079194    0.4956434
   0.0016448   -0.0111540    0.0015632    0.4023189    0.1401012    0.9047161
  -0.0007162   -0.0116711    0.0013253   -0.7105476   -0.1187982    0.6935482
  -0.0009925   -0.0116951    0.0008721   -0.8546583   -0.1851633    0.4850503
  -0.0007603   -0.0108301    0.0012206   -0.6893365   -0.0656166    0.7214636
   0.0002882   -0.0099356    0.0015743   -0.1171293    0.0629129    0.9911219
  -0.0004416   -0.0099680    0.0013981   -0.3373013    0.0002733    0.9413967
   0.0008743   -0.0103354    0.0016408    0.0379197    0.1112282    0.9930712
  -0.0009614   -0.0104203    0.0010235   -0.7313582   -0.1235358    0.6707116
  -0.0007063   -0.0091375    0.0012040   -0.5046037   -0.0439701    0.8622307
   0.0015367   -0.0103129    0.0015238    0.3360120    0.1517036    0.9295601
   0.0012809   -0.0098994    0.0015506    0.2028967    0.1352182    0.9698190
   0.0008534   -0.0094935    0.0015423    0.0441913    0.1012416    0.9938799
  -0.0014147   -0.0130300    0.0002094   -0.6373673    0.4128963    0.6505994
  -0.0012268   -0.0128242    0.0003036   -0.9080206    0.2442736    0.3403365
  -0.0013087   -0.0127200    0.0000078   -0.7571692    0.5997120    0.2589213
  -0.0011831   -0.0125694    0.0000700   -0.9103370    0.3787620    0.1668111
  -0.0010157   -0.0125452    0.0007388   -0.8999037   -0.0202006    0.4356206
  -0.0011447   -0.0125614    0.0003368   -0.9700927    0.0550075    0.2364197
  -0.0011508   -0.0125740   -0.0001578   -0.8959860    0.3455474   -0.2789376
  -0.0010129   -0.0121446   -0.0001013   -0.9032459   -0.0889050   -0.4198127
  -0.0010295   -0.0117237   -0.0001299   -0.9114483   -0.1771180   -0.3713370
  -0.0010171   -0.0121749   -0.0001022   -0.9518294    0.1105223   -0.2860167
  -0.0010029   -0.0108848   -0.0003994   -0.9173219   -0.2510024   -0.3090605
  -0.0005191   -0.0096255   -0.0014197   -0.4218268   -0.3793554   -0.8234996
  -0.0008968   -0.0096320   -0.0011361   -0.6262986   -0.3971376   -0.6708441
  -0.0010242   -0.0097156   -0.0009568   -0.7098342   -0.4089872   -0.5734674
  -0.0011542   -0.0096321   -0.0007864   -0.8063293   -0.4073665   -0.4288188
  -0.0004127   -0.0083659   -0.0019107   -0.2317138   -0.3222371   -0.9178627
   0.0004843   -0.0078383   -0.0021780   -0.0617992   -0.2385780   -0.9691550
   0.0010067   -0.0087359   -0.0019290    0.0804394   -0.2823213   -0.9559415
  -0.0008691   -0.0092157   -0.0013856   -0.5307838   -0.4409062   -0.7237888
  -0.0010497   -0.0086754   -0.0015103   -0.4211302   -0.4054993   -0.8113074
   0.0027176   -0.0107224    0.0004142    0.9614484    0.1285391    0.2430940
   0.0027393   -0.0111443    0.0004459    0.8782320    0.2030858    0.4329719
   0.0009452   -0.0078994   -0.0021669    0.0951811   -0.2373502   -0.9667499
   0.0016001   -0.0074538   -0.0021999    0.2183003   -0.2190459   -0.9509805
   0.0022920   -0.0076516   -0.0019278    0.4095116   -0.2542258   -0.8761675
   0.0028686   -0.0086146   -0.0005827    0.9935643   -0.0489239   -0.1021585
   0.0031292   -0.0076789   -0.0007277    0.9811680   -0.1690911   -0.0933676
   0.0028075   -0.0080686   -0.0013783    0.8148908   -0.3138152   -0.4873120
   0.0028998   -0.0075861   -0.0015955    0.6733701   -0.2815028   -0.6836146
   0.0028874   -0.0081396   -0.0010856    0.9089063   -0.2718661   -0.3161933
   0.0027916   -0.0103024    0.0001900    0.9219056    0.2116569    0.3244863
   0.0028345   -0.0088991   -0.0000966    0.9936311    0.0318279    0.1080939
   0.0027312   -0.0102988    0.0004021    0.9507541    0.1331950    0.2798675
   0.0027558   -0.0103020    0.0002811    0.9665093    0.1436463    0.2126628
   0.0027934   -0.0090364    0.0001328    0.9760100    0.1342680    0.1713961
  -0.0010100   -0.0121248    0.0006366   -0.9409764   -0.1226511    0.3154682
   0.0024377   -0.0111398    0.0010167    0.7788384    0.1419105    0.6109600
   0.0018752   -0.0107261    0.0014247    0.4928728    0.1542934    0.8563118
   0.0026984   -0.0111426    0.0005218    0.9227475    0.1509236    0.3546254
  -0.0010662   -0.0117046    0.0005862   -0.9671048   -0.2095817    0.1441662
  -0.0011046   -0.0104327    0.0007520   -0.9161792   -0.2158708    0.3376619
   0.0001301   -0.0082527    0.0014578   -0.1242663    0.0224379    0.9919952
  -0.0010380   -0.0095798    0.0009617   -0.6931601   -0.0957298    0.7143983
  -0.0011417   -0.0100111    0.0007984   -0.8544605   -0.1958484    0.4811868
  -0.0002958   -0.0082730    0.0013442   -0.3065562   -0.0446703    0.9508038
  -0.0012654   -0.0087488    0.0007181   -0.7853326   -0.1540807    0.5995931
  -0.0009776   -0.0083061    0.0010188   -0.5849232   -0.1370699    0.7994227
   0.0017730   -0.0090413    0.0012908    0.3703760    0.1591268    0.9151504
   0.0010401   -0.0086413    0.0014755    0.1089348    0.0660957    0.9918491
  -0.0011268   -0.0124357    0.0000951   -0.9938057    0.0609825   -0.0929055
  -0.0010623   -0.0121357    0.0003356   -0.9866126   -0.0787854    0.1427884
  -0.0010933   -0.0112973    0.0000609   -0.9825848   -0.1713691   -0.0718311
  -0.0011333   -0.0108732    0.0001848   -0.9744505   -0.1915948   -0.1172080
  -0.0012461   -0.0096308   -0.0005912   -0.8934858   -0.4083815   -0.1868361
  -0.0012353   -0.0100222    0.0005400   -0.9581789   -0.2610843    0.1171673
  -0.0009363   -0.0096324   -0.0010904   -0.6492742   -0.4226145   -0.6323291
  -0.0013298   -0.0088032   -0.0011672   -0.6776306   -0.5083971   -0.5313654
  -0.0012903   -0.0092176   -0.0008804   -0.8167329   -0.4775088   -0.3239333
  -0.0001691   -0.0080431   -0.0020372   -0.1820827   -0.2292067   -0.9561957
  -0.0007906   -0.0079571   -0.0018921   -0.2793903   -0.3066009   -0.9099104
  -0.0001926   -0.0070982   -0.0021902   -0.1381529   -0.2260067   -0.9642794
   0.0007791   -0.0066439   -0.0024182   -0.0342558   -0.1845833   -0.9822197
   0.0011748   -0.0070493   -0.0023255    0.1193885   -0.1584797   -0.9801176
  -0.0015060   -0.0083894   -0.0012835   -0.6338216   -0.4990355   -0.5909600
  -0.0013494   -0.0079717   -0.0016333   -0.4279597   -0.4467411   -0.7856672
   0.0027176   -0.0107224    0.0004142    0.9964699    0.0419283    0.0727313
   0.0027176   -0.0107224    0.0004142    0.9945212    0.0441972    0.0947320
   0.0023172   -0.0074219   -0.0020066    0.4026936   -0.2482030   -0.8810409
   0.0017517   -0.0070258   -0.0022543    0.1716953   -0.1770833   -0.9691038
   0.0023297   -0.0065805   -0.0022018    0.2641864   -0.1761249   -0.9482539
   0.0028905   -0.0086213   -0.0003244    0.9968817   -0.0455230   -0.0644557
   0.0029736   -0.0080673   -0.0000586    0.9816148   -0.0855031    0.1706507
   0.0032498   -0.0073627   -0.0011675    0.9271713   -0.3205814   -0.1938582
   0.0031855   -0.0073368   -0.0000990    0.9658895   -0.2227996    0.1319765
   0.0029299   -0.0073886   -0.0016738    0.6003678   -0.2636550   -0.7550130
   0.0030898   -0.0073980   -0.0014998    0.7946759   -0.3203595   -0.5156161
   0.0027456   -0.0084888    0.0003271    0.9315541    0.0302011    0.3623464
   0.0028718   -0.0081863    0.0001365    0.9470621   -0.0671839    0.3139421
   0.0026502   -0.0107194    0.0006229    0.9248502    0.1269226    0.3585285
   0.0026238   -0.0085966    0.0005104    0.8153236    0.0811986    0.5732837
   0.0025092   -0.0094529    0.0007325    0.7573584    0.1604674    0.6329759
   0.0020033   -0.0090375    0.0011720    0.5797888    0.1685658    0.7971390
  -0.0011037   -0.0112926    0.0003011   -0.9708733   -0.2313453    0.0623247
   0.0008331   -0.0078036    0.0014529    0.0183086    0.0117445    0.9997634
   0.0002834   -0.0074018    0.0014726   -0.0788118   -0.0158310    0.9967638
  -0.0013310   -0.0091799    0.0005042   -0.9080341   -0.2186112    0.3573279
  -0.0006298   -0.0078645    0.0012394   -0.2932404   -0.0938744    0.9514188
  -0.0014784   -0.0083409    0.0004498   -0.7571549   -0.2312236    0.6109436
  -0.0014931   -0.0087712    0.0002157   -0.8819714   -0.3072501    0.3573848
  -0.0011765   -0.0078964    0.0008415   -0.7249192   -0.2280145    0.6500012
  -0.0003741   -0.0065818    0.0014193   -0.2561916   -0.1483626    0.9551725
  -0.0010017   -0.0067328    0.0011300   -0.4038757   -0.2154939    0.8890707
  -0.0012140   -0.0066342    0.0010083   -0.5460851   -0.2189334    0.8086156
  -0.0012611   -0.0074757    0.0008499   -0.6869791   -0.2397550    0.6859864
   0.0012131   -0.0082129    0.0014354    0.2934586    0.0613888    0.9539987
   0.0021837   -0.0086127    0.0010060    0.5815742    0.1015514    0.8071300
   0.0008758   -0.0073801    0.0014491    0.1116268    0.0079127    0.9937187
  -0.0013177   -0.0096069    0.0003510   -0.9299374   -0.3448077    0.1277657
  -0.0014489   -0.0092047   -0.0002314   -0.9076075   -0.4103297   -0.0887592
  -0.0016084   -0.0083882   -0.0010942   -0.8114611   -0.5234264   -0.2599146
  -0.0014763   -0.0089415   -0.0005045   -0.8826531   -0.4583909   -0.1039291
  -0.0010320   -0.0071255   -0.0020633   -0.1118072   -0.2484058   -0.9621818
  -0.0013140   -0.0071339   -0.0019725   -0.3805213   -0.3490554   -0.8563667
  -0.0008151   -0.0066990   -0.0022087   -0.1377104   -0.2574195   -0.9564367
   0.0005255   -0.0062334   -0.0024748   -0.0829574   -0.2131378   -0.9734939
  -0.0011168   -0.0058671   -0.0023529   -0.1829049   -0.2441249   -0.9523386
   0.0009568   -0.0062158   -0.0024840    0.1024662   -0.1395591   -0.9848979
   0.0007380   -0.0053820   -0.0026090   -0.0356198   -0.1381598   -0.9897692
   0.0013355   -0.0062031   -0.0024759    0.0731084   -0.1841137   -0.9801823
   0.0010505   -0.0065262   -0.0024178    0.1358334   -0.1507652   -0.9791931
  -0.0015468   -0.0082720   -0.0013112   -0.6201385   -0.5226917   -0.5849971
  -0.0015079   -0.0079757   -0.0015489   -0.4840942   -0.4473713   -0.7520051
   0.0027666   -0.0069785   -0.0019211    0.5021775   -0.2029182   -0.8406200
   0.0025625   -0.0068356   -0.0020620    0.3792450   -0.1902078   -0.9055353
   0.0016055   -0.0061912   -0.0024527    0.1529239   -0.1672468   -0.9739830
   0.0025887   -0.0061480   -0.0022310    0.3579268   -0.1554460   -0.9207198
   0.0017440   -0.0053447   -0.0025815    0.1608756   -0.1713389   -0.9719887
   0.0030596   -0.0073319    0.0002008    0.9011518   -0.0914788    0.4237419
   0.0032852   -0.0068374    0.0000567    0.8842716   -0.1650373    0.4368368
   0.0035287   -0.0068455   -0.0010373    0.8873154   -0.4611031   -0.0074341
   0.0034481   -0.0069358   -0.0012969    0.9126478   -0.3666697   -0.1806302
   0.0034388   -0.0069375   -0.0013285    0.8573256   -0.3467770   -0.3804452
   0.0033279   -0.0069479   -0.0015205    0.7374959   -0.2814961   -0.6138890
   0.0034446   -0.0069094   -0.0003438    0.9242357   -0.2977041    0.2390829
   0.0029653   -0.0064791    0.0006011    0.7357090   -0.1569441    0.6588633
   0.0024209   -0.0077620    0.0008518    0.6580264    0.0142458    0.7528601
   0.0010077   -0.0065284    0.0014924    0.0768712   -0.0797847    0.9938437
  -0.0000114   -0.0069898    0.0014416   -0.0866767   -0.0829376    0.9927782
  -0.0016788   -0.0078048    0.0003147   -0.6680421   -0.2234700    0.7097753
  -0.0018922   -0.0075194    0.0001584   -0.7255291   -0.3533507    0.5905513
  -0.0017835   -0.0079389    0.0000956   -0.8356714   -0.4265657    0.3459698
  -0.0015446   -0.0087904   -0.0000574   -0.9141396   -0.3932910    0.0983411
   0.0003220   -0.0061290    0.0015586   -0.0164793   -0.1596621    0.9870342
  -0.0002395   -0.0060298    0.0015176   -0.1317388   -0.2042012    0.9700241
  -0.0006068   -0.0065550    0.0013392   -0.2883693   -0.2214766    0.9315532
  -0.0012062   -0.0057923    0.0012195   -0.4094186   -0.3309155    0.8502184
  -0.0018770   -0.0062367    0.0006591   -0.4256311   -0.3593534    0.8304838
  -0.0015026   -0.0070670    0.0007067   -0.5983937   -0.3083075    0.7395076
   0.0018092   -0.0077735    0.0012523    0.4089642    0.0341873    0.9119098
   0.0015497   -0.0074897    0.0013421    0.3034812    0.0355092    0.9521756
   0.0020557   -0.0073445    0.0011226    0.5089974    0.0251613    0.8604003
   0.0016271   -0.0069317    0.0013589    0.3020453   -0.0299473    0.9528231
  -0.0017163   -0.0083744   -0.0004170   -0.8650960   -0.4998172    0.0423286
  -0.0018502   -0.0079583   -0.0005101   -0.8200121   -0.5708462   -0.0414102
  -0.0019366   -0.0075745   -0.0013126   -0.7090265   -0.5659795   -0.4206525
  -0.0018362   -0.0079122   -0.0009957   -0.8143139   -0.5723438   -0.0965171
  -0.0014186   -0.0067169   -0.0020493   -0.3204175   -0.3209498   -0.8912485
  -0.0012535   -0.0062914   -0.0022239   -0.1857731   -0.2416227   -0.9524216
  -0.0011520   -0.0066651   -0.0021507   -0.0186346   -0.2087700   -0.9777872
  -0.0016796   -0.0071398   -0.0017398   -0.4998156   -0.3644208   -0.7857365
  -0.0011288   -0.0062884   -0.0022551   -0.1835077   -0.2637896   -0.9469636
  -0.0008096   -0.0054385   -0.0025099   -0.1694886   -0.1558602   -0.9731296
  -0.0014934   -0.0058785   -0.0022338   -0.2880461   -0.2761162   -0.9169456
  -0.0017103   -0.0054643   -0.0022681   -0.3338384   -0.2347745   -0.9129255
   0.0010566   -0.0062130   -0.0024870    0.0142514   -0.1765292   -0.9841922
   0.0010106   -0.0049511   -0.0026712   -0.0360685   -0.0580442   -0.9976622
  -0.0008203   -0.0050166   -0.0025351   -0.1698994   -0.0011675   -0.9854607
   0.0013281   -0.0057988   -0.0025443    0.0596091   -0.1502270   -0.9868529
  -0.0018041   -0.0075614   -0.0014857   -0.6026308   -0.4585523   -0.6531201
   0.0034209   -0.0061060   -0.0018080    0.5565403   -0.1866251   -0.8095887
   0.0025743   -0.0053360   -0.0023702    0.3234281   -0.1731887   -0.9302687
   0.0018733   -0.0049197   -0.0026722    0.1749075   -0.1051886   -0.9789498
   0.0035278   -0.0064774   -0.0000719    0.8439732   -0.3041748    0.4417996
   0.0036546   -0.0065612   -0.0004897    0.8513193   -0.4533938    0.2639877
   0.0040972   -0.0062698   -0.0007510    0.8158826   -0.5677301    0.1096269
   0.0036485   -0.0067122   -0.0012232    0.8376610   -0.4615034   -0.2921277
   0.0038212   -0.0064946   -0.0011102    0.8140821   -0.5749828   -0.0816403
   0.0034599   -0.0069100   -0.0013181    0.8370371   -0.4096019   -0.3627606
   0.0035010   -0.0065193   -0.0015591    0.7216543   -0.2845359   -0.6310740
   0.0021746   -0.0064938    0.0011492    0.4985629   -0.0825376    0.8629152
   0.0035834   -0.0063728   -0.0000462    0.7548612   -0.4624143    0.4651425
   0.0036053   -0.0060445    0.0001968    0.6642854   -0.4302599    0.6112293
   0.0034922   -0.0059272    0.0003743    0.5887116   -0.3655217    0.7209803
   0.0030340   -0.0051956    0.0010715    0.5247485   -0.3108092    0.7924876
   0.0008268   -0.0058749    0.0016066    0.1254747   -0.1479152    0.9810083
  -0.0020691   -0.0075352   -0.0001585   -0.7994665   -0.5290570    0.2845208
  -0.0019644   -0.0077101   -0.0000928   -0.7876686   -0.4854546    0.3793574
  -0.0021908   -0.0071124    0.0000008   -0.6742708   -0.4752640    0.5652283
   0.0001992   -0.0057076    0.0016406    0.0123258   -0.1809475    0.9834155
  -0.0005648   -0.0057401    0.0015100   -0.2235583   -0.2983811    0.9278957
  -0.0002323   -0.0051800    0.0017280   -0.0346403   -0.2851487    0.9578571
  -0.0017177   -0.0049421    0.0013508   -0.2338932   -0.5240547    0.8189388
  -0.0017460   -0.0053746    0.0010870   -0.3470848   -0.4805759    0.8053440
  -0.0018227   -0.0057575    0.0008786   -0.3445428   -0.4019104    0.8483857
  -0.0020609   -0.0062692    0.0005251   -0.4810066   -0.4346882    0.7613664
  -0.0021700   -0.0053944    0.0008862   -0.1996680   -0.5194958    0.8308169
  -0.0023821   -0.0058353    0.0005737   -0.3118891   -0.5518979    0.7733912
  -0.0024583   -0.0066995   -0.0000169   -0.6228202   -0.5309200    0.5746468
   0.0016841   -0.0065057    0.0013570    0.3605477   -0.1315191    0.9234219
  -0.0021971   -0.0073562   -0.0002373   -0.7402320   -0.5870416    0.3277785
  -0.0020643   -0.0075476   -0.0006468   -0.7484721   -0.6613982   -0.0483941
  -0.0019899   -0.0076155   -0.0008485   -0.7305654   -0.6824898   -0.0219514
  -0.0023625   -0.0071282   -0.0003389   -0.7379061   -0.6425566    0.2064353
  -0.0020755   -0.0074701   -0.0011481   -0.7113768   -0.6710436   -0.2089104
  -0.0021925   -0.0069223   -0.0014836   -0.5175544   -0.4776834   -0.7098986
  -0.0022624   -0.0071494   -0.0012658   -0.5875586   -0.6346772   -0.5019560
  -0.0021881   -0.0063141   -0.0017548   -0.4255501   -0.3727835   -0.8245845
  -0.0016154   -0.0058814   -0.0021965   -0.2306198   -0.2758337   -0.9331293
  -0.0015229   -0.0062053   -0.0021307   -0.1419296   -0.2334474   -0.9619554
  -0.0024888   -0.0067386   -0.0014095   -0.4843494   -0.4817667   -0.7302784
  -0.0018918   -0.0050482   -0.0022496   -0.3242424   -0.0671430   -0.9435882
  -0.0025470   -0.0059046   -0.0017257   -0.4530156   -0.3385162   -0.8247325
  -0.0022333   -0.0050564   -0.0020833   -0.4361802   -0.1810246   -0.8814629
   0.0018220   -0.0044982   -0.0026858    0.0891932    0.0871415   -0.9921950
   0.0008726   -0.0042689   -0.0026201   -0.1393988    0.1045205   -0.9847048
   0.0003801   -0.0048626   -0.0026183   -0.1293926    0.0956318   -0.9869712
   0.0013808   -0.0038793   -0.0026033   -0.0303565    0.1939078   -0.9805500
  -0.0007224   -0.0045881   -0.0025012   -0.1664465    0.1591149   -0.9731280
  -0.0009947   -0.0044162   -0.0024132   -0.2480227    0.1677253   -0.9541242
   0.0035570   -0.0064844   -0.0015301    0.6776438   -0.3264374   -0.6589670
   0.0037894   -0.0060852   -0.0015330    0.6634223   -0.1955463   -0.7222413
   0.0037510   -0.0063514   -0.0014295    0.7184728   -0.3365872   -0.6086920
   0.0038202   -0.0048232   -0.0018199    0.6387466    0.0100480   -0.7693515
   0.0039765   -0.0056527   -0.0014810    0.7230184   -0.1120515   -0.6816809
   0.0028228   -0.0048766   -0.0024059    0.3724402   -0.0744482   -0.9250653
   0.0023253   -0.0044760   -0.0025470    0.2595254    0.0865944   -0.9618461
   0.0040272   -0.0063226   -0.0010328    0.8190983   -0.5164542   -0.2497060
   0.0042406   -0.0060514   -0.0009274    0.9123359   -0.3696018   -0.1761750
   0.0042805   -0.0060033   -0.0006621    0.9141488   -0.4000949    0.0652389
   0.0041849   -0.0060399   -0.0004674    0.8061643   -0.5107141    0.2987812
   0.0038161   -0.0064953   -0.0011411    0.8168180   -0.4774105   -0.3238635
   0.0039338   -0.0060392   -0.0001145    0.6715347   -0.5276001    0.5202685
   0.0042655   -0.0055910    0.0000478    0.7170410   -0.4463358    0.5353844
   0.0039965   -0.0054884    0.0003866    0.5737538   -0.4417580    0.6896785
   0.0035019   -0.0051834    0.0008371    0.4871673   -0.4043863    0.7740412
   0.0026434   -0.0050895    0.0013426    0.4956640   -0.3054649    0.8130242
   0.0034305   -0.0049243    0.0010315    0.4973262   -0.3849215    0.7774973
   0.0028623   -0.0043326    0.0016741    0.5186940   -0.2836272    0.8065434
   0.0014829   -0.0060869    0.0014861    0.2412611   -0.2097015    0.9475328
   0.0013435   -0.0055856    0.0016320    0.1337341   -0.2183667    0.9666598
  -0.0010016   -0.0044796    0.0018463   -0.1223594   -0.4161244    0.9010376
  -0.0000188   -0.0043620    0.0020540   -0.0207207   -0.3521608    0.9357101
   0.0012075   -0.0045803    0.0020026    0.1345405   -0.3406887    0.9304999
  -0.0019904   -0.0049561    0.0012406   -0.1806622   -0.6302243    0.7551016
  -0.0014998   -0.0044376    0.0017325   -0.1587079   -0.5186834    0.8401067
  -0.0022896   -0.0047912    0.0013137   -0.1606017   -0.6044802    0.7802633
  -0.0019902   -0.0052844    0.0010100   -0.2370726   -0.5175426    0.8221595
  -0.0027989   -0.0062896   -0.0000276   -0.5003069   -0.5858005    0.6375977
  -0.0029362   -0.0053118    0.0007357   -0.2309237   -0.5184603    0.8233305
  -0.0030971   -0.0054389    0.0005893   -0.2982030   -0.5585858    0.7739876
  -0.0025388   -0.0051655    0.0009478   -0.2062921   -0.5497910    0.8094279
  -0.0024909   -0.0048321    0.0012047   -0.2259583   -0.5697617    0.7901357
  -0.0030401   -0.0058748    0.0002130   -0.3634012   -0.6923921    0.6233239
  -0.0024246   -0.0070652   -0.0003759   -0.6299954   -0.7137034    0.3061589
   0.0023236   -0.0052793    0.0014210    0.4101028   -0.2852288    0.8662911
  -0.0023704   -0.0071491   -0.0010793   -0.6062664   -0.7588754   -0.2378009
  -0.0024283   -0.0071372   -0.0006208   -0.5727261   -0.8144102    0.0933855
  -0.0026500   -0.0067407   -0.0012523   -0.5954376   -0.5905909   -0.5446618
  -0.0029476   -0.0058451   -0.0014574   -0.5508702   -0.4034614   -0.7305895
  -0.0019856   -0.0046269   -0.0022062   -0.3508658    0.0588508   -0.9345747
  -0.0029280   -0.0050731   -0.0017282   -0.5189288   -0.2729827   -0.8100576
  -0.0029638   -0.0046525   -0.0017674   -0.5293743   -0.1029825   -0.8421149
   0.0022185   -0.0040568   -0.0025300    0.1769974    0.2215635   -0.9589481
  -0.0001424   -0.0041373   -0.0024481   -0.1892569    0.1640368   -0.9681290
   0.0005620   -0.0041195   -0.0025520   -0.1893919    0.1702816   -0.9670237
   0.0010776   -0.0036769   -0.0025340   -0.1686632    0.2078202   -0.9635162
  -0.0004817   -0.0040836   -0.0023916   -0.0076761    0.2246552   -0.9744081
   0.0017497   -0.0033718   -0.0024235    0.1204613    0.3648226   -0.9232516
   0.0013450   -0.0032390   -0.0024072   -0.0768995    0.2792733   -0.9571274
  -0.0012044   -0.0041777   -0.0022940   -0.2625242    0.2288030   -0.9374061
  -0.0006301   -0.0037319   -0.0022617   -0.2355806    0.2277823   -0.9447841
   0.0039409   -0.0061673   -0.0013333    0.7767394   -0.2926909   -0.5576808
   0.0044574   -0.0049417   -0.0011051    0.8210867    0.0073172   -0.5707566
   0.0044054   -0.0042879   -0.0011634    0.7777323    0.1598878   -0.6079213
   0.0042196   -0.0039486   -0.0013662    0.7101164    0.2926628   -0.6403774
   0.0038974   -0.0039706   -0.0017033    0.5878152    0.3248873   -0.7408924
   0.0036075   -0.0044124   -0.0020011    0.5535810    0.1159920   -0.8246781
   0.0032132   -0.0044345   -0.0022422    0.4227626    0.0430962   -0.9052152
   0.0044288   -0.0056207   -0.0009346    0.8874144   -0.1645714   -0.4305950
   0.0042269   -0.0060530   -0.0009668    0.8480478   -0.2740881   -0.4535313
   0.0031536   -0.0040135   -0.0022441    0.3625495    0.2281674   -0.9036025
   0.0044602   -0.0056169   -0.0008267    0.9601338   -0.1664402   -0.2245903
   0.0044895   -0.0056094   -0.0005649    0.9772045   -0.2122906   -0.0020211
   0.0044636   -0.0056040   -0.0003337    0.9132648   -0.3398749    0.2245715
   0.0042141   -0.0058833   -0.0002125    0.7624851   -0.5067958    0.4022119
   0.0043122   -0.0052420    0.0003032    0.7237404   -0.3468729    0.5965560
   0.0043943   -0.0055698   -0.0001280    0.8698601   -0.3175969    0.3774594
   0.0044584   -0.0051673    0.0001346    0.8848437   -0.1989758    0.4212603
   0.0040360   -0.0050491    0.0006336    0.6146150   -0.2860961    0.7351173
   0.0038929   -0.0048897    0.0007933    0.5397588   -0.2912932    0.7898156
   0.0035201   -0.0047538    0.0010731    0.5792334   -0.2172825    0.7856698
   0.0023928   -0.0042746    0.0019040    0.3680620   -0.3314430    0.8687209
   0.0032735   -0.0043318    0.0014093    0.6074982   -0.1621463    0.7775953
   0.0033138   -0.0041586    0.0014235    0.7368315   -0.0714351    0.6722919
   0.0025382   -0.0039203    0.0019680    0.4320153   -0.1274611    0.8928138
   0.0031795   -0.0039061    0.0015833    0.6204064    0.0083518    0.7842361
   0.0018500   -0.0051705    0.0016463    0.3012784   -0.3064689    0.9029441
  -0.0003130   -0.0035951    0.0022976   -0.0387032   -0.2440914    0.9689796
  -0.0013419   -0.0036374    0.0021367   -0.1519402   -0.2791164    0.9481604
  -0.0013009   -0.0043673    0.0018389   -0.0914930   -0.4645538    0.8808058
   0.0003870   -0.0039945    0.0022122    0.0273950   -0.2811945    0.9592597
   0.0020633   -0.0043447    0.0019716    0.2810130   -0.3169322    0.9058618
   0.0019706   -0.0039366    0.0021475    0.2444866   -0.2109707    0.9464236
   0.0018812   -0.0046270    0.0018841    0.2654139   -0.3692114    0.8906393
   0.0009464   -0.0039731    0.0022326    0.0882735   -0.2645461    0.9603245
  -0.0021852   -0.0045334    0.0015091   -0.2861156   -0.3940421    0.8734236
  -0.0014357   -0.0040688    0.0019605    0.0590909   -0.4322957    0.8997937
  -0.0016586   -0.0040801    0.0018745    0.7965687   -0.3053245    0.5217808
  -0.0018574   -0.0041485    0.0017679   -0.0401954   -0.4285139    0.9026407
  -0.0023997   -0.0045442    0.0014117   -0.3998057   -0.3625067    0.8418695
  -0.0027951   -0.0066150   -0.0003550   -0.5414646   -0.6841032    0.4886910
  -0.0029492   -0.0063106   -0.0002084   -0.5665421   -0.5763923    0.5888989
  -0.0031043   -0.0063108   -0.0003870   -0.5602100   -0.6830522    0.4686197
  -0.0032521   -0.0050183    0.0007142   -0.4614869   -0.3577034    0.8118363
  -0.0028417   -0.0049968    0.0009332   -0.3718339   -0.3966598    0.8392857
  -0.0032860   -0.0054484    0.0004584   -0.5500237   -0.5593987    0.6201185
  -0.0033477   -0.0052776    0.0005073   -0.5804105   -0.4733304    0.6626326
  -0.0026962   -0.0048256    0.0010915   -0.3888058   -0.4753883    0.7891996
  -0.0025987   -0.0045536    0.0012940   -0.4486880   -0.3381485    0.8272452
  -0.0033071   -0.0060213   -0.0001732   -0.5133835   -0.7301070    0.4509780
  -0.0034010   -0.0055404    0.0002441   -0.5347369   -0.6231134    0.5707768
  -0.0034598   -0.0057365   -0.0000247   -0.6144301   -0.6295330    0.4755668
  -0.0027148   -0.0069154   -0.0007886   -0.6160854   -0.7876790    0.0007998
  -0.0028617   -0.0067014   -0.0006339   -0.6555371   -0.7291145    0.1966295
  -0.0027686   -0.0067407   -0.0010720   -0.6527886   -0.6633946   -0.3657522
  -0.0030621   -0.0060394   -0.0012662   -0.6308533   -0.4993571   -0.5938574
  -0.0032301   -0.0054973   -0.0013837   -0.6580209   -0.3443470   -0.6696518
  -0.0024608   -0.0044586   -0.0019907   -0.4428782    0.1100825   -0.8897982
  -0.0021512   -0.0042077   -0.0020675   -0.3651560    0.1971638   -0.9098283
  -0.0014862   -0.0040836   -0.0022080   -0.2658438    0.2171429   -0.9392423
  -0.0033326   -0.0046586   -0.0014787   -0.7081271   -0.1200818   -0.6957991
  -0.0030846   -0.0041061   -0.0016132   -0.5911324    0.0908365   -0.8014432
   0.0026719   -0.0039762   -0.0023792    0.2124802    0.3501989   -0.9122570
  -0.0003059   -0.0037228   -0.0023113    0.7996329    0.1418361   -0.5834979
   0.0000298   -0.0037294   -0.0023719   -0.0102330    0.2137507   -0.9768346
   0.0000227   -0.0037114   -0.0023662   -0.2086313    0.1714061   -0.9628566
  -0.0001799   -0.0032934   -0.0022618   -0.1945598    0.1655900   -0.9668125
  -0.0003059   -0.0037228   -0.0023113    0.7990074    0.1205314   -0.5891174
   0.0012346   -0.0027407   -0.0022450    0.0582320    0.3767173   -0.9244961
   0.0017837   -0.0023627   -0.0018944    0.2087190    0.5325559   -0.8202564
   0.0028979   -0.0033172   -0.0020390    0.2599845    0.5095889   -0.8201995
   0.0007390   -0.0028362   -0.0022680   -0.1038468    0.2632230   -0.9591296
  -0.0007989   -0.0024609   -0.0018993   -0.3031944    0.2739694   -0.9126960
  -0.0004360   -0.0033005   -0.0022195   -0.1095325    0.1717866   -0.9790260
   0.0045865   -0.0047696   -0.0009255    0.9306469    0.0750338   -0.3581429
   0.0045457   -0.0043484   -0.0009531    0.8656790    0.2645381   -0.4249934
   0.0043525   -0.0039378   -0.0011604    0.7677950    0.4293374   -0.4755631
   0.0041610   -0.0037790   -0.0013218    0.6519816    0.5319451   -0.5403280
   0.0037284   -0.0034759   -0.0015742    0.4956838    0.5952617   -0.6324248
   0.0032251   -0.0035828   -0.0020383    0.3705906    0.4724426   -0.7996628
   0.0045914   -0.0051749   -0.0002829    0.9782789   -0.0366173    0.2040331
   0.0046589   -0.0047557   -0.0005108    0.9924716    0.1210334   -0.0187354
   0.0043423   -0.0051677    0.0003166    0.7761713   -0.1771240    0.6051323
   0.0044241   -0.0047404    0.0003419    0.8859128    0.0977103    0.4534438
   0.0042907   -0.0047396    0.0005139    0.7496748    0.0284642    0.6611939
   0.0041340   -0.0047426    0.0006737    0.6402347   -0.0581983    0.7659716
   0.0037454   -0.0046697    0.0009476    0.6410949   -0.0399153    0.7664229
   0.0035992   -0.0044751    0.0011040    0.7513297   -0.1133450    0.6501204
   0.0034578   -0.0043277    0.0012647    0.9065593   -0.0817838    0.4140792
   0.0035164   -0.0039022    0.0012774    0.7870464    0.0788542    0.6118333
   0.0034578   -0.0043277    0.0012647    0.9816214   -0.0046574    0.1907821
   0.0027947   -0.0034911    0.0018438    0.5265462    0.1746005    0.8320239
   0.0023367   -0.0035012    0.0020832    0.3859306    0.0676483    0.9200442
   0.0033518   -0.0034817    0.0014131    0.7186549    0.3015432    0.6265835
   0.0031886   -0.0034836    0.0015690    0.6079285    0.2390769    0.7571428
  -0.0011837   -0.0032068    0.0022272   -0.2516702    0.0237444    0.9675217
  -0.0001375   -0.0031639    0.0023648   -0.0248709   -0.0200668    0.9994892
   0.0014166   -0.0035293    0.0023149    0.1289296   -0.1068926    0.9858758
  -0.0014604   -0.0040020    0.0019801   -0.2313438   -0.3542754    0.9060734
  -0.0015665   -0.0036481    0.0020532   -0.3383411   -0.2095526    0.9173947
  -0.0014084   -0.0032174    0.0021437   -0.3695130   -0.0070012    0.9291992
  -0.0024637   -0.0042432    0.0014385   -0.5194492   -0.2848010    0.8056432
  -0.0020960   -0.0041022    0.0016913   -0.3499970   -0.3046605    0.8858239
  -0.0023034   -0.0041119    0.0015850   -0.4707433   -0.2596315    0.8432035
  -0.0016586   -0.0040801    0.0018745    0.4314918   -0.3250418    0.8415240
  -0.0016586   -0.0040801    0.0018745    0.9430972   -0.1409813    0.3011510
  -0.0018784   -0.0040907    0.0017846   -0.1150618   -0.3555437    0.9275502
  -0.0026561   -0.0041334    0.0012887   -0.6236899   -0.1595271    0.7652203
  -0.0030085   -0.0064969   -0.0004783   -0.6204970   -0.7219228    0.3062856
  -0.0031641   -0.0063191   -0.0005720   -0.6814032   -0.7288569    0.0667630
  -0.0033769   -0.0060761   -0.0004547   -0.6769597   -0.7292430    0.0996503
  -0.0034249   -0.0050284    0.0005617   -0.7004208   -0.2900484    0.6521369
  -0.0033173   -0.0045967    0.0007197   -0.6122997   -0.1043454    0.7837098
  -0.0029657   -0.0045749    0.0010173   -0.5822774   -0.2166157    0.7836011
  -0.0035739   -0.0054707    0.0000757   -0.7300218   -0.4838233    0.4826833
  -0.0035567   -0.0050396    0.0003541   -0.7648955   -0.3711714    0.5264662
  -0.0027862   -0.0045655    0.0011608   -0.5678719   -0.2428019    0.7864915
  -0.0035256   -0.0058423   -0.0003018   -0.7429491   -0.6259234    0.2371635
  -0.0036904   -0.0054044   -0.0001671   -0.8531466   -0.4616603    0.2429211
  -0.0028446   -0.0067381   -0.0008681   -0.7126281   -0.6873610   -0.1403428
  -0.0031453   -0.0063232   -0.0008076   -0.7276381   -0.6735456   -0.1299199
  -0.0030679   -0.0063260   -0.0010105   -0.7083302   -0.5963294   -0.3777030
  -0.0032522   -0.0059145   -0.0011307   -0.7171275   -0.5288757   -0.4538927
  -0.0036091   -0.0054968   -0.0008555   -0.7980042   -0.4551713   -0.3949790
  -0.0036999   -0.0050803   -0.0009243   -0.8095141   -0.3158820   -0.4948792
  -0.0024495   -0.0036618   -0.0017755   -0.4538327    0.2750967   -0.8475599
  -0.0029967   -0.0038017   -0.0015790   -0.5335267    0.2587962   -0.8052166
  -0.0019552   -0.0030955   -0.0017746   -0.4804775    0.3156669   -0.8182272
  -0.0014568   -0.0025745   -0.0017699   -0.3710787    0.3190633   -0.8720661
  -0.0037543   -0.0046604   -0.0009738   -0.8630747   -0.1423624   -0.4845977
  -0.0036102   -0.0042370   -0.0011596   -0.7947424    0.0478548   -0.6050574
  -0.0031896   -0.0038061   -0.0014391   -0.7174727    0.2346541   -0.6558737
  -0.0003059   -0.0037228   -0.0023113    0.6289901    0.1243596   -0.7674022
  -0.0002189   -0.0024435   -0.0020767   -0.2570752    0.3151409   -0.9135637
   0.0000178   -0.0026363   -0.0021832   -0.1672397    0.2489281   -0.9539736
   0.0012693   -0.0022365   -0.0020036    0.1251369    0.5957372   -0.7933713
   0.0010219   -0.0023991   -0.0021321   -0.0116723    0.4176393   -0.9085379
   0.0020257   -0.0023990   -0.0018249    0.3086463    0.7189428   -0.6227831
   0.0014693   -0.0021819   -0.0018958    0.1708383    0.7554348   -0.6325603
   0.0016732   -0.0021726   -0.0017840    0.2061763    0.8302225   -0.5179015
   0.0029479   -0.0030093   -0.0017800    0.3970468    0.6826234   -0.6134974
   0.0025888   -0.0027023   -0.0017463    0.3646161    0.7104570   -0.6019186
   0.0003874   -0.0021366   -0.0020026   -0.1191648    0.4220470   -0.8987080
   0.0007289   -0.0022236   -0.0020560   -0.0759766    0.4493980   -0.8900949
  -0.0004682   -0.0023724   -0.0019716   -0.3364633    0.3239184   -0.8842338
  -0.0011526   -0.0024718   -0.0018108   -0.3194325    0.3400091   -0.8845093
