NORM_ASCII
1851 3698
   0.0103709   -0.0087255    0.0048043   -0.4101868   -0.5480541   -0.7289606
   0.0110102   -0.0084139    0.0042616   -0.0452513   -0.8054472   -0.5909376
   0.0111364   -0.0083661    0.0041974   -0.0430424   -0.8451084   -0.5328593
   0.0113077   -0.0081423    0.0038114   -0.1753173   -0.8389695   -0.5151641
   0.0138340   -0.0080492    0.0012495   -0.1011694   -0.9554533    0.2772612
   0.0140121   -0.0083464    0.0004126   -0.1361554   -0.8930844    0.4287912
   0.0158158   -0.0085462    0.0004976    0.0544055   -0.8359094    0.5461644
   0.0154414   -0.0090121   -0.0003349   -0.0612748   -0.8608619    0.5051358
   0.0164353   -0.0083937    0.0003348    0.6744344   -0.5057493    0.5379182
   0.0160351   -0.0084382    0.0006061    0.3066850   -0.7463707    0.5906565
   0.0172547   -0.0046102    0.0016609    0.8915032    0.0060157    0.4529745
   0.0172189   -0.0058185    0.0013471    0.8207181   -0.4116024    0.3962388
   0.0173117   -0.0054888    0.0013525    0.8856967   -0.1739601    0.4304408
   0.0171611   -0.0069315    0.0000156    0.8696646   -0.3133127    0.3814690
   0.0172192   -0.0077028   -0.0008118    0.8817391   -0.2929979    0.3697140
   0.0166218   -0.0081451    0.0002439    0.8285926   -0.3339951    0.4493124
   0.0126498   -0.0079441    0.0010436   -0.2985812   -0.9383447    0.1742369
   0.0111559   -0.0079979    0.0036524   -0.4136402   -0.7426719   -0.5266310
   0.0113254   -0.0074539    0.0026706   -0.6253967   -0.6961943   -0.3524094
   0.0115381   -0.0071617    0.0012612   -0.7424145   -0.6552901   -0.1393401
   0.0118536   -0.0074675    0.0009996   -0.6222197   -0.7796046    0.0711283
   0.0171971   -0.0040448    0.0015336    0.8655415    0.3024569    0.3991965
   0.0090769   -0.0035767    0.0012227   -0.7281068   -0.6472044   -0.2258030
   0.0095173   -0.0040820    0.0010662   -0.7918677   -0.5776206   -0.1982425
   0.0101167   -0.0046954    0.0000336   -0.8539191   -0.5127143   -0.0891410
   0.0108668   -0.0062403    0.0012150   -0.8176522   -0.5542029   -0.1558978
   0.0063203    0.0035009    0.0019162   -0.7331203    0.5452693   -0.4064676
   0.0063941    0.0031008    0.0010363   -0.8105837    0.4958570   -0.3115765
   0.0063596    0.0032449    0.0014870   -0.7072439    0.6230374   -0.3341116
   0.0070755    0.0033962    0.0004040   -0.6032897    0.6774847   -0.4207803
   0.0065553    0.0030732    0.0006394   -0.6857029    0.5987555   -0.4138881
   0.0076462    0.0031636   -0.0007248   -0.6820427    0.5050038   -0.5289508
   0.0080209    0.0034935   -0.0005636   -0.3181484    0.9057791   -0.2799031
   0.0078128    0.0033675   -0.0006624   -0.5218498    0.7212143   -0.4555465
   0.0081972    0.0034403   -0.0009474   -0.3519007    0.8657303   -0.3559170
   0.0086169    0.0034512   -0.0012017   -0.1402674    0.9296835   -0.3406078
   0.0090783    0.0033884   -0.0014194    0.0517784    0.9238233   -0.3793013
   0.0118309    0.0023802   -0.0013904    0.4678686    0.7728990   -0.4286329
   0.0115397    0.0022654   -0.0017909    0.4028745    0.7193499   -0.5658868
   0.0098791    0.0029782   -0.0018784    0.3001538    0.7817714   -0.5465722
   0.0108935    0.0022262   -0.0022339    0.3506539    0.7416694   -0.5718115
   0.0123099    0.0021106   -0.0012331    0.6064910    0.7274022   -0.3210212
   0.0120391    0.0023923   -0.0010553    0.6208854    0.7492556   -0.2304721
   0.0093157    0.0032118   -0.0017478    0.1398842    0.8426883   -0.5199123
   0.0140927    0.0009724   -0.0001033    0.7181680    0.6770160   -0.1608850
   0.0125647    0.0016921   -0.0015990    0.6024817    0.6806164   -0.4168657
   0.0148078   -0.0002611   -0.0014634    0.6421786    0.7170773   -0.2709369
   0.0134420    0.0009735   -0.0014679    0.6016672    0.6829851   -0.4141593
   0.0141667    0.0000016   -0.0020969    0.5919301    0.6986982   -0.4017955
   0.0143991    0.0002089   -0.0012827    0.6415761    0.6913295   -0.3323306
   0.0143638    0.0000045   -0.0017637    0.6395207    0.6824108   -0.3540180
   0.0127729    0.0015841   -0.0014464    0.6190752    0.6654261   -0.4170780
   0.0154793   -0.0010685   -0.0024251    0.5086773    0.8112343   -0.2883511
   0.0159166   -0.0012818   -0.0021374    0.5917455    0.7954821   -0.1305588
   0.0174987   -0.0029435   -0.0009481    0.7900227    0.5929179    0.1559247
   0.0169520   -0.0021940   -0.0013884    0.7402807    0.6678981    0.0767891
   0.0170959   -0.0023473   -0.0017745    0.7375888    0.6746718   -0.0279417
   0.0166443   -0.0019171   -0.0022596    0.7029388    0.7103177   -0.0364134
   0.0165680   -0.0018736   -0.0026523    0.6663187    0.7295684   -0.1541084
   0.0176207   -0.0031456   -0.0008445    0.8067853    0.5589742    0.1914297
   0.0177640   -0.0036760   -0.0001789    0.8400468    0.4573864    0.2917516
   0.0178411   -0.0039220   -0.0000934    0.9468203    0.1513654    0.2839362
   0.0173236   -0.0038701    0.0010831    0.8749603    0.3249711    0.3589404
   0.0175729   -0.0042415    0.0007942    0.9193409    0.1966625    0.3407876
   0.0068029   -0.0013633    0.0005317   -0.7802019   -0.4926470   -0.3854660
   0.0073375   -0.0017475   -0.0000848   -0.7360310   -0.6256875   -0.2584057
   0.0087158   -0.0029390    0.0004138   -0.7082157   -0.6902384   -0.1483286
   0.0078808   -0.0021240   -0.0006980   -0.6498638   -0.7470925   -0.1397492
   0.0085666   -0.0026892   -0.0007029   -0.6741524   -0.7326540   -0.0934697
   0.0062216    0.0024480    0.0009723   -0.9455384    0.1267216   -0.2998313
   0.0065251   -0.0011047    0.0008230   -0.8555089   -0.2913503   -0.4280415
   0.0064241   -0.0004268    0.0006519   -0.8789673   -0.1089776   -0.4642633
   0.0069332    0.0007528   -0.0007345   -0.9069400   -0.0890611   -0.4117378
   0.0068774    0.0002827   -0.0001939   -0.8750135   -0.0720039   -0.4787138
   0.0070589    0.0002327   -0.0005754   -0.9284880   -0.1387639   -0.3444629
   0.0071620    0.0003616   -0.0010319   -0.9241212   -0.1878737   -0.3327214
   0.0076352    0.0024446   -0.0011059   -0.7303592    0.2554751   -0.6334887
   0.0069878    0.0013444   -0.0008015   -0.7371411    0.2303739   -0.6352566
   0.0073630    0.0006968   -0.0014663   -0.7736823    0.1868293   -0.6054012
   0.0136202   -0.0082208    0.0006605   -0.0359486   -0.9277185    0.3715456
   0.0137679   -0.0083699    0.0002759    0.0937851   -0.8901986    0.4458148
   0.0137752   -0.0083946    0.0002313   -0.0020684   -0.8813994    0.4723673
   0.0137587   -0.0086316   -0.0001803   -0.1477677   -0.8316755    0.5352387
   0.0153789   -0.0094845   -0.0010822    0.0690439   -0.8707690    0.4868205
   0.0160707   -0.0087428    0.0001824    0.1763629   -0.8390847    0.5146193
   0.0159258   -0.0090320   -0.0003472    0.0980434   -0.8813446    0.4621895
   0.0164799   -0.0087123   -0.0000810    0.5685619   -0.6599428    0.4911342
   0.0168730   -0.0085313   -0.0006109    0.8066084   -0.4585478    0.3729837
   0.0174486   -0.0056529    0.0009572    0.9151062   -0.1834469    0.3590653
   0.0174305   -0.0047006    0.0012829    0.9277993    0.0423630    0.3706668
   0.0174087   -0.0061362    0.0005205    0.8505940   -0.4267249    0.3072387
   0.0175214   -0.0058556    0.0005722    0.8995623   -0.3093948    0.3083221
   0.0172570   -0.0075808   -0.0008100    0.8855265   -0.3276546    0.3293709
   0.0173340   -0.0069767   -0.0003793    0.9042434   -0.1665621    0.3931932
   0.0174976   -0.0070137   -0.0007659    0.8982730   -0.2943831    0.3262578
   0.0174223   -0.0064011    0.0000777    0.8581058   -0.3997292    0.3222902
   0.0169551   -0.0085414   -0.0008244    0.8426730   -0.4564467    0.2855847
   0.0172078   -0.0082334   -0.0012245    0.9174128   -0.3001581    0.2612641
   0.0123759   -0.0079435    0.0003910   -0.4831182   -0.8248794    0.2935485
   0.0129273   -0.0082597    0.0002673   -0.2615689   -0.8972760    0.3556366
   0.0110093   -0.0063949    0.0008282   -0.8389088   -0.5430452   -0.0365225
   0.0114363   -0.0069978    0.0010787   -0.7798011   -0.6257464   -0.0187545
   0.0121142   -0.0078926    0.0000762   -0.6546984   -0.6946979    0.2979342
   0.0096040   -0.0039416    0.0001040   -0.8150197   -0.5728057   -0.0873879
   0.0100929   -0.0046935   -0.0004778   -0.8678053   -0.4946306    0.0474822
   0.0103894   -0.0053401   -0.0006938   -0.8888500   -0.4484116    0.0941953
   0.0078225    0.0029459   -0.0010813   -0.7429449    0.3203584   -0.5877102
   0.0078608    0.0030417   -0.0010752   -0.6758400    0.4567692   -0.5784481
   0.0080104    0.0032751   -0.0010278   -0.5363906    0.7010112   -0.4699665
   0.0082204    0.0031612   -0.0013819   -0.5949158    0.5329377   -0.6017081
   0.0083936    0.0033485   -0.0013135   -0.4097915    0.7521621   -0.5160650
   0.0087538    0.0033767   -0.0014336   -0.1485985    0.9142279   -0.3769693
   0.0088066    0.0033268   -0.0015660   -0.2260354    0.8245834   -0.5186234
   0.0086147    0.0032147   -0.0016581   -0.3408924    0.7321770   -0.5896687
   0.0088258    0.0033382   -0.0015568   -0.1233133    0.8349716   -0.5362987
   0.0090790    0.0031451   -0.0018732   -0.0458572    0.7935271   -0.6068046
   0.0120854    0.0021587   -0.0014587    0.5017803    0.7138557   -0.4884942
   0.0108311    0.0019155   -0.0026362    0.3366884    0.7033094   -0.6260965
   0.0112968    0.0011411   -0.0032275    0.3623188    0.6819595   -0.6353395
   0.0096804    0.0028902   -0.0020862    0.1698731    0.7271894   -0.6650855
   0.0105211    0.0020286   -0.0026724    0.2298801    0.6811620   -0.6951068
   0.0122899    0.0013241   -0.0023994    0.5062065    0.6745335   -0.5373635
   0.0092676    0.0029768   -0.0020512   -0.0307100    0.6518602   -0.7577171
   0.0145999   -0.0002455   -0.0018559    0.6055644    0.7169088   -0.3454469
   0.0148460   -0.0005176   -0.0019908    0.5579054    0.7597733   -0.3338954
   0.0127304    0.0005441   -0.0029721    0.4617734    0.6882943   -0.5594786
   0.0141745   -0.0001549   -0.0023409    0.6716951    0.6374876   -0.3774059
   0.0143938   -0.0002608   -0.0021968    0.9036493    0.3723461   -0.2116043
   0.0143884   -0.0000116   -0.0017469    0.7518113    0.5851561   -0.3039278
   0.0144504   -0.0008181   -0.0031002    0.4065730    0.7632408   -0.5021571
   0.0157967   -0.0016402   -0.0036306    0.4579474    0.8203937   -0.3424008
   0.0162291   -0.0017922   -0.0032456    0.6076625    0.7434043   -0.2794572
   0.0146740   -0.0006014   -0.0024730    0.6394808    0.6866145   -0.3458682
   0.0173757   -0.0027151   -0.0015517    0.8194546    0.5731283   -0.0042549
   0.0178521   -0.0035065   -0.0016396    0.8850205    0.4644943   -0.0313652
   0.0168880   -0.0021860   -0.0023883    0.6888923    0.7230284    0.0515488
   0.0170634   -0.0023516   -0.0022871    0.7843522    0.6137314   -0.0901415
   0.0167411   -0.0020249   -0.0025271    0.7106150    0.7026154   -0.0368500
   0.0168095   -0.0022629   -0.0029600    0.7375808    0.6179496   -0.2722369
   0.0178478   -0.0035656   -0.0006432    0.9114673    0.3945078    0.1165802
   0.0179238   -0.0038131   -0.0005583    0.9548290    0.2396200    0.1757382
   0.0177881   -0.0041702    0.0001292    0.9827632    0.0188714    0.1839030
   0.0178004   -0.0049010   -0.0004481    0.9825062   -0.0270701    0.1842520
   0.0179374   -0.0041220   -0.0004990    0.9812543   -0.0506430    0.1859445
   0.0177096   -0.0047234    0.0004588    0.9564776   -0.0121532    0.2915524
   0.0066516   -0.0008686    0.0003619   -0.8559496   -0.2438669   -0.4559377
   0.0071374   -0.0013008   -0.0002748   -0.8861387   -0.2512827   -0.3893779
   0.0079367   -0.0016920   -0.0017268   -0.8749167   -0.3725964   -0.3093425
   0.0081395   -0.0021518   -0.0015590   -0.7685828   -0.6248561   -0.1372422
   0.0093899   -0.0035873   -0.0002112   -0.7719970   -0.6331596   -0.0559421
   0.0088932   -0.0030035   -0.0009564   -0.7820296   -0.6224115    0.0321490
   0.0073298    0.0005547   -0.0014617   -0.8356111    0.0495288   -0.5470841
   0.0073312    0.0002550   -0.0014110   -0.8814443   -0.0602655   -0.4684271
   0.0077670    0.0016300   -0.0013885   -0.6536321    0.1986807   -0.7302678
   0.0079692    0.0026093   -0.0014352   -0.7055263    0.2674785   -0.6562682
   0.0077320    0.0007975   -0.0017648   -0.5780652    0.3825761   -0.7207470
   0.0076013    0.0005298   -0.0017919   -0.7001112    0.3141121   -0.6412315
   0.0132883   -0.0082724    0.0004002   -0.1318088   -0.9004325    0.4145451
   0.0151747   -0.0098585   -0.0016321    0.1915422   -0.8092556    0.5553530
   0.0133305   -0.0090879   -0.0008779   -0.1482133   -0.7142050    0.6840644
   0.0124078   -0.0084225   -0.0004998   -0.3702174   -0.7752632    0.5117675
   0.0136938   -0.0093272   -0.0010908   -0.0975034   -0.7427317    0.6624520
   0.0141453   -0.0092562   -0.0009286   -0.0460068   -0.7516626    0.6579413
   0.0155990   -0.0096222   -0.0014268    0.2587833   -0.8531640    0.4529265
   0.0163610   -0.0091931   -0.0010586    0.4383305   -0.8476436    0.2989426
   0.0164930   -0.0089745   -0.0005241    0.4515387   -0.8117248    0.3704264
   0.0166478   -0.0089924   -0.0009268    0.6885914   -0.6884931    0.2276381
   0.0178491   -0.0054478   -0.0002456    0.9700117   -0.0611381    0.2352434
   0.0177546   -0.0058181   -0.0001628    0.9122657   -0.2940564    0.2851352
   0.0174137   -0.0071883   -0.0007850    0.8618328   -0.4049034    0.3054462
   0.0176143   -0.0072266   -0.0016000    0.8875968   -0.4085736    0.2126958
   0.0179089   -0.0064238   -0.0012442    0.9050181   -0.3170045    0.2836376
   0.0178943   -0.0067016   -0.0015781    0.8976514   -0.3780012    0.2265770
   0.0170366   -0.0087247   -0.0016200    0.7736914   -0.6042385    0.1905190
   0.0173499   -0.0084637   -0.0020931    0.8334008   -0.4630906    0.3016459
   0.0176055   -0.0074235   -0.0021189    0.9127083   -0.2785646    0.2989402
   0.0114684   -0.0070846    0.0002191   -0.8152779   -0.5702091    0.1009132
   0.0115672   -0.0074398   -0.0002712   -0.7858843   -0.5336839    0.3123578
   0.0117427   -0.0079411   -0.0006776   -0.7306684   -0.5530678    0.4002995
   0.0121294   -0.0084303   -0.0007527   -0.5423744   -0.6226623    0.5640227
   0.0097288   -0.0040858   -0.0007890   -0.8496462   -0.5250886    0.0488198
   0.0105359   -0.0058129   -0.0010251   -0.9176214   -0.3415918    0.2031894
   0.0102523   -0.0051407   -0.0013257   -0.9044973   -0.4078761    0.1245860
   0.0084520    0.0029772   -0.0017123   -0.6253993    0.2977806   -0.7212506
   0.0084589    0.0029933   -0.0017112   -0.5358616    0.4672341   -0.7032387
   0.0087319    0.0031216   -0.0017953   -0.2969986    0.6280067   -0.7193048
   0.0088849    0.0029945   -0.0019598   -0.2474403    0.5832886   -0.7736586
   0.0109692    0.0012438   -0.0032601    0.1290459    0.6088264   -0.7827372
   0.0112321    0.0009652   -0.0034239    0.1438599    0.5635935   -0.8134290
   0.0117229    0.0007498   -0.0034111    0.3570554    0.6482269   -0.6725425
   0.0122215    0.0010917   -0.0026767    0.3896920    0.6798638   -0.6212289
   0.0097180    0.0025250   -0.0023906   -0.0024541    0.5791860   -0.8151917
   0.0104042    0.0018224   -0.0028667    0.0195042    0.5759673   -0.8172400
   0.0092070    0.0026791   -0.0022162   -0.2322990    0.4382532   -0.8683152
   0.0146607   -0.0005411   -0.0023676    0.5786201    0.7356977   -0.3520619
   0.0143938   -0.0002608   -0.0021968    0.8847933    0.4162147   -0.2095378
   0.0120033    0.0002821   -0.0036658    0.3476901    0.6563069   -0.6696065
   0.0123024    0.0001059   -0.0037132    0.3606884    0.6328068   -0.6851711
   0.0129094    0.0000412   -0.0033846    0.4330794    0.6674703   -0.6057439
   0.0143938   -0.0002608   -0.0021968    0.9280468    0.3321692   -0.1685013
   0.0144383   -0.0005113   -0.0026239    0.5440818    0.7302626   -0.4131483
   0.0156002   -0.0018506   -0.0042033    0.3920758    0.7895988   -0.4720279
   0.0131586   -0.0002325   -0.0035256    0.4139841    0.6358734   -0.6513694
   0.0145258   -0.0016917   -0.0043550    0.1715758    0.8385152   -0.5171595
   0.0140671   -0.0015422   -0.0043216    0.1016975    0.7730778   -0.6261057
   0.0137877   -0.0010983   -0.0038904    0.3438481    0.6832061   -0.6442033
   0.0151768   -0.0016070   -0.0039936    0.1958245    0.8362684   -0.5121601
   0.0160629   -0.0018253   -0.0036574    0.5681628    0.7249373   -0.3894317
   0.0163414   -0.0024128   -0.0041767    0.6144773    0.6941427   -0.3749447
   0.0180313   -0.0039749   -0.0014586    0.9800238    0.1954743    0.0366500
   0.0183272   -0.0048074   -0.0041165    0.9377724    0.3471737    0.0073108
   0.0180055   -0.0039726   -0.0019683    0.9642368    0.2646683    0.0140724
   0.0178552   -0.0037434   -0.0030819    0.8591126    0.5085764   -0.0572328
   0.0176132   -0.0033656   -0.0027901    0.7934030    0.5926874   -0.1386843
   0.0171670   -0.0030024   -0.0033823    0.7605208    0.6145056   -0.2097403
   0.0165859   -0.0029123   -0.0047819    0.5943830    0.7515882   -0.2860489
   0.0170988   -0.0031732   -0.0041077    0.6689755    0.7156664   -0.2007323
   0.0180041   -0.0040291   -0.0009708    0.9922122    0.0890508    0.0870915
   0.0179642   -0.0043897   -0.0009332    0.9863499   -0.0428758    0.1589826
   0.0180809   -0.0052596   -0.0012914    0.9779178    0.0293227    0.2069226
   0.0075265    0.0001312   -0.0017724   -0.8732856   -0.0720984   -0.4818445
   0.0077404   -0.0005968   -0.0020224   -0.8951709   -0.1109606   -0.4316907
   0.0082887   -0.0022840   -0.0019197   -0.8586907   -0.4722533   -0.1990654
   0.0079626   -0.0010913   -0.0023065   -0.9007921   -0.1760076   -0.3969822
   0.0080461   -0.0015563   -0.0021805   -0.8856496   -0.3198950   -0.3365886
   0.0087147   -0.0028840   -0.0016639   -0.7965651   -0.6045293    0.0053221
   0.0093330   -0.0037500   -0.0025570   -0.8464782   -0.5268652    0.0767313
   0.0094574   -0.0039635   -0.0024734   -0.8822480   -0.4475164    0.1461764
   0.0096884   -0.0040984   -0.0013049   -0.8466743   -0.5216974    0.1047593
   0.0076028    0.0005278   -0.0017947   -0.7083241    0.2513974   -0.6596032
   0.0075291    0.0001598   -0.0017758   -0.8171014    0.1000688   -0.5677425
   0.0081326    0.0020791   -0.0017471   -0.6551353    0.1628549   -0.7377507
   0.0084573    0.0009100   -0.0021396   -0.5699651    0.2366099   -0.7868644
   0.0081624    0.0007887   -0.0020097   -0.4474896    0.4158299   -0.7917314
   0.0083370    0.0012805   -0.0019906   -0.6678616    0.0676285   -0.7412066
   0.0080058    0.0005699   -0.0020632   -0.4475150    0.4483429   -0.7737693
   0.0158069   -0.0097274   -0.0017838    0.3832400   -0.8361199    0.3924674
   0.0148343   -0.0104224   -0.0023526    0.1882592   -0.7684302    0.6116155
   0.0142464   -0.0099597   -0.0016563   -0.0051582   -0.7109219    0.7032520
   0.0158163   -0.0102202   -0.0026850    0.4567001   -0.7579812    0.4657140
   0.0158792   -0.0110521   -0.0039943    0.5324918   -0.7183839    0.4476349
   0.0152838   -0.0110081   -0.0033556    0.3547770   -0.7673558    0.5341333
   0.0128190   -0.0091912   -0.0011237   -0.2653883   -0.6829538    0.6805462
   0.0133942   -0.0094593   -0.0012420   -0.1355986   -0.6744015    0.7258069
   0.0169031   -0.0089268   -0.0017792    0.7090506   -0.6812250    0.1821534
   0.0167185   -0.0093344   -0.0023121    0.6277013   -0.7044694    0.3312311
   0.0179524   -0.0056906   -0.0007238    0.9576999   -0.1490469    0.2461624
   0.0177453   -0.0071736   -0.0020797    0.8449962   -0.4767180    0.2423248
   0.0180717   -0.0061624   -0.0015654    0.9641270   -0.1671633    0.2061931
   0.0182241   -0.0062708   -0.0024487    0.9671030   -0.1803228    0.1794310
   0.0181429   -0.0066239   -0.0024364    0.8912511   -0.3478227    0.2910169
   0.0176279   -0.0081558   -0.0024783    0.9221209   -0.1868314    0.3388025
   0.0173708   -0.0096980   -0.0043482    0.7496069   -0.5774094    0.3235552
   0.0168508   -0.0103404   -0.0044015    0.6725525   -0.6417892    0.3684831
   0.0182516   -0.0085144   -0.0045319    0.8323755   -0.4940193    0.2511890
   0.0177825   -0.0082183   -0.0028737    0.8637113   -0.3504110    0.3622359
   0.0176424   -0.0081881   -0.0025419    0.8798624   -0.2887522    0.3774444
   0.0176899   -0.0078120   -0.0024999    0.9109601   -0.1146073    0.3962536
   0.0176961   -0.0077672   -0.0025040    0.9385860   -0.1064957    0.3281995
   0.0177641   -0.0074467   -0.0025182    0.8495865   -0.3230194    0.4169667
   0.0110414   -0.0077928   -0.0018596   -0.8482633   -0.3829248    0.3658114
   0.0114173   -0.0077459   -0.0011131   -0.7620678   -0.5183083    0.3880840
   0.0117112   -0.0081914   -0.0010216   -0.7436131   -0.4884294    0.4565919
   0.0117917   -0.0086162   -0.0013172   -0.6912565   -0.4633236    0.5545230
   0.0121487   -0.0092682   -0.0014979   -0.5368248   -0.4681537    0.7018912
   0.0124118   -0.0094007   -0.0014420   -0.2922263   -0.6078691    0.7383082
   0.0105307   -0.0065250   -0.0020957   -0.9270709   -0.2818542    0.2471796
   0.0104647   -0.0058107   -0.0014860   -0.9289034   -0.3055885    0.2091749
   0.0099309   -0.0047963   -0.0020806   -0.8999442   -0.3901912    0.1945538
   0.0087366    0.0027604   -0.0020065   -0.4796029    0.3287011   -0.8135949
   0.0105528    0.0013197   -0.0031916   -0.1395412    0.4546393   -0.8796768
   0.0109053    0.0009486   -0.0034214   -0.1223955    0.4063113   -0.9055001
   0.0117168    0.0004274   -0.0036774    0.1886321    0.5568882   -0.8088841
   0.0113089    0.0005124   -0.0036508   -0.0836416    0.3971418   -0.9139379
   0.0098716    0.0020139   -0.0027112   -0.1587527    0.4622831   -0.8724058
   0.0096574    0.0016976   -0.0027823   -0.3375195    0.3306619   -0.8813304
   0.0119639    0.0001569   -0.0038121    0.1952907    0.5633922   -0.8027769
   0.0127911   -0.0001365   -0.0036364    0.3340850    0.7364084   -0.5882941
   0.0121994   -0.0001087   -0.0039267    0.1977894    0.4953796   -0.8458595
   0.0122467   -0.0001647   -0.0039459    0.2358986    0.6380426   -0.7329758
   0.0149305   -0.0021168   -0.0050397    0.1872953    0.8637948   -0.4677383
   0.0159483   -0.0024519   -0.0048916    0.4743893    0.7802269   -0.4076773
   0.0135733   -0.0016816   -0.0045410    0.1649390    0.6186738   -0.7681392
   0.0126319   -0.0006206   -0.0040854    0.2842400    0.4922636   -0.8227297
   0.0128460   -0.0001946   -0.0036719    0.3807244    0.6228136   -0.6834853
   0.0143016   -0.0022698   -0.0053772   -0.0469428    0.8571280   -0.5129599
   0.0138128   -0.0022805   -0.0051628   -0.1742566    0.8331947   -0.5248060
   0.0135936   -0.0020257   -0.0048370   -0.0843776    0.6764583   -0.7316314
   0.0163240   -0.0026337   -0.0046193    0.5838067    0.7234287   -0.3685384
   0.0181855   -0.0047341   -0.0022321    0.9888264    0.1098681    0.1007541
   0.0182943   -0.0048946   -0.0031317    0.9779417    0.1827485    0.1011586
   0.0182231   -0.0045355   -0.0041344    0.9270957    0.3742066   -0.0215158
   0.0182979   -0.0048376   -0.0046711    0.9275909    0.3705566    0.0475707
   0.0184893   -0.0052916   -0.0039420    0.9824604    0.0987955    0.1581485
   0.0185912   -0.0054862   -0.0043457    0.9544466    0.2899248    0.0705366
   0.0175022   -0.0034198   -0.0038340    0.7124230    0.6890718   -0.1327915
   0.0181351   -0.0043427   -0.0042882    0.8769999    0.4795810   -0.0295517
   0.0159374   -0.0026740   -0.0053451    0.4361084    0.8415164   -0.3188410
   0.0167636   -0.0031269   -0.0052978    0.5602794    0.8124773   -0.1611449
   0.0175409   -0.0036498   -0.0047626    0.6022731    0.7905498   -0.1108970
   0.0182248   -0.0053397   -0.0021085    0.9871153    0.0141918    0.1593801
   0.0077604    0.0000089   -0.0021116   -0.7697599    0.1185441   -0.6272296
   0.0079612   -0.0003518   -0.0024303   -0.7626725    0.1042391   -0.6383298
   0.0079305   -0.0005334   -0.0024176   -0.8163123    0.0345629   -0.5765758
   0.0083046   -0.0019391   -0.0024622   -0.8756020   -0.3076358   -0.3723994
   0.0088170   -0.0029973   -0.0024853   -0.8669799   -0.4943607   -0.0628763
   0.0087791   -0.0026849   -0.0030536   -0.9040504   -0.2806862   -0.3223479
   0.0081668   -0.0007656   -0.0027372   -0.7732206   -0.0170216   -0.6339087
   0.0081438   -0.0011551   -0.0026857   -0.8380226   -0.1617541   -0.5211082
   0.0092702   -0.0038362   -0.0031602   -0.9103288   -0.3954427    0.1221742
   0.0091476   -0.0035831   -0.0031862   -0.9304704   -0.3642202   -0.0396055
   0.0098307   -0.0048421   -0.0025823   -0.9347262   -0.3171808    0.1602598
   0.0093003   -0.0040490   -0.0035148   -0.9478406   -0.3166436    0.0365374
   0.0096534   -0.0046671   -0.0032082   -0.9017694   -0.3885137    0.1893916
   0.0094232   -0.0043263   -0.0035254   -0.9261243   -0.3533597    0.1320256
   0.0095764   -0.0050811   -0.0042911   -0.9380027   -0.3150928    0.1444554
   0.0078526    0.0003418   -0.0021139   -0.5831103    0.3376875   -0.7388840
   0.0085662    0.0021049   -0.0020723   -0.5596804    0.1707592   -0.8109248
   0.0082990    0.0003056   -0.0023420   -0.3485582    0.4553321   -0.8192557
   0.0087442    0.0002702   -0.0025767   -0.5104330    0.2721123   -0.8157285
   0.0095391    0.0011801   -0.0028967   -0.4699814    0.2098282   -0.8573737
   0.0133996   -0.0104453   -0.0020636    0.0299011   -0.6687485    0.7428872
   0.0132237   -0.0118457   -0.0034153    0.1745829   -0.7704703    0.6131038
   0.0144604   -0.0112965   -0.0032880    0.3019144   -0.7573979    0.5789613
   0.0132644   -0.0099644   -0.0017272   -0.0885526   -0.6259859    0.7747903
   0.0161941   -0.0101377   -0.0029757    0.5720987   -0.6995485    0.4281763
   0.0165273   -0.0109796   -0.0050183    0.6862842   -0.6617412    0.3018485
   0.0151323   -0.0117160   -0.0043144    0.3844027   -0.8140865    0.4353135
   0.0155273   -0.0116607   -0.0045902    0.5413420   -0.7512686    0.3775505
   0.0147192   -0.0117368   -0.0040544    0.3147497   -0.8073481    0.4991210
   0.0129324   -0.0096321   -0.0014794   -0.2405762   -0.5401734    0.8064340
   0.0182714   -0.0058814   -0.0024368    0.9860589   -0.0595165    0.1553886
   0.0182228   -0.0071929   -0.0032849    0.9446833   -0.1619012    0.2852394
   0.0180689   -0.0072298   -0.0028726    0.8681395   -0.2926678    0.4008484
   0.0178759   -0.0078841   -0.0028752    0.9701861   -0.1345593    0.2015755
   0.0178759   -0.0078841   -0.0028752    0.9811261   -0.0433540    0.1884463
   0.0170594   -0.0101412   -0.0044540    0.7241704   -0.6157303    0.3105696
   0.0176537   -0.0096813   -0.0051766    0.7937016   -0.5721852    0.2064991
   0.0183722   -0.0082393   -0.0044872    0.8871550   -0.3715449    0.2736976
   0.0186893   -0.0083563   -0.0060868    0.8556667   -0.4986581    0.1384722
   0.0181491   -0.0089270   -0.0052859    0.8305384   -0.5309126    0.1683382
   0.0180213   -0.0080362   -0.0032608    0.9175605   -0.2525316    0.3071002
   0.0178759   -0.0078841   -0.0028752    0.9543664   -0.1306626    0.2685369
   0.0114103   -0.0077951   -0.0011796   -0.7920199   -0.4063575    0.4556073
   0.0111056   -0.0086302   -0.0022053   -0.8014711   -0.2516148    0.5425256
   0.0101884   -0.0064948   -0.0030898   -0.9171688   -0.2004357    0.3444225
   0.0116626   -0.0091028   -0.0018056   -0.6581769   -0.3410727    0.6711725
   0.0117602   -0.0099938   -0.0021766   -0.4915409   -0.3923318    0.7774724
   0.0118070   -0.0093359   -0.0017731   -0.6193560   -0.3288334    0.7129283
   0.0100220   -0.0055929   -0.0028418   -0.9284331   -0.2774372    0.2470639
   0.0101463   -0.0054694   -0.0022485   -0.9174889   -0.3223270    0.2330651
   0.0099418   -0.0050677   -0.0025019   -0.9160255   -0.3300532    0.2279521
   0.0103198    0.0011804   -0.0031972   -0.3135536    0.3176576   -0.8948619
   0.0105288   -0.0006129   -0.0038728   -0.2427965    0.3161793   -0.9171044
   0.0116539    0.0001354   -0.0038429   -0.0415301    0.4000916   -0.9155337
   0.0113512    0.0000741   -0.0038172   -0.1686607    0.3145864   -0.9341247
   0.0120374   -0.0002959   -0.0040347    0.0117413    0.3892336   -0.9210643
   0.0125263   -0.0001533   -0.0038056    0.3377585    0.7101970   -0.6176888
   0.0120459   -0.0003054   -0.0040382    0.0438775    0.3700663   -0.9279686
   0.0124342   -0.0003744   -0.0040404    0.2426647    0.4704485   -0.8484056
   0.0150466   -0.0023410   -0.0054303    0.2982085    0.8443729   -0.4450910
   0.0147840   -0.0026099   -0.0060314    0.0628876    0.9171085   -0.3936459
   0.0132857   -0.0017351   -0.0045684   -0.0616315    0.4546612   -0.8885295
   0.0124710   -0.0008078   -0.0041947    0.0293283    0.3239650   -0.9456144
   0.0140335   -0.0026521   -0.0059625   -0.0999611    0.8895688   -0.4457298
   0.0131933   -0.0023105   -0.0050205   -0.1796720    0.7847970   -0.5931370
   0.0137103   -0.0029435   -0.0065951   -0.1829565    0.9315726   -0.3141646
   0.0130621   -0.0034035   -0.0071328   -0.3926228    0.8344294   -0.3867491
   0.0129152   -0.0020728   -0.0047259   -0.1331867    0.6052959   -0.7847790
   0.0182949   -0.0051741   -0.0030150    0.9842021    0.1033913    0.1437236
   0.0182858   -0.0055743   -0.0025289    0.9888115    0.0718357    0.1307346
   0.0187251   -0.0057634   -0.0049089    0.9607203    0.1849686    0.2068894
   0.0187715   -0.0055758   -0.0052156    0.9008414    0.3197859    0.2936354
   0.0181322   -0.0043277   -0.0048031    0.8852185    0.4636220    0.0379858
   0.0182704   -0.0044585   -0.0056905    0.8483271    0.4887527    0.2036222
   0.0186235   -0.0057762   -0.0042786    0.9710854    0.0473685    0.2339859
   0.0178600   -0.0039515   -0.0050226    0.7838955    0.6203449    0.0260784
   0.0166814   -0.0031809   -0.0058309    0.4633879    0.8504159   -0.2491273
   0.0155093   -0.0028833   -0.0065565    0.2507800    0.9553661   -0.1561571
   0.0171442   -0.0036358   -0.0064769    0.4262382    0.8734238   -0.2354822
   0.0177793   -0.0039490   -0.0065532    0.5227556    0.8484386   -0.0829371
   0.0183451   -0.0043576   -0.0061589    0.7352461    0.6687809    0.1102057
   0.0080050   -0.0001685   -0.0024355   -0.5992119    0.2864249   -0.7476001
   0.0081327    0.0001025   -0.0024070   -0.4862316    0.3841810   -0.7848463
   0.0082828   -0.0004036   -0.0027307   -0.5644851    0.2729398   -0.7790125
   0.0081824   -0.0003198   -0.0026205   -0.5326102    0.3195977   -0.7836988
   0.0081736   -0.0007072   -0.0027431   -0.6453439    0.1604451   -0.7468525
   0.0087356   -0.0021890   -0.0031612   -0.7910305   -0.1121900   -0.6014018
   0.0084488   -0.0017494   -0.0029055   -0.7954333   -0.2174413   -0.5656900
   0.0090539   -0.0033529   -0.0032784   -0.9141328   -0.3696679   -0.1664536
   0.0092070   -0.0034968   -0.0036606   -0.9211143   -0.1594547   -0.3551374
   0.0089864   -0.0028742   -0.0033968   -0.8313941   -0.0584486   -0.5526007
   0.0084746   -0.0009857   -0.0030176   -0.5299147    0.1231433   -0.8390626
   0.0084540   -0.0010996   -0.0030105   -0.5906102   -0.0096433   -0.8068993
   0.0084227   -0.0014524   -0.0029697   -0.6394425   -0.0662460   -0.7659796
   0.0092260   -0.0038002   -0.0035992   -0.9643558   -0.2490632   -0.0893607
   0.0092088   -0.0035121   -0.0036573   -0.9563371   -0.1059316   -0.2723929
   0.0098932   -0.0054688   -0.0034307   -0.9675599   -0.2293231    0.1060126
   0.0099146   -0.0058492   -0.0036541   -0.9774499   -0.1336658    0.1634782
   0.0093642   -0.0042809   -0.0039341   -0.9814304   -0.1749253   -0.0787111
   0.0093545   -0.0039680   -0.0039915   -0.9623218   -0.0512353   -0.2670423
   0.0094524   -0.0046056   -0.0039790   -0.9671342   -0.2537892    0.0155733
   0.0098895   -0.0056871   -0.0039221   -0.9691707   -0.1593569    0.1879191
   0.0096700   -0.0055436   -0.0045501   -0.9715741   -0.1866224    0.1456566
   0.0095581   -0.0050016   -0.0046912   -0.9832052   -0.1053787   -0.1490060
   0.0095921   -0.0052905   -0.0046236   -0.9910553   -0.1205330   -0.0572818
   0.0090297   -0.0007691   -0.0031308   -0.3869336    0.3734161   -0.8431149
   0.0084338   -0.0001737   -0.0026819   -0.3399763    0.4221277   -0.8403716
   0.0092961   -0.0002166   -0.0031236   -0.5672117    0.2514307   -0.7842535
   0.0090890    0.0001706   -0.0028559   -0.5715498    0.2826953   -0.7703338
   0.0097902    0.0008894   -0.0030657   -0.4733541    0.2608105   -0.8413761
   0.0126706   -0.0103581   -0.0020867   -0.1350449   -0.6100932    0.7807363
   0.0127743   -0.0117723   -0.0032541   -0.0116162   -0.7059197    0.7081966
   0.0113791   -0.0130562   -0.0047723    0.1104127   -0.8330501    0.5420669
   0.0126651   -0.0125150   -0.0042585    0.1740988   -0.8527993    0.4923647
   0.0136739   -0.0118906   -0.0036428    0.2793336   -0.7905952    0.5449147
   0.0132653   -0.0124000   -0.0042884    0.2593573   -0.8546323    0.4498194
   0.0144153   -0.0116464   -0.0037505    0.3195573   -0.8063767    0.4976341
   0.0124109   -0.0100827   -0.0019306   -0.1879155   -0.5991253    0.7782908
   0.0162475   -0.0113749   -0.0053141    0.6266975   -0.7419266    0.2383174
   0.0165361   -0.0111837   -0.0055712    0.6735242   -0.7224459    0.1563237
   0.0170868   -0.0105694   -0.0055422    0.7673166   -0.6175895    0.1726510
   0.0155121   -0.0118733   -0.0050579    0.4929538   -0.8335579    0.2493547
   0.0149908   -0.0120890   -0.0050400    0.3579792   -0.8769013    0.3207726
   0.0140908   -0.0123538   -0.0048089    0.3651791   -0.8897346    0.2738915
   0.0136115   -0.0124116   -0.0045813    0.2982470   -0.8531883    0.4279234
   0.0120627   -0.0100269   -0.0020120   -0.3313676   -0.4728754    0.8164462
   0.0181065   -0.0075802   -0.0032048    0.9067558   -0.2220074    0.3584784
   0.0183286   -0.0080003   -0.0040784    0.9226016   -0.2387320    0.3030071
   0.0187401   -0.0072173   -0.0049604    0.9626353   -0.0950195    0.2535833
   0.0178585   -0.0095824   -0.0059625    0.8296377   -0.5488099    0.1025133
   0.0177301   -0.0097985   -0.0061024    0.8278003   -0.5522136    0.0990291
   0.0187560   -0.0081333   -0.0057876    0.8993911   -0.4058012    0.1625456
   0.0187781   -0.0077966   -0.0053365    0.9409258   -0.2331506    0.2455594
   0.0186448   -0.0085636   -0.0074327    0.8114243   -0.5842130    0.0169052
   0.0190657   -0.0078222   -0.0073059    0.9253344   -0.3696797    0.0842211
   0.0110111   -0.0088758   -0.0023825   -0.7446469   -0.2059708    0.6348835
   0.0103244   -0.0079755   -0.0032595   -0.8621380   -0.0950363    0.4976807
   0.0100997   -0.0070741   -0.0035422   -0.9280248   -0.0406330    0.3702958
   0.0111376   -0.0095931   -0.0025214   -0.6744301   -0.2634838    0.6897249
   0.0108216   -0.0105633   -0.0031065   -0.6675714   -0.2347419    0.7065725
   0.0108548   -0.0109951   -0.0032543   -0.5684198   -0.3445304    0.7471263
   0.0119398   -0.0102334   -0.0021911   -0.3735601   -0.4816201    0.7927767
   0.0111110   -0.0116860   -0.0034938   -0.3449598   -0.5210529    0.7807091
   0.0098496    0.0004617   -0.0032359   -0.4591408    0.3960739   -0.7951825
   0.0098526    0.0000728   -0.0033879   -0.4115132    0.2956865   -0.8621058
   0.0096355   -0.0001168   -0.0033381   -0.4738490    0.2831512   -0.8338420
   0.0108333   -0.0013007   -0.0042567   -0.2230974    0.3509662   -0.9094230
   0.0118875   -0.0005227   -0.0040935   -0.0965382    0.2829627   -0.9542602
   0.0118551   -0.0008890   -0.0041939   -0.0485446    0.2996233   -0.9528218
   0.0145981   -0.0028604   -0.0068860   -0.0517386    0.9831958   -0.1750688
   0.0123259   -0.0010432   -0.0042481   -0.0790947    0.2651700   -0.9609521
   0.0125745   -0.0017245   -0.0044858   -0.0668468    0.4499123   -0.8905674
   0.0123617   -0.0030637   -0.0058645   -0.2948458    0.8048274   -0.5150911
   0.0124372   -0.0025712   -0.0052012   -0.0779039    0.7915027   -0.6061802
   0.0125125   -0.0023534   -0.0049115   -0.0977246    0.7152622   -0.6919898
   0.0121173   -0.0028847   -0.0055454   -0.1709751    0.8004551   -0.5744903
   0.0143348   -0.0030243   -0.0077047   -0.2559015    0.9415015   -0.2192930
   0.0132651   -0.0038507   -0.0086785   -0.5772136    0.7492998   -0.3246142
   0.0122224   -0.0040289   -0.0072724   -0.6490572    0.6468699   -0.4003550
   0.0123305   -0.0033140   -0.0062090   -0.3959079    0.7490154   -0.5312560
   0.0126186   -0.0021273   -0.0047266   -0.0624045    0.5804006   -0.8119365
   0.0190542   -0.0058859   -0.0059898    0.9629523    0.0230155    0.2686880
   0.0188177   -0.0051807   -0.0057495    0.8621283    0.4288449    0.2698644
   0.0189071   -0.0056690   -0.0056162    0.9337801    0.1834638    0.3072388
   0.0163280   -0.0031793   -0.0065294    0.5135821    0.8420925   -0.1646622
   0.0170484   -0.0036108   -0.0065365    0.3218071    0.8437830   -0.4295001
   0.0168549   -0.0036886   -0.0067848    0.4745847    0.6992117   -0.5346704
   0.0160805   -0.0031015   -0.0066852    0.3807940    0.9167133   -0.1209655
   0.0150903   -0.0028747   -0.0072941    0.0119034    0.9921138   -0.1247737
   0.0152773   -0.0029500   -0.0076683    0.0618055    0.9848105   -0.1622601
   0.0157042   -0.0030951   -0.0078921    0.3478535    0.9264254   -0.1439927
   0.0171849   -0.0037331   -0.0066681    0.2498350    0.8736240   -0.4175687
   0.0178647   -0.0040490   -0.0069818    0.4433571    0.8868790   -0.1299233
   0.0190476   -0.0055706   -0.0060461    0.9368666    0.2399767    0.2543464
   0.0191693   -0.0056178   -0.0064627    0.8940797    0.3723319    0.2489789
   0.0191385   -0.0051039   -0.0070604    0.8874041    0.4169876    0.1965588
   0.0180773   -0.0041671   -0.0073338    0.3702088    0.9269397   -0.0610592
   0.0187424   -0.0045010   -0.0078839    0.6681154    0.7440573   -0.0007274
   0.0190519   -0.0048395   -0.0076489    0.8340987    0.5497412    0.0454316
   0.0084253   -0.0001886   -0.0026841   -0.3524310    0.4027921   -0.8447194
   0.0085329   -0.0006421   -0.0029442   -0.3655238    0.3316551   -0.8697110
   0.0093236   -0.0024155   -0.0037736   -0.6951935    0.0915478   -0.7129691
   0.0087599   -0.0017369   -0.0032224   -0.6768298   -0.0762332   -0.7321816
   0.0090694   -0.0020241   -0.0034906   -0.6464308    0.0866561   -0.7580356
   0.0094466   -0.0032330   -0.0040607   -0.7939414    0.1699575   -0.5837563
   0.0093822   -0.0035607   -0.0040436   -0.9024789    0.0545910   -0.4272607
   0.0089409   -0.0010592   -0.0032311   -0.4304979    0.1832726   -0.8837889
   0.0087602   -0.0017325   -0.0032228   -0.5825455    0.0992820   -0.8067118
   0.0098901   -0.0069354   -0.0041881   -0.9673310    0.0367105    0.2508448
   0.0098840   -0.0072571   -0.0041275   -0.9639700    0.0650229    0.2579417
   0.0094607   -0.0041587   -0.0043934   -0.9482185    0.0608957   -0.3117266
   0.0094476   -0.0044147   -0.0043580   -0.9737177   -0.0716089   -0.2162084
   0.0094946   -0.0039986   -0.0044001   -0.8953165    0.1540433   -0.4179463
   0.0097055   -0.0063926   -0.0047904   -0.9603516   -0.0225156    0.2778810
   0.0098535   -0.0063497   -0.0043447   -0.9564410   -0.0110912    0.2917148
   0.0096070   -0.0053622   -0.0047481   -0.9937846   -0.1028735   -0.0425360
   0.0096544   -0.0057612   -0.0050037   -0.9974916   -0.0566818   -0.0424001
   0.0096707   -0.0061520   -0.0049294   -0.9980578    0.0281786    0.0555566
   0.0095976   -0.0044223   -0.0047647   -0.8963867    0.1108045   -0.4292007
   0.0096720   -0.0051841   -0.0050897   -0.9408263    0.0469525   -0.3356209
   0.0096670   -0.0052839   -0.0050757   -0.9729519    0.0358619   -0.2282073
   0.0097776   -0.0010330   -0.0037418   -0.4509266    0.3063036   -0.8383575
   0.0092608    0.0002169   -0.0029712   -0.5582245    0.3524082   -0.7511284
   0.0120397   -0.0113796   -0.0029498   -0.1739158   -0.6100693    0.7730257
   0.0106905   -0.0125799   -0.0042597   -0.1148057   -0.6742630    0.7295129
   0.0118431   -0.0118138   -0.0033944   -0.1429546   -0.6436119    0.7518828
   0.0120533   -0.0128626   -0.0046652    0.1983209   -0.8637854    0.4631885
   0.0107799   -0.0129791   -0.0046365   -0.0606475   -0.7494543    0.6592724
   0.0108375   -0.0132963   -0.0050916    0.0217664   -0.8682247    0.4956936
   0.0107930   -0.0134817   -0.0055343    0.0905278   -0.9642632    0.2490005
   0.0121022   -0.0129604   -0.0048659    0.1970003   -0.9067094    0.3729195
   0.0125945   -0.0129407   -0.0050796    0.2407921   -0.9251814    0.2933572
   0.0136599   -0.0125848   -0.0050191    0.3674909   -0.8997551    0.2353534
   0.0156565   -0.0118695   -0.0054697    0.5779673   -0.7997781    0.1621999
   0.0165990   -0.0112744   -0.0065088    0.7046013   -0.7067719    0.0633292
   0.0169346   -0.0108755   -0.0063808    0.7590530   -0.6443840    0.0927781
   0.0176250   -0.0099987   -0.0063407    0.8101896   -0.5826963    0.0637010
   0.0148799   -0.0124144   -0.0059530    0.4281742   -0.8816724    0.1982943
   0.0141112   -0.0125084   -0.0052659    0.3256861   -0.8923848    0.3123747
   0.0138747   -0.0124571   -0.0049344    0.3998574   -0.9017521    0.1641867
   0.0188621   -0.0078227   -0.0057780    0.9727034   -0.1416217    0.1838243
   0.0177600   -0.0098294   -0.0070687    0.8298298   -0.5580140   -0.0017170
   0.0190212   -0.0077975   -0.0066800    0.9731872   -0.1951998    0.1216706
   0.0173388   -0.0103526   -0.0076483    0.8269223   -0.5505527   -0.1144173
   0.0176961   -0.0098453   -0.0078070    0.7940417   -0.5808068   -0.1793355
   0.0178784   -0.0093664   -0.0083605    0.7359018   -0.6646915   -0.1289716
   0.0188782   -0.0083121   -0.0076657    0.8818039   -0.4714242    0.0134621
   0.0187497   -0.0084646   -0.0079361    0.7902368   -0.6117305   -0.0362154
   0.0190842   -0.0076795   -0.0076511    0.9779024   -0.2089007   -0.0082031
   0.0105609   -0.0093011   -0.0030809   -0.7838654   -0.1284989    0.6074892
   0.0099924   -0.0072872   -0.0037487   -0.9065086    0.0308008    0.4210623
   0.0100617   -0.0101210   -0.0037812   -0.7501013   -0.1335758    0.6476925
   0.0107900   -0.0116447   -0.0036261   -0.3948859   -0.4996668    0.7709723
   0.0106203   -0.0114115   -0.0036309   -0.5986981   -0.2953250    0.7445426
   0.0113441   -0.0119500   -0.0036034   -0.2637865   -0.5623240    0.7837145
   0.0095818    0.0003263   -0.0031517   -0.4983836    0.4147366   -0.7613195
   0.0105418   -0.0014815   -0.0042154   -0.2997553    0.3544568   -0.8857241
   0.0110358   -0.0016111   -0.0044033   -0.2284368    0.4392834   -0.8688191
   0.0116905   -0.0014900   -0.0043847    0.0188252    0.3894849   -0.9208404
   0.0120299   -0.0015123   -0.0043406    0.0204356    0.3884773   -0.9212317
   0.0121541   -0.0020646   -0.0046718    0.0188522    0.6224352   -0.7824442
   0.0119302   -0.0017573   -0.0045064    0.0256963    0.5275654   -0.8491257
   0.0124546   -0.0023851   -0.0049395    0.0532956    0.7606333   -0.6469904
   0.0116666   -0.0028416   -0.0053183   -0.2066824    0.7164041   -0.6663690
   0.0138185   -0.0035804   -0.0088991   -0.4427973    0.8464183   -0.2958152
   0.0146272   -0.0031031   -0.0083649   -0.2139758    0.9526864   -0.2158773
   0.0129301   -0.0040146   -0.0083503   -0.6659306    0.6447360   -0.3753025
   0.0130409   -0.0040392   -0.0086105   -0.4906008    0.7843911   -0.3795279
   0.0132523   -0.0040674   -0.0091447   -0.6129239    0.7023959   -0.3618899
   0.0120457   -0.0039709   -0.0068951   -0.5811089    0.6553826   -0.4824791
   0.0114094   -0.0052122   -0.0075444   -0.6580172    0.5549762   -0.5089349
   0.0122718   -0.0048345   -0.0085933   -0.7150647    0.5721670   -0.4016310
   0.0119505   -0.0050227   -0.0082530   -0.7447884    0.5238577   -0.4133562
   0.0127626   -0.0044536   -0.0088683   -0.6702447    0.6285190   -0.3946339
   0.0117846   -0.0035289   -0.0061246   -0.4241939    0.6600747   -0.6199685
   0.0190250   -0.0068545   -0.0063401    0.9614914   -0.0981257    0.2567210
   0.0192121   -0.0061137   -0.0065038    0.9565756   -0.1012918    0.2733187
   0.0164596   -0.0033447   -0.0069205    0.6617411    0.7290843   -0.1747422
   0.0166340   -0.0034946   -0.0067949    0.6828506    0.6841351   -0.2562699
   0.0170766   -0.0039029   -0.0069665   -0.0173645    0.8194322   -0.5729130
   0.0166346   -0.0036959   -0.0070990    0.8847123    0.3106285   -0.3475544
   0.0168912   -0.0040694   -0.0070454   -0.0342289    0.6752931   -0.7367548
   0.0167550   -0.0039050   -0.0070043    0.6159528    0.2962535   -0.7299562
   0.0160208   -0.0031326   -0.0072087    0.4597676    0.8779244   -0.1336509
   0.0151236   -0.0031531   -0.0087121    0.0631157    0.9585849   -0.2777254
   0.0147123   -0.0031069   -0.0084623   -0.1903605    0.9509396   -0.2438786
   0.0161739   -0.0032905   -0.0075888    0.5522655    0.8218866   -0.1396612
   0.0160387   -0.0033548   -0.0086448    0.3671361    0.9164929   -0.1589081
   0.0164732   -0.0035707   -0.0083584    0.5906739    0.8068556   -0.0093985
   0.0171850   -0.0038904   -0.0069056    0.1287681    0.9290847   -0.3467281
   0.0193283   -0.0058837   -0.0068213    0.9677909    0.1249811    0.2185416
   0.0193389   -0.0055232   -0.0073695    0.9425193    0.3072675    0.1313167
   0.0179014   -0.0040959   -0.0074473    0.2068047    0.9762914   -0.0639284
   0.0181507   -0.0042025   -0.0084175    0.3376046    0.9409324    0.0258728
   0.0186801   -0.0044619   -0.0084208    0.4714367    0.8815673   -0.0242200
   0.0178599   -0.0041099   -0.0079637    0.1507061    0.9865456   -0.0633675
   0.0185407   -0.0043776   -0.0080210    0.4688101    0.8832124   -0.0123677
   0.0190561   -0.0048079   -0.0081462    0.8608744    0.5088156   -0.0014120
   0.0189171   -0.0046234   -0.0082573    0.7098096    0.7024684   -0.0520432
   0.0191896   -0.0050838   -0.0076250    0.8782588    0.4778212    0.0186645
   0.0098360   -0.0018779   -0.0040541   -0.6004406    0.2226996   -0.7680338
   0.0099506   -0.0015798   -0.0040455   -0.4851453    0.2786754   -0.8288389
   0.0097764   -0.0030040   -0.0044031   -0.6450939    0.2947386   -0.7049702
   0.0098960   -0.0034566   -0.0047535   -0.6459686    0.3836921   -0.6599280
   0.0097724   -0.0037374   -0.0047782   -0.7818739    0.2584435   -0.5673449
   0.0098505   -0.0073333   -0.0042054   -0.9359025    0.0855830    0.3417047
   0.0094622   -0.0077877   -0.0050151   -0.9564590    0.1008045    0.2739062
   0.0097161   -0.0069654   -0.0045863   -0.9364436    0.0855937    0.3402162
   0.0096151   -0.0066137   -0.0050273   -0.9789672    0.1035957    0.1757589
   0.0097057   -0.0060910   -0.0054158   -0.9652443    0.1088156   -0.2376188
   0.0096425   -0.0064747   -0.0053864   -0.9786253    0.1669189   -0.1201274
   0.0100136   -0.0046443   -0.0054770   -0.7739038    0.2706841   -0.5725409
   0.0097889   -0.0052987   -0.0053893   -0.8714094    0.1986547   -0.4485331
   0.0105311   -0.0127302   -0.0044472   -0.3781326   -0.6090903    0.6971548
   0.0107357   -0.0122992   -0.0040163   -0.3600050   -0.4918185    0.7927868
   0.0105383   -0.0130469   -0.0047644   -0.2042325   -0.7678499    0.6072031
   0.0105706   -0.0133445   -0.0051909   -0.1068346   -0.8743317    0.4734242
   0.0119988   -0.0132156   -0.0056805    0.2299963   -0.9623044    0.1451620
   0.0103044   -0.0133679   -0.0053403   -0.2589835   -0.8862675    0.3840019
   0.0102361   -0.0134864   -0.0058548   -0.3053118   -0.9482022    0.0877341
   0.0106968   -0.0135465   -0.0060732    0.0122689   -0.9979800   -0.0623327
   0.0113584   -0.0133979   -0.0063472    0.2047927   -0.9718041   -0.1168624
   0.0127572   -0.0130533   -0.0062525    0.2236364   -0.9738631    0.0397176
   0.0133369   -0.0129218   -0.0061379    0.2151344   -0.9685641    0.1249032
   0.0137461   -0.0127745   -0.0058155    0.2635145   -0.9443622    0.1968249
   0.0140592   -0.0125353   -0.0052910    0.2874152   -0.9143174    0.2853353
   0.0154424   -0.0121584   -0.0061713    0.5136937   -0.8541063    0.0813710
   0.0162542   -0.0116062   -0.0067521    0.6191868   -0.7852097    0.0073057
   0.0170633   -0.0107878   -0.0069273    0.7723122   -0.6352419    0.0012798
   0.0165186   -0.0113698   -0.0070337    0.6644614   -0.7438391   -0.0720721
   0.0167953   -0.0110357   -0.0075543    0.7211821   -0.6822248   -0.1202735
   0.0174359   -0.0102870   -0.0071126    0.8043986   -0.5940019   -0.0102262
   0.0144189   -0.0126584   -0.0060526    0.3345945   -0.9239903    0.1851713
   0.0145849   -0.0126029   -0.0064602    0.3914951   -0.9199931    0.0185538
