NORM_ASCII
1025 2046
   0.0317551   -0.1334260    0.0180669    0.2806758   -0.3258799    0.9027864
   0.0319828   -0.1332970    0.0180165    0.5653703   -0.3127830    0.7632321
   0.0276674   -0.1287801    0.0190237    0.0397741    0.1045051    0.9937287
   0.0290157   -0.1311984    0.0189054    0.1659437    0.0286565    0.9857188
   0.0296805   -0.1306549    0.0187863    0.2340015    0.0305872    0.9717550
   0.0299234   -0.1305740    0.0187934    0.1935708    0.0322822    0.9805551
   0.0302501   -0.1310401    0.0188328    0.0046872   -0.0000921    0.9999890
   0.0296552   -0.1285737    0.0153886    0.0818631    0.0257765   -0.9963102
   0.0313636   -0.1318901    0.0151037    0.2083417   -0.0010877   -0.9780555
   0.0310429   -0.1314557    0.0150723    0.1328882    0.1160868   -0.9843092
   0.0316367   -0.1319530    0.0151742    0.3973685    0.0081566   -0.9176229
   0.0302125   -0.1309544    0.0150937    0.0254583    0.2193430   -0.9753156
   0.0284398   -0.1308332    0.0152334   -0.1105493    0.1828573   -0.9769043
   0.0287360   -0.1292142    0.0154008   -0.0616462    0.0319548   -0.9975864
   0.0324781   -0.1320203    0.0156736    0.5860363   -0.1122110   -0.8024775
   0.0326186   -0.1327287    0.0159377    0.6626297   -0.3261611   -0.6741964
   0.0328029   -0.1326628    0.0161988    0.9335036   -0.1463430   -0.3273449
   0.0308156   -0.1224605    0.0170470    0.9030379    0.1393496    0.4063303
   0.0307964   -0.1209897    0.0165741    0.9895096    0.0666013    0.1281994
   0.0284574   -0.1256521    0.0152959    0.0251509   -0.0119208   -0.9996126
   0.0281350   -0.1251799    0.0152956   -0.0693302   -0.0333318   -0.9970368
   0.0270937   -0.1248918    0.0153966   -0.1933938   -0.0748898   -0.9782588
   0.0265178   -0.1243377    0.0154773   -0.2943059   -0.1406958   -0.9452982
   0.0267556   -0.1212963    0.0149076   -0.1978244   -0.1796068   -0.9636425
   0.0289064   -0.1225347    0.0150039    0.0102721   -0.2557742   -0.9666820
   0.0306959   -0.1201372    0.0155260    0.9319563   -0.0870783   -0.3519586
   0.0308295   -0.1205178    0.0162618    0.9995564    0.0167781    0.0246063
   0.0300886   -0.1215382    0.0149178    0.5857109   -0.1636566   -0.7938257
   0.0303293   -0.1202872    0.0149083    0.7814799   -0.1766968   -0.5983874
   0.0297171   -0.1224304    0.0149616    0.2045197   -0.2923374   -0.9341898
   0.0298808   -0.1219064    0.0148639    0.4320434   -0.2204397   -0.8744969
   0.0304645   -0.1204159    0.0172099    0.8647995    0.1157458    0.4885946
   0.0307151   -0.1219452    0.0171219    0.8923495    0.1095647    0.4378446
   0.0302516   -0.1199007    0.0173806    0.7700046    0.1200368    0.6266451
   0.0283822   -0.1250810    0.0189097    0.1076660    0.0173222    0.9940362
   0.0282366   -0.1240659    0.0189225    0.1053353    0.0516620    0.9930939
   0.0276404   -0.1251776    0.0189439   -0.0672355    0.0059364    0.9977195
   0.0278145   -0.1246384    0.0189356    0.0135809    0.0236040    0.9996291
   0.0271816   -0.1273193    0.0188837   -0.0916748    0.0168044    0.9956472
   0.0267546   -0.1278997    0.0188547   -0.2390315    0.0483989    0.9698049
   0.0293740   -0.1219236    0.0184091    0.4175784    0.1306213    0.8992032
   0.0287460   -0.1224818    0.0186908    0.2193583    0.1032348    0.9701672
   0.0296822   -0.1209055    0.0180520    0.5416166    0.1253158    0.8312325
   0.0300200   -0.1193869    0.0175541    0.6836325    0.1043904    0.7223221
   0.0328433   -0.1326209    0.0164168    0.9919991   -0.1262261   -0.0021949
   0.0327066   -0.1331039    0.0167443    0.9310393   -0.3532324    0.0916119
   0.0322036   -0.1333222    0.0177629    0.7528101   -0.3755944    0.5405606
   0.0322018   -0.1336977    0.0173665    0.6854895   -0.6592327    0.3090574
   0.0321540   -0.1337974    0.0169296    0.6397371   -0.7660867   -0.0620287
   0.0325478   -0.1333608    0.0165775    0.6877702   -0.6880227   -0.2315100
   0.0302876   -0.1313109    0.0188190    0.2573443   -0.0518976    0.9649252
   0.0308831   -0.1320935    0.0186441    0.1300216   -0.2611285    0.9565073
   0.0303201   -0.1315524    0.0188043    0.0469594   -0.1293119    0.9904914
   0.0317714   -0.1337162    0.0178837    0.4059514   -0.6543743    0.6379638
   0.0315091   -0.1334447    0.0181012    0.0391788   -0.5076326    0.8606824
   0.0270012   -0.1308922    0.0193148    0.1415288    0.0660040    0.9877313
   0.0267526   -0.1294143    0.0190741   -0.1447759    0.1980361    0.9694440
   0.0265778   -0.1284423    0.0188374   -0.2822139    0.1247214    0.9512097
   0.0299995   -0.1310774    0.0188164    0.6171058   -0.0111329    0.7868015
   0.0286537   -0.1321655    0.0189388    0.3503574   -0.2926824    0.8897116
   0.0293564   -0.1318984    0.0188049    0.1249498   -0.2156785    0.9684371
   0.0299995   -0.1310774    0.0188164    0.9474083    0.0125649    0.3197807
   0.0299995   -0.1310774    0.0188164    0.8215650   -0.0067814    0.5700746
   0.0286809   -0.1271681    0.0153192   -0.0385027   -0.0319110   -0.9987488
   0.0308775   -0.1320767    0.0150616    0.0058587   -0.2064292   -0.9784440
   0.0317196   -0.1324463    0.0152564    0.2829038   -0.2244136   -0.9325256
   0.0303027   -0.1316437    0.0150240   -0.0330730   -0.0940474   -0.9950182
   0.0300559   -0.1316763    0.0150408   -0.0451192   -0.1605651   -0.9859935
   0.0287400   -0.1312801    0.0151049   -0.0988821    0.0603981   -0.9932645
   0.0275774   -0.1298759    0.0154940   -0.1294806    0.1044698   -0.9860633
   0.0282578   -0.1313765    0.0151817   -0.1406938    0.0345985   -0.9894484
   0.0279511   -0.1308884    0.0153041   -0.0947835    0.1660106   -0.9815582
   0.0278486   -0.1282956    0.0154489   -0.1171769   -0.0338664   -0.9925334
   0.0318040   -0.1328497    0.0154375    0.4354717   -0.3622636   -0.8240931
   0.0318953   -0.1332057    0.0157151    0.3832743   -0.6053054   -0.6976433
   0.0324505   -0.1331611    0.0160970    0.5668410   -0.6254689   -0.5361716
   0.0327051   -0.1330019    0.0162678    0.8483071   -0.4355654   -0.3010944
   0.0307245   -0.1209615    0.0168083    0.9421189    0.1034582    0.3189175
   0.0306229   -0.1204327    0.0169631    0.9125323    0.1049838    0.3953014
   0.0283869   -0.1268741    0.0153339   -0.1033911   -0.0489656   -0.9934348
   0.0281138   -0.1267241    0.0153515   -0.1161384   -0.0535095   -0.9917906
   0.0278961   -0.1269194    0.0154036   -0.2043922   -0.0532875   -0.9774376
   0.0268365   -0.1248168    0.0154472   -0.3172826   -0.1203001   -0.9406698
   0.0265138   -0.1258566    0.0156806   -0.3621156   -0.1005659   -0.9266924
   0.0265914   -0.1263575    0.0157167   -0.3269065   -0.1010946   -0.9396340
   0.0261877   -0.1252418    0.0157995   -0.4194198   -0.1031035   -0.9019183
   0.0255998   -0.1243871    0.0159612   -0.4698000   -0.2077680   -0.8579746
   0.0258806   -0.1233833    0.0155394   -0.3063601   -0.1896423   -0.9328340
   0.0284675   -0.1210991    0.0146645   -0.1419670   -0.2423927   -0.9597349
   0.0261419   -0.1208376    0.0150709   -0.2627419   -0.1665638   -0.9503806
   0.0269133   -0.1207812    0.0147574   -0.2379565   -0.1863090   -0.9532396
   0.0294261   -0.1222411    0.0148892    0.0080911   -0.3139711   -0.9493981
   0.0290387   -0.1215366    0.0146685   -0.0987896   -0.2804581   -0.9547690
   0.0307897   -0.1200975    0.0159670    0.9948503   -0.0292481   -0.0970438
   0.0305266   -0.1197255    0.0150192    0.9041663   -0.1666749   -0.3933228
   0.0308286   -0.1190795    0.0155626    0.9799713   -0.1263417   -0.1539289
   0.0307750   -0.1196216    0.0163490    0.9781104   -0.0036207    0.2080553
   0.0299254   -0.1204042    0.0145199    0.5564989   -0.2506076   -0.7921520
   0.0293732   -0.1206176    0.0143952    0.0696573   -0.3038096   -0.9501829
   0.0300371   -0.1198815    0.0144650    0.6442698   -0.2708233   -0.7152421
   0.0305637   -0.1187497    0.0146225    0.8414917   -0.2437591   -0.4821548
   0.0304221   -0.1199172    0.0171320    0.9713149    0.0499449    0.2324929
   0.0304221   -0.1199172    0.0171320    0.9600039    0.0567445    0.2741760
   0.0302586   -0.1193972    0.0172957    0.8421922    0.0758120    0.5338210
   0.0277557   -0.1225972    0.0188217    0.0264292    0.0795317    0.9964819
   0.0275020   -0.1242555    0.0189141   -0.0541399    0.0400105    0.9977314
   0.0271174   -0.1251308    0.0188794   -0.1753448   -0.0006673    0.9845069
   0.0269034   -0.1232311    0.0188195   -0.0935873    0.0332255    0.9950565
   0.0265395   -0.1265413    0.0187280   -0.2752138   -0.0035481    0.9613765
   0.0259499   -0.1261834    0.0185132   -0.4903725   -0.0588004    0.8695271
   0.0260252   -0.1275387    0.0185003   -0.5132879    0.0375644    0.8573940
   0.0282571   -0.1210104    0.0186222    0.1823506    0.1084130    0.9772384
   0.0290797   -0.1200584    0.0182446    0.3684154    0.1085729    0.9232995
   0.0296121   -0.1188807    0.0178434    0.5575388    0.1117916    0.8225893
   0.0299918   -0.1183716    0.0174637    0.7262547    0.1028102    0.6796942
   0.0319580   -0.1339219    0.0172050    0.4033167   -0.9067519    0.1230308
   0.0318865   -0.1338778    0.0167474    0.3014392   -0.8988784   -0.3180441
   0.0317880   -0.1336742    0.0162661    0.1935939   -0.8516005   -0.4871324
   0.0312501   -0.1333865    0.0181240    0.0575331   -0.4882361    0.8708131
   0.0306858   -0.1325761    0.0185447    0.1284432   -0.3126888    0.9411313
   0.0304345   -0.1325827    0.0185531    0.0233759   -0.3375107    0.9410314
   0.0315201   -0.1338989    0.0177161    0.0122017   -0.8490249    0.5282119
   0.0276974   -0.1323772    0.0191291    0.2020492   -0.1117388    0.9729803
   0.0279470   -0.1324105    0.0190688    0.2204697   -0.1147168    0.9686244
   0.0268329   -0.1314240    0.0193712    0.0200440   -0.0431939    0.9988656
   0.0264275   -0.1304583    0.0192882   -0.1140268    0.1388248    0.9837304
   0.0265900   -0.1299374    0.0191823   -0.1025067    0.2404096    0.9652438
   0.0261047   -0.1288107    0.0187020   -0.3998691    0.2255607    0.8883845
   0.0286927   -0.1329827    0.0183808    0.2182605   -0.4614792    0.8598833
   0.0277745   -0.1330642    0.0189702    0.3109590   -0.2736238    0.9101838
   0.0284471   -0.1328079    0.0186126    0.5464860   -0.4257787    0.7211557
   0.0280256   -0.1332707    0.0187431    0.5244880   -0.4236702    0.7385228
   0.0312366   -0.1326239    0.0152424    0.0428426   -0.3625709   -0.9309709
   0.0307565   -0.1327341    0.0153213   -0.0957093   -0.5199602   -0.8488116
   0.0299935   -0.1326386    0.0154020   -0.1108606   -0.4560707   -0.8830116
   0.0315640   -0.1329571    0.0154212    0.1106604   -0.5354217   -0.8373039
   0.0285798   -0.1318576    0.0151729   -0.0744073   -0.2499472   -0.9653963
   0.0291637   -0.1322760    0.0152848   -0.0749360   -0.4646776   -0.8823034
   0.0269297   -0.1306835    0.0154642   -0.1372801    0.1998959   -0.9701525
   0.0263638   -0.1300820    0.0156653   -0.1163682    0.1574326   -0.9806495
   0.0277448   -0.1312859    0.0152317   -0.0339919    0.0896435   -0.9953937
   0.0260432   -0.1295272    0.0157592   -0.1337827    0.0794223   -0.9878230
   0.0276846   -0.1324628    0.0153919    0.0031061   -0.3074286   -0.9515661
   0.0275270   -0.1278218    0.0154536   -0.2993515    0.0178370   -0.9539762
   0.0271168   -0.1283765    0.0155667   -0.2858793    0.0827115   -0.9546894
   0.0316675   -0.1333346    0.0157654    0.1400678   -0.7293209   -0.6696805
   0.0305778   -0.1195464    0.0168210    0.8860767    0.0627646    0.4592698
   0.0269857   -0.1273397    0.0157058   -0.3169772   -0.0059061   -0.9484148
   0.0261891   -0.1269009    0.0158995   -0.3128333   -0.0638083   -0.9476623
   0.0258071   -0.1259012    0.0160169   -0.3463101   -0.0370181   -0.9373894
   0.0252616   -0.1254235    0.0162322   -0.4490491   -0.0051987   -0.8934919
   0.0247691   -0.1224604    0.0157938   -0.4646676   -0.2355607   -0.8535779
   0.0246487   -0.1239212    0.0164632   -0.7303476   -0.2300370   -0.6431759
   0.0246644   -0.1231791    0.0161078   -0.6032384   -0.2912309   -0.7424877
   0.0255898   -0.1216390    0.0152744   -0.2548203   -0.1794642   -0.9501890
   0.0258516   -0.1213741    0.0151971   -0.1498425   -0.1491382   -0.9773971
   0.0273455   -0.1204028    0.0146164   -0.1463229   -0.1570684   -0.9766878
   0.0286229   -0.1205881    0.0144984   -0.1887683   -0.2539537   -0.9486169
   0.0280552   -0.1201454    0.0145231   -0.1869104   -0.2602704   -0.9472718
   0.0259338   -0.1198544    0.0149334   -0.2242595   -0.1936602   -0.9550934
   0.0309573   -0.1185259    0.0156836    0.9897551   -0.1329022   -0.0521719
   0.0308707   -0.1188924    0.0159854    0.9887284   -0.1151706    0.0956656
   0.0307029   -0.1189394    0.0165378    0.8627721    0.0424361    0.5038090
   0.0308485   -0.1179263    0.0162868    0.9219793   -0.0349356    0.3856599
   0.0295622   -0.1190223    0.0137867    0.3406383   -0.3266093   -0.8816416
   0.0290640   -0.1190913    0.0137762   -0.1727411   -0.3362933   -0.9257793
   0.0285969   -0.1204411    0.0144641   -0.2148132   -0.3302021   -0.9191419
   0.0290099   -0.1200676    0.0141842   -0.2470192   -0.3682491   -0.8963114
   0.0297813   -0.1187675    0.0138053    0.5201064   -0.2809582   -0.8065679
   0.0300050   -0.1189218    0.0140325    0.6642027   -0.2906536   -0.6887346
   0.0308453   -0.1176756    0.0146370    0.8778287   -0.2575276   -0.4038519
   0.0310674   -0.1174635    0.0152628    0.9776994   -0.1835563   -0.1020343
   0.0305027   -0.1182900    0.0143235    0.8550233   -0.2156987   -0.4716028
   0.0303018   -0.1185141    0.0141567    0.7066859   -0.2862038   -0.6470567
   0.0304221   -0.1199172    0.0171320    0.9554798    0.0278836    0.2937362
   0.0305629   -0.1194275    0.0168377    0.9194773    0.0326345    0.3917863
   0.0303530   -0.1194036    0.0171701    0.7953392    0.0851559    0.6001533
   0.0268540   -0.1217003    0.0187475   -0.0332233    0.0524365    0.9980715
   0.0262211   -0.1243791    0.0186932   -0.4533559   -0.0409092    0.8903903
   0.0263714   -0.1253881    0.0187195   -0.4534630   -0.0644800    0.8889396
   0.0265057   -0.1227782    0.0187621   -0.2996493    0.0026224    0.9540458
   0.0256630   -0.1244875    0.0184969   -0.4230008   -0.0567549    0.9043502
   0.0255869   -0.1255500    0.0183876   -0.5642031   -0.1159015    0.8174605
   0.0254166   -0.1271774    0.0180576   -0.6688823   -0.0527320    0.7414957
   0.0247998   -0.1257742    0.0176718   -0.7321337   -0.1412860    0.6663471
   0.0254180   -0.1282125    0.0180517   -0.7261762    0.0519364    0.6855441
   0.0271418   -0.1185817    0.0186063    0.1330476    0.0375808    0.9903969
   0.0293407   -0.1183858    0.0179327    0.4811138    0.0884326    0.8721864
   0.0286706   -0.1189378    0.0182947    0.3048851    0.0935879    0.9477797
   0.0304499   -0.1194106    0.0170441    0.8356863    0.0775986    0.5436973
   0.0296210   -0.1173556    0.0176783    0.5914949    0.0488551    0.8048273
   0.0300737   -0.1178709    0.0172945    0.7713979    0.0752721    0.6318856
   0.0316879   -0.1339886    0.0170208   -0.0404257   -0.9982671   -0.0427605
   0.0313959   -0.1339232    0.0168172   -0.1298205   -0.9505249   -0.2822215
   0.0313444   -0.1338056    0.0165743   -0.1358567   -0.9392373   -0.3152401
   0.0307970   -0.1337038    0.0163968   -0.1095432   -0.9332540   -0.3421072
   0.0311838   -0.1334214    0.0158411   -0.0312455   -0.7651090   -0.6431422
   0.0310049   -0.1336009    0.0179613   -0.0485926   -0.7015410    0.7109705
   0.0307252   -0.1330294    0.0183608    0.0148577   -0.4783206    0.8780596
   0.0299637   -0.1331374    0.0182457   -0.0495175   -0.5508729    0.8331189
   0.0309830   -0.1338583    0.0175474   -0.1698365   -0.9374645    0.3038354
   0.0275162   -0.1329284    0.0190781    0.1932185   -0.2036743    0.9597830
   0.0269582   -0.1324700    0.0191864    0.0251793   -0.1845503    0.9825005
   0.0266920   -0.1323505    0.0192180   -0.2394510   -0.2183371    0.9460402
   0.0264659   -0.1314812    0.0193312   -0.2624678   -0.1144546    0.9581288
   0.0262524   -0.1310006    0.0192898   -0.3369870    0.0212586    0.9412693
   0.0260828   -0.1300209    0.0190970   -0.3541241    0.2083013    0.9117054
   0.0257250   -0.1296021    0.0187913   -0.6931905    0.1760047    0.6989344
   0.0284941   -0.1334344    0.0183057    0.4344416   -0.4756547    0.7648615
   0.0299774   -0.1336054    0.0178626    0.1090061   -0.8603088    0.4979825
   0.0275691   -0.1334658    0.0189005    0.2701326   -0.4503245    0.8510207
   0.0278143   -0.1336918    0.0186103    0.4385251   -0.6587133    0.6113857
   0.0306873   -0.1334311    0.0159056   -0.1263787   -0.7335331   -0.6678006
   0.0295145   -0.1327047    0.0155289   -0.1233913   -0.5829974   -0.8030496
   0.0281300   -0.1328715    0.0156771    0.0370997   -0.5928279   -0.8044742
   0.0293417   -0.1330191    0.0157779   -0.0910577   -0.6977858   -0.7104953
   0.0259841   -0.1311291    0.0154905   -0.2617602    0.2050374   -0.9431019
   0.0272708   -0.1315098    0.0152374   -0.0945619    0.0450354   -0.9944998
   0.0275157   -0.1314816    0.0152046   -0.0423004   -0.0198350   -0.9989080
   0.0259271   -0.1305979    0.0156333   -0.2792179    0.0751579   -0.9572819
   0.0255707   -0.1298033    0.0157194   -0.0980671    0.0991877   -0.9902245
   0.0262414   -0.1284497    0.0158679   -0.1597268    0.1133841   -0.9806281
   0.0274393   -0.1324925    0.0154196   -0.0225569   -0.3585921   -0.9332218
   0.0277910   -0.1329201    0.0156739    0.0553380   -0.5509508   -0.8327010
   0.0271348   -0.1278446    0.0156538   -0.3628391    0.0766974   -0.9286901
   0.0268148   -0.1278735    0.0157395   -0.2848979    0.0800668   -0.9552081
   0.0260456   -0.1275824    0.0159780   -0.2035101    0.0413549   -0.9781991
   0.0251513   -0.1264856    0.0161592   -0.3576954    0.0447033   -0.9327677
   0.0256524   -0.1265192    0.0160804   -0.1793864    0.0190863   -0.9835935
   0.0249249   -0.1259748    0.0163112   -0.5718606    0.0778130   -0.8166521
   0.0247334   -0.1249208    0.0165979   -0.7890522    0.0022802   -0.6143220
   0.0253116   -0.1214289    0.0153127   -0.2739230   -0.1958232   -0.9416047
   0.0247128   -0.1214673    0.0155870   -0.4757344   -0.2684336   -0.8376277
   0.0240835   -0.1219711    0.0162098   -0.8205423   -0.2692938   -0.5041738
   0.0243558   -0.1234144    0.0166457   -0.9408910   -0.2341532   -0.2447373
   0.0244972   -0.1245936    0.0170540   -0.9818618   -0.1142777   -0.1512877
   0.0275355   -0.1200491    0.0145333   -0.1798563   -0.2325930   -0.9557992
   0.0270318   -0.1173015    0.0137970   -0.1873814   -0.3253201   -0.9268522
   0.0284441   -0.1196225    0.0142260   -0.3378193   -0.2986061   -0.8925876
   0.0280338   -0.1186645    0.0141000   -0.2358068   -0.2668274   -0.9344508
   0.0264002   -0.1178483    0.0141418   -0.2677925   -0.2925314   -0.9179938
   0.0256201   -0.1188983    0.0147194   -0.2318594   -0.2616392   -0.9369024
   0.0244924   -0.1195120    0.0150734   -0.3096513   -0.2543450   -0.9162012
   0.0309657   -0.1179904    0.0157923    0.9814117   -0.0914677    0.1687150
   0.0305164   -0.1174825    0.0167142    0.7705184    0.0304749    0.6366888
   0.0310140   -0.1163967    0.0160110    0.8796693   -0.0412209    0.4737961
   0.0310874   -0.1171945    0.0156751    0.9863240   -0.1347526    0.0949041
   0.0314630   -0.1151476    0.0150566    0.9738540   -0.1458883    0.1741407
   0.0294429   -0.1184205    0.0135607    0.2450322   -0.2705570   -0.9309985
   0.0281781   -0.1181095    0.0138988   -0.3331034   -0.3167306   -0.8881013
   0.0288144   -0.1195975    0.0140661   -0.3581991   -0.3029541   -0.8831264
   0.0291267   -0.1181029    0.0134458   -0.1705221   -0.2505395   -0.9529702
   0.0289706   -0.1186088    0.0136518   -0.3889838   -0.2875202   -0.8752278
   0.0302388   -0.1178887    0.0138306    0.6663561   -0.2509835   -0.7021231
   0.0310894   -0.1171067    0.0147414    0.9158387   -0.2562584   -0.3091459
   0.0305240   -0.1181562    0.0142988    0.8346025   -0.2463541   -0.4926950
   0.0307240   -0.1176699    0.0144219    0.8639322   -0.2736284   -0.4227868
   0.0312826   -0.1156109    0.0142377    0.9380315   -0.2480810   -0.2419767
   0.0311767   -0.1161261    0.0143371    0.9292860   -0.2101055   -0.3037814
   0.0303390   -0.1183440    0.0141236    0.7414950   -0.2702290   -0.6141347
   0.0304373   -0.1178297    0.0140254    0.9592306   -0.1106370   -0.2600693
   0.0304373   -0.1178297    0.0140254    0.9662807   -0.1073881   -0.2340286
   0.0263514   -0.1217756    0.0187006   -0.3059581   -0.0054761    0.9520292
   0.0264725   -0.1191863    0.0186295   -0.0551869    0.0192114    0.9982912
   0.0262747   -0.1247482    0.0186927   -0.6120106   -0.0746497    0.7873185
   0.0257036   -0.1244796    0.0185187   -0.3468536   -0.0336638    0.9373150
   0.0258442   -0.1218591    0.0186152   -0.2163681    0.0241187    0.9760139
   0.0264211   -0.1222415    0.0187156   -0.4283637   -0.0138649    0.9035000
   0.0255095   -0.1214062    0.0185077   -0.3591966   -0.0208165    0.9330297
   0.0249417   -0.1212174    0.0182727   -0.5329434   -0.0770503    0.8426355
   0.0252514   -0.1251099    0.0181935   -0.6431500   -0.0735520    0.7621996
   0.0250248   -0.1251728    0.0180025   -0.6635881   -0.0982948    0.7416124
   0.0252303   -0.1271225    0.0178424   -0.7912239   -0.1046684    0.6025025
   0.0245670   -0.1258720    0.0172583   -0.9508908   -0.0911404    0.2958041
   0.0246259   -0.1242475    0.0176690   -0.8486952   -0.0821047    0.5224704
   0.0249459   -0.1272981    0.0174480   -0.9046582   -0.1135906    0.4107198
   0.0247683   -0.1274303    0.0170333   -0.9529300   -0.0045001    0.3031569
   0.0274852   -0.1175094    0.0185477    0.2071363   -0.0387865    0.9775429
   0.0270192   -0.1177594    0.0185817    0.0495780   -0.0395428    0.9979872
   0.0285508   -0.1184415    0.0182714    0.3240426    0.0463060    0.9449085
   0.0260007   -0.1177036    0.0186085   -0.0267639   -0.0104846    0.9995868
   0.0282830   -0.1179453    0.0183630    0.2926321    0.0040328    0.9562166
   0.0292315   -0.1178781    0.0179716    0.4371856    0.0513448    0.8979045
   0.0290031   -0.1162063    0.0180714    0.5503606   -0.0155871    0.8347815
   0.0285075   -0.1160264    0.0183342    0.4200388   -0.1022505    0.9017274
   0.0284065   -0.1171153    0.0182984    0.3675140    0.0127270    0.9299309
   0.0295031   -0.1158149    0.0177132    0.6630327    0.0303553    0.7479747
   0.0304087   -0.1337864    0.0171486   -0.1099700   -0.9897971   -0.0905995
   0.0311288   -0.1338264    0.0168217   -0.2302680   -0.9568942   -0.1770034
   0.0310896   -0.1337730    0.0166011   -0.1371243   -0.9742460   -0.1790017
   0.0302348   -0.1335112    0.0162062   -0.1626825   -0.8888380   -0.4283707
   0.0304982   -0.1335478    0.0180169   -0.0856487   -0.7826914    0.6164888
   0.0273002   -0.1332079    0.0190540    0.0338959   -0.3114097    0.9496710
   0.0268058   -0.1334233    0.0189232   -0.1950622   -0.4290670    0.8819593
   0.0264089   -0.1325654    0.0190600   -0.5244420   -0.2714171    0.8070275
   0.0261236   -0.1315553    0.0191575   -0.5677918   -0.1648225    0.8065024
   0.0260998   -0.1319767    0.0190010   -0.6222732   -0.2128812    0.7532979
   0.0259064   -0.1305639    0.0190851   -0.6074556    0.0320850    0.7937054
   0.0255398   -0.1301576    0.0187032   -0.7717075    0.0768945    0.6313119
   0.0250399   -0.1298448    0.0178609   -0.8803109    0.0241313    0.4737831
   0.0250322   -0.1293432    0.0177781   -0.8350778    0.1028453    0.5404331
   0.0249320   -0.1288824    0.0175169   -0.8322977    0.1079608    0.5437141
   0.0277839   -0.1338978    0.0181887    0.2538008   -0.8739647    0.4144525
   0.0274714   -0.1340938    0.0175723    0.1716839   -0.9704452    0.1695899
   0.0276817   -0.1340540    0.0173093    0.1842459   -0.9650161   -0.1865408
   0.0286098   -0.1338380    0.0169259    0.0645574   -0.9658001   -0.2511223
   0.0275787   -0.1337715    0.0186536    0.1877788   -0.7697499    0.6101018
   0.0270694   -0.1335129    0.0189045   -0.0307903   -0.5885995    0.8078382
   0.0285082   -0.1336108    0.0164417    0.0357149   -0.8139214   -0.5798762
   0.0274076   -0.1334337    0.0160177    0.1114450   -0.7341488   -0.6697802
   0.0291443   -0.1331998    0.0159885   -0.0352146   -0.7295190   -0.6830534
   0.0297343   -0.1334975    0.0162673   -0.0176236   -0.8481538   -0.5294568
   0.0299830   -0.1334964    0.0162355   -0.0818769   -0.8772632   -0.4729751
   0.0260424   -0.1316592    0.0153611   -0.3055269    0.0772845   -0.9490418
   0.0253162   -0.1314683    0.0157991   -0.6255801    0.1224889   -0.7704843
   0.0266068   -0.1321069    0.0153048   -0.0520320   -0.1881142   -0.9807679
   0.0252234   -0.1307133    0.0159151   -0.6451588   -0.0681761   -0.7610008
   0.0253702   -0.1301385    0.0157507   -0.3462385   -0.0220797   -0.9378867
   0.0252370   -0.1291041    0.0158719   -0.4737686    0.1124259   -0.8734436
   0.0256604   -0.1285286    0.0158683   -0.1539652    0.1195200   -0.9808209
   0.0271158   -0.1333063    0.0158781    0.0280332   -0.6284978   -0.7773060
   0.0261768   -0.1331321    0.0157377   -0.0464168   -0.5167692   -0.8548655
   0.0252177   -0.1270026    0.0160964   -0.3949692    0.0349121   -0.9180308
   0.0253010   -0.1275144    0.0160608   -0.2467150    0.0616639   -0.9671242
   0.0247704   -0.1264950    0.0164178   -0.7618379   -0.0312269   -0.6470146
   0.0246655   -0.1259676    0.0165729   -0.8916063    0.0071116   -0.4527556
   0.0245891   -0.1254153    0.0168604   -0.9716034    0.0299145   -0.2347169
   0.0240451   -0.1210041    0.0158239   -0.6447812   -0.3066166   -0.7001739
   0.0238759   -0.1200382    0.0155534   -0.5671472   -0.2983981   -0.7676605
   0.0241945   -0.1227676    0.0167882   -0.9735443   -0.2057643    0.0993605
   0.0238372   -0.1209912    0.0160899   -0.8806132   -0.3196254   -0.3497999
   0.0240090   -0.1218730    0.0168918   -0.9629012   -0.2436059    0.1160924
   0.0244112   -0.1238395    0.0171689   -0.9782348   -0.1552376    0.1376881
   0.0262241   -0.1168789    0.0138923   -0.2787319   -0.3280510   -0.9026024
   0.0275149   -0.1172534    0.0136749   -0.2034305   -0.4000591   -0.8936267
   0.0279460   -0.1181790    0.0139771   -0.1670491   -0.3262258   -0.9304146
   0.0277068   -0.1157933    0.0129509   -0.2502178   -0.4106197   -0.8768024
   0.0261830   -0.1154294    0.0133033   -0.2832611   -0.3850141   -0.8783663
   0.0253544   -0.1174459    0.0143310   -0.2550868   -0.3255304   -0.9104728
   0.0243408   -0.1190284    0.0149975   -0.3341628   -0.2080577   -0.9192645
   0.0248740   -0.1174884    0.0144751   -0.2630147   -0.2960808   -0.9182371
   0.0242449   -0.1180336    0.0148459   -0.3019863   -0.2822122   -0.9105826
   0.0239162   -0.1195455    0.0153670   -0.4991905   -0.2813983   -0.8195266
   0.0308352   -0.1149011    0.0162433    0.7491674   -0.0295460    0.6617215
   0.0306081   -0.1148224    0.0165075    0.7595097   -0.0399281    0.6492694
   0.0309444   -0.1158662    0.0161606    0.8159595   -0.0007873    0.5781085
   0.0304211   -0.1148102    0.0167403    0.7953156   -0.0138613    0.6060371
   0.0311091   -0.1153661    0.0159099    0.8237778   -0.0299912    0.5661190
   0.0313844   -0.1148805    0.0154812    0.9170881   -0.0887128    0.3886894
   0.0316010   -0.1144965    0.0144708    0.9972744   -0.0661334   -0.0327127
   0.0314542   -0.1149097    0.0152388    0.9706482   -0.1032814    0.2171982
   0.0294490   -0.1170627    0.0132079    0.1695790   -0.3239727   -0.9307442
   0.0283316   -0.1176614    0.0136537   -0.2725655   -0.3269078   -0.9048974
   0.0304373   -0.1178297    0.0140254    0.9092274   -0.1912016   -0.3697938
   0.0303497   -0.1174935    0.0137509    0.5550554   -0.3187388   -0.7683223
   0.0310242   -0.1164762    0.0141848    0.8481591   -0.2764296   -0.4518991
   0.0306085   -0.1177729    0.0142243    0.8896238   -0.2311317   -0.3938879
   0.0306672   -0.1175189    0.0141744    0.8138606   -0.2861550   -0.5057135
   0.0307726   -0.1153451    0.0131095    0.7757500   -0.3339067   -0.5354608
   0.0310895   -0.1147708    0.0132030    0.8389454   -0.3081680   -0.4485566
   0.0314124   -0.1146244    0.0138271    0.9402822   -0.1477627   -0.3066521
   0.0260446   -0.1214742    0.0186351   -0.2132812    0.0116164    0.9769218
   0.0258023   -0.1181252    0.0185669   -0.1279842   -0.0250551    0.9914597
   0.0241439   -0.1190876    0.0180187   -0.4904119   -0.1165668    0.8636598
   0.0242962   -0.1186353    0.0181536   -0.4100747   -0.0647062    0.9097537
   0.0246848   -0.1184501    0.0183034   -0.3178380   -0.0251600    0.9478111
   0.0246681   -0.1221203    0.0179985   -0.6885164   -0.0865114    0.7200423
   0.0247165   -0.1215808    0.0181042   -0.6681170   -0.1029797    0.7368954
   0.0237728   -0.1188709    0.0177996   -0.6794958   -0.2177981    0.7006065
   0.0240704   -0.1201755    0.0177497   -0.7336065   -0.1790190    0.6555713
   0.0244010   -0.1211444    0.0178694   -0.7636721   -0.1569751    0.6262298
   0.0247322   -0.1236870    0.0178468   -0.7544825   -0.0825609    0.6511066
   0.0245381   -0.1259114    0.0170388   -0.9970043   -0.0772897   -0.0029616
   0.0241521   -0.1217842    0.0173186   -0.8813149   -0.1324152    0.4535970
   0.0246993   -0.1269715    0.0167357   -0.9900645   -0.1075859   -0.0905399
   0.0247859   -0.1289384    0.0172826   -0.9479317    0.0546300    0.3137531
   0.0247753   -0.1270444    0.0165086   -0.8781991   -0.0292583   -0.4773996
   0.0247673   -0.1285133    0.0167376   -0.9962025    0.0465311   -0.0735894
   0.0271064   -0.1165044    0.0186920    0.1406532   -0.0805086    0.9867801
   0.0277700   -0.1159088    0.0186185    0.2258955   -0.1431069    0.9635827
   0.0253653   -0.1167980    0.0186307   -0.1250853   -0.1330633    0.9831825
   0.0267889   -0.1159853    0.0187742    0.0813722   -0.1670098    0.9825916
   0.0288997   -0.1153882    0.0181779    0.5731530   -0.0800424    0.8155298
   0.0295060   -0.1147799    0.0177129    0.6970902   -0.0536584    0.7149728
   0.0295923   -0.1153012    0.0176162    0.6650185    0.0061773    0.7468013
   0.0281225   -0.1126915    0.0190301    0.4167159   -0.0251587    0.9086886
   0.0275359   -0.1137893    0.0191333    0.2898580   -0.1594673    0.9436909
   0.0290119   -0.1137144    0.0183437    0.6636481   -0.0567811    0.7458868
   0.0265425   -0.1335312    0.0187449   -0.5069844   -0.4878117    0.7106381
   0.0270706   -0.1339061    0.0185107   -0.0087373   -0.8481824    0.5296322
   0.0259774   -0.1321481    0.0188153   -0.7409997   -0.2329042    0.6298214
   0.0260327   -0.1326805    0.0186674   -0.7348227   -0.2966408    0.6099507
   0.0254821   -0.1306948    0.0186356   -0.8170388   -0.1209624    0.5637514
   0.0247380   -0.1296282    0.0171738   -0.9639917    0.0306421    0.2641610
   0.0246797   -0.1300296    0.0170187   -0.9724875   -0.0321360    0.2307277
   0.0249795   -0.1309400    0.0175342   -0.9187592   -0.1454561    0.3670477
   0.0269611   -0.1342164    0.0174273    0.1006701   -0.9947796    0.0167079
   0.0265184   -0.1341602    0.0179339   -0.2383226   -0.9223861    0.3039841
   0.0280575   -0.1337525    0.0166945    0.1139159   -0.8870177   -0.4474627
   0.0266433   -0.1341872    0.0170036    0.0046302   -0.9519122   -0.3063360
   0.0275495   -0.1338392    0.0166008    0.1794350   -0.8648147   -0.4689336
   0.0265333   -0.1339145    0.0165123   -0.0471434   -0.8310998   -0.5541216
   0.0251743   -0.1322235    0.0158123   -0.6729830   -0.0181101   -0.7394362
   0.0263612   -0.1321367    0.0153320   -0.1052492   -0.2107796   -0.9718511
   0.0256365   -0.1322075    0.0155113   -0.3883116   -0.1037744   -0.9156664
   0.0249107   -0.1316577    0.0163418   -0.9636849    0.0228142   -0.2660655
   0.0249415   -0.1320173    0.0161681   -0.9023375    0.0076734   -0.4309620
   0.0248471   -0.1311262    0.0164908   -0.9537674   -0.1577735   -0.2558032
   0.0249518   -0.1303828    0.0161242   -0.7884872   -0.1195623   -0.6033181
   0.0250651   -0.1296410    0.0158981   -0.6096451   -0.0127110   -0.7925726
   0.0248673   -0.1291090    0.0161520   -0.8647059    0.0704621   -0.4973116
   0.0250508   -0.1275318    0.0161654   -0.5012639    0.0715036   -0.8623350
   0.0249649   -0.1296375    0.0159981   -0.7676286    0.0216718   -0.6405284
   0.0259360   -0.1336088    0.0161883   -0.1227526   -0.7599352   -0.6383027
   0.0258045   -0.1331030    0.0157802   -0.2223308   -0.5236832   -0.8223898
   0.0259596   -0.1326785    0.0155191   -0.2137975   -0.3479220   -0.9128203
   0.0256436   -0.1334421    0.0160868   -0.3640603   -0.6698985   -0.6470673
   0.0227380   -0.1180977    0.0157343   -0.7629150   -0.3644295   -0.5339960
   0.0241120   -0.1218108    0.0171823   -0.8666024   -0.2369442    0.4391558
   0.0237184   -0.1209337    0.0165427   -0.9673265   -0.2526631    0.0209942
   0.0229588   -0.1190430    0.0160939   -0.9290001   -0.3693650   -0.0229844
   0.0235622   -0.1202624    0.0166803   -0.9493180   -0.2930165    0.1137397
   0.0239491   -0.1213399    0.0170404   -0.8853632   -0.2623058    0.3838329
   0.0258007   -0.1159420    0.0136578   -0.2449820   -0.3577420   -0.9011129
   0.0269937   -0.1148776    0.0128211   -0.3155502   -0.3315745   -0.8890930
   0.0286676   -0.1156373    0.0127356   -0.0826630   -0.4259208   -0.9009763
   0.0274817   -0.1146866    0.0124976   -0.3922918   -0.4036148   -0.8265605
   0.0279859   -0.1148182    0.0123436   -0.2330319   -0.4344691   -0.8700188
   0.0253681   -0.1150189    0.0133416   -0.2486004   -0.4041743   -0.8802505
   0.0254834   -0.1155701    0.0135873   -0.2321026   -0.4023465   -0.8855765
   0.0238210   -0.1145595    0.0136288   -0.2617449   -0.3591105   -0.8958400
   0.0247443   -0.1155545    0.0137564   -0.2498377   -0.3690205   -0.8952122
   0.0252253   -0.1155107    0.0136180   -0.2203014   -0.3781526   -0.8991484
   0.0239772   -0.1165836    0.0144424   -0.2589057   -0.3230496   -0.9102784
   0.0231154   -0.1171373    0.0149481   -0.4286237   -0.3868726   -0.8164627
   0.0229233   -0.1161925    0.0145632   -0.3317363   -0.3280951   -0.8844799
   0.0234938   -0.1166314    0.0145612   -0.2213106   -0.3047067   -0.9263776
   0.0227501   -0.1176245    0.0154467   -0.6030517   -0.3891501   -0.6963410
   0.0307703   -0.1143012    0.0163979    0.7928774   -0.0869641    0.6031440
   0.0311077   -0.1148408    0.0159691    0.7779339   -0.0912280    0.6216883
   0.0305498   -0.1142923    0.0166376    0.9601415   -0.0328066    0.2775824
   0.0303279   -0.1142862    0.0168671    0.8171415   -0.0512837    0.5741513
   0.0305498   -0.1142923    0.0166376    0.9829112   -0.0107165    0.1837683
   0.0312492   -0.1143208    0.0158644    0.8813899   -0.0244785    0.4717549
   0.0315108   -0.1143981    0.0151552    0.9699174    0.0254901    0.2420960
   0.0315236   -0.1140364    0.0141746    0.9691176    0.1676754   -0.1808206
   0.0315396   -0.1139633    0.0146197    0.9691454    0.2405960    0.0535791
   0.0303878   -0.1173677    0.0137249    0.6073527   -0.3318266   -0.7218129
   0.0302658   -0.1159580    0.0129460    0.4252957   -0.4304490   -0.7961389
   0.0301283   -0.1164625    0.0131475    0.5606393   -0.4002446   -0.7249054
   0.0295777   -0.1164239    0.0129812    0.0590055   -0.4185313   -0.9062836
   0.0306406   -0.1162467    0.0135059    0.7213822   -0.3171210   -0.6156639
   0.0308198   -0.1147114    0.0127678    0.6886932   -0.3516655   -0.6340608
   0.0310778   -0.1143043    0.0128972    0.8309196   -0.1721534   -0.5290897
   0.0314820   -0.1140782    0.0139568    0.9656068    0.1106291   -0.2352971
   0.0251684   -0.1183603    0.0184567   -0.2252196   -0.0461139    0.9732161
   0.0239053   -0.1186124    0.0179694   -0.5138802   -0.1543501    0.8438621
   0.0233444   -0.1176855    0.0177793   -0.5057640   -0.1906870    0.8413330
   0.0237076   -0.1203242    0.0171314   -0.8479444   -0.2515117    0.4666178
   0.0231423   -0.1186521    0.0171541   -0.8318730   -0.3075733    0.4619373
   0.0231352   -0.1183036    0.0173267   -0.7563494   -0.2687702    0.5964044
   0.0239908   -0.1207600    0.0173977   -0.8551441   -0.2445625    0.4570753
   0.0240462   -0.1212924    0.0172500   -0.2617314   -0.3625223    0.8944687
   0.0247105   -0.1290548    0.0166225   -0.9966584    0.0641581   -0.0505552
   0.0271489   -0.1147647    0.0189846    0.1787410   -0.2189287    0.9592298
   0.0248980   -0.1157651    0.0187475   -0.1544996   -0.1698722    0.9732797
   0.0245047   -0.1161135    0.0186258   -0.2556524   -0.2246564    0.9403039
   0.0264598   -0.1153081    0.0189329   -0.0056692   -0.2287912    0.9734590
   0.0259257   -0.1150681    0.0189862   -0.0981546   -0.1988436    0.9751035
   0.0266015   -0.1142718    0.0192017    0.0423733   -0.2185875    0.9748969
   0.0304901   -0.1137650    0.0167578    0.7207156   -0.0131025    0.6931070
   0.0271660   -0.1127720    0.0193560    0.2095345   -0.0423551    0.9768835
   0.0285923   -0.1126642    0.0187961    0.5327302    0.0007080    0.8462849
   0.0285143   -0.1121650    0.0187564    0.5587049    0.2568234    0.7886004
   0.0278080   -0.1122079    0.0190963    0.3371338    0.2229288    0.9146822
   0.0269909   -0.1133121    0.0193529    0.1271111   -0.1366271    0.9824336
   0.0297389   -0.1127320    0.0173987    0.7347993    0.2326560    0.6371351
   0.0292039   -0.1126852    0.0181480    0.7981165    0.1793119    0.5752020
   0.0299906   -0.1133448    0.0172394    0.7180118    0.0955632    0.6894394
   0.0287695   -0.1126627    0.0186587    0.6961652    0.0941575    0.7116800
   0.0265515   -0.1339756    0.0183581   -0.3492759   -0.7520912    0.5588964
   0.0261702   -0.1337787    0.0181440   -0.7572285   -0.4967998    0.4240224
   0.0260245   -0.1332572    0.0183051   -0.8112622   -0.3430271    0.4734829
   0.0254556   -0.1318710    0.0181461   -0.8572134   -0.2366453    0.4573666
   0.0251387   -0.1314162    0.0176508   -0.9364265   -0.1891100    0.2955382
   0.0247090   -0.1305661    0.0168744   -0.9860307   -0.1446456    0.0825895
   0.0264280   -0.1341974    0.0172624   -0.2568597   -0.9658926   -0.0327819
   0.0260900   -0.1338249    0.0179320   -0.7428648   -0.5493396    0.3825936
   0.0262217   -0.1340672    0.0177262   -0.5319296   -0.8315538    0.1599035
   0.0260763   -0.1339671    0.0168089   -0.3392684   -0.9138789   -0.2229849
   0.0257661   -0.1337915    0.0165892   -0.4494782   -0.8443556   -0.2916043
   0.0251147   -0.1327138    0.0160324   -0.8464627   -0.2848526   -0.4498443
   0.0253811   -0.1327182    0.0157700   -0.5394238   -0.3068771   -0.7841227
   0.0248922   -0.1321635    0.0164285   -0.9811999   -0.1508762    0.1203456
   0.0246900   -0.1299216    0.0165396   -0.9504030   -0.0415277   -0.3082362
   0.0255293   -0.1329443    0.0157888   -0.4172737   -0.4550740   -0.7866322
   0.0253453   -0.1331417    0.0160749   -0.6409725   -0.5104432   -0.5732382
   0.0254269   -0.1334424    0.0163442   -0.6834267   -0.6688731   -0.2924665
   0.0220064   -0.1166701    0.0155893   -0.8307351   -0.4372286   -0.3445436
   0.0227605   -0.1185036    0.0164049   -0.9098360   -0.3794450    0.1679883
   0.0240462   -0.1212924    0.0172500    0.9756426   -0.0780893    0.2049964
   0.0235705   -0.1201199    0.0168850   -0.9129479   -0.3063052    0.2696355
   0.0240462   -0.1212924    0.0172500    0.7687406   -0.2848766    0.5726108
   0.0238653   -0.1208095    0.0171924   -0.8654221   -0.2410387    0.4392550
   0.0271863   -0.1143848    0.0125121   -0.4409729   -0.3532393   -0.8250848
   0.0256616   -0.1140221    0.0128575   -0.2073283   -0.2921295   -0.9336356
   0.0261821   -0.1141649    0.0128049   -0.1443254   -0.2438919   -0.9590031
   0.0249415   -0.1140851    0.0130767   -0.2760050   -0.3286428   -0.9032248
   0.0266858   -0.1141985    0.0127467   -0.2596151   -0.2946494   -0.9196639
   0.0266827   -0.1129506    0.0122167   -0.3928224   -0.2232676   -0.8920999
   0.0283739   -0.1142963    0.0120363   -0.0440814   -0.4110676   -0.9105384
   0.0287243   -0.1147266    0.0122781   -0.0144061   -0.4167850   -0.9088909
   0.0276531   -0.1143627    0.0122508   -0.3940774   -0.3718679   -0.8404863
   0.0277975   -0.1138664    0.0119887   -0.2729700   -0.2660140   -0.9245128
   0.0247949   -0.1145837    0.0133210   -0.2773754   -0.3654577   -0.8885401
   0.0233151   -0.1156659    0.0142896   -0.2577893   -0.3576866   -0.8975550
   0.0230248   -0.1142508    0.0136952   -0.0372703   -0.3511614   -0.9355729
   0.0230004   -0.1141172    0.0136592   -0.2594262   -0.3267361   -0.9088133
   0.0244366   -0.1139604    0.0132214   -0.2857860   -0.3339832   -0.8982102
   0.0229335   -0.1137702    0.0135399   -0.1762858   -0.2885704   -0.9410900
   0.0226526   -0.1171548    0.0152418   -0.5654085   -0.4486257   -0.6921331
   0.0227403   -0.1164722    0.0147738   -0.4754042   -0.4048552   -0.7810782
   0.0220142   -0.1152668    0.0146651   -0.4631166   -0.3018715   -0.8333046
   0.0230718   -0.1156613    0.0143671   -0.3490544   -0.3485509   -0.8698697
   0.0305498   -0.1142923    0.0166376    0.9256845   -0.0478345    0.3752599
   0.0307260   -0.1137692    0.0165279    0.7305684    0.0089972    0.6827802
   0.0309682   -0.1137781    0.0162689    0.7906492    0.0285787    0.6116021
   0.0312607   -0.1138160    0.0157789    0.9338097    0.1947094    0.3001462
   0.0308682   -0.1127245    0.0133495    0.8571686    0.4912953   -0.1545667
   0.0313452   -0.1135540    0.0141166    0.9217344    0.3722924   -0.1086466
   0.0313366   -0.1134475    0.0147891    0.9049159    0.4248083    0.0257899
   0.0297521   -0.1160520    0.0128061    0.1368134   -0.4157763   -0.8991174
   0.0303133   -0.1149925    0.0124866    0.3674871   -0.3543418   -0.8598809
   0.0306725   -0.1144211    0.0125088    0.6365673   -0.1914963   -0.7470684
   0.0309763   -0.1133085    0.0127440    0.7633628    0.1454073   -0.6293917
   0.0311858   -0.1137518    0.0130212    0.9043566    0.0412072   -0.4247835
   0.0310823   -0.1132601    0.0129524    0.8968807    0.3267988   -0.2980059
   0.0230527   -0.1177251    0.0174703   -0.7137426   -0.3154525    0.6253489
   0.0229606   -0.1166880    0.0178787   -0.5004543   -0.3057295    0.8099846
   0.0239895   -0.1207596    0.0173949   -0.7527601   -0.3096239    0.5809348
   0.0227527   -0.1179979    0.0168646   -0.8158264   -0.3326984    0.4730105
   0.0239010   -0.1154772    0.0185959   -0.2884110   -0.2036794    0.9355927
   0.0250375   -0.1152111    0.0188669   -0.1554746   -0.1651750    0.9739327
   0.0241114   -0.1150522    0.0187281   -0.1826464   -0.1639593    0.9694110
   0.0250411   -0.1141456    0.0190562   -0.1611841   -0.1986303    0.9667294
   0.0252318   -0.1135809    0.0191919   -0.1848848   -0.0933140    0.9783201
   0.0254921   -0.1135902    0.0192286   -0.1473534   -0.0960798    0.9844062
   0.0245119   -0.1140739    0.0189740   -0.2129689   -0.1221290    0.9693961
   0.0261583   -0.1134288    0.0193468   -0.0836879   -0.0962146    0.9918362
   0.0303484   -0.1127430    0.0168030    0.7187274    0.2056570    0.6641808
   0.0268846   -0.1128059    0.0193808    0.1013057   -0.3053670    0.9468306
   0.0266731   -0.1128335    0.0193903   -0.0320917   -0.1024624    0.9942191
   0.0272407   -0.1117635    0.0191245    0.1886833    0.4076137    0.8934482
   0.0269970   -0.1117908    0.0191670    0.0598572    0.3728751    0.9259488
   0.0266428   -0.1123303    0.0193320    0.0140906    0.1938307    0.9809338
   0.0281900   -0.1116949    0.0187376    0.4307565    0.4291484    0.7939021
   0.0289570   -0.1121784    0.0182902    0.7846025    0.3143982    0.5343712
   0.0287311   -0.1116958    0.0182726    0.6878873    0.5401931    0.4847706
   0.0294077   -0.1124473    0.0176230    0.7775568    0.3385573    0.5298909
   0.0300158   -0.1121883    0.0168139    0.6734492    0.5716050    0.4687579
   0.0297882   -0.1121236    0.0170618    0.6774597    0.4793405    0.5579256
   0.0254476   -0.1322128    0.0177444   -0.8668044   -0.2907012    0.4051455
   0.0253593   -0.1318589    0.0179263   -0.8911473   -0.3106751    0.3306621
   0.0258462   -0.1338868    0.0170542   -0.6374676   -0.7623904    0.1113367
   0.0255515   -0.1334183    0.0172431   -0.7975835   -0.4555417    0.3954014
   0.0254788   -0.1335705    0.0168185   -0.7653846   -0.6313030    0.1250720
   0.0254777   -0.1335542    0.0165863   -0.7234086   -0.6825866   -0.1037088
   0.0249735   -0.1326578    0.0165004   -0.9588556   -0.2838942   -0.0003337
   0.0252145   -0.1331691    0.0163256   -0.8332308   -0.4861945   -0.2633274
   0.0252392   -0.1330593    0.0169930   -0.8824862   -0.3071582    0.3561908
   0.0251548   -0.1331079    0.0165527   -0.8614967   -0.5074173    0.0187397
   0.0219937   -0.1165078    0.0166166   -0.8839497   -0.4245751    0.1958800
   0.0220021   -0.1162189    0.0151881   -0.6529901   -0.4324299   -0.6217783
   0.0217193   -0.1161282    0.0159946   -0.9276634   -0.3698948   -0.0511714
   0.0222159   -0.1163603    0.0173483   -0.7546807   -0.3784757    0.5359227
   0.0255714   -0.1135406    0.0127152   -0.2476796   -0.2362006   -0.9396085
   0.0263905   -0.1139446    0.0127122   -0.2275228   -0.3089118   -0.9234754
   0.0274424   -0.1131401    0.0120149   -0.2772457    0.0003387   -0.9607990
   0.0264255   -0.1128223    0.0123206   -0.3428782   -0.1115840   -0.9327291
   0.0268518   -0.1123908    0.0121944   -0.2602619    0.2087676   -0.9426982
   0.0296162   -0.1141267    0.0120310    0.0988577   -0.3448591   -0.9334342
   0.0285258   -0.1137903    0.0118382   -0.0195757   -0.2063746   -0.9782772
   0.0294668   -0.1146414    0.0122386    0.0148915   -0.3725158   -0.9279064
   0.0279565   -0.1133502    0.0118503   -0.1439872   -0.0600123   -0.9877582
   0.0227849   -0.1142711    0.0137675   -0.3338173   -0.3928776   -0.8568624
   0.0226967   -0.1137874    0.0136426    0.4173625   -0.2314332   -0.8787760
   0.0226967   -0.1137874    0.0136426    0.7818283   -0.2169598   -0.5845279
   0.0242930   -0.1131470    0.0130411   -0.1444760   -0.1107896   -0.9832865
   0.0226967   -0.1137874    0.0136426    0.7674662   -0.1395097   -0.6257257
   0.0226146   -0.1132929    0.0135699   -0.4095356   -0.0966567   -0.9071593
   0.0228511   -0.1132774    0.0134655   -0.3440389   -0.0538629   -0.9374092
   0.0218095   -0.1152735    0.0147984   -0.4805483   -0.3584680   -0.8003587
   0.0221829   -0.1147754    0.0143695   -0.5383961   -0.3961187   -0.7437874
   0.0215013   -0.1148150    0.0148843   -0.7079597   -0.3018295   -0.6385077
   0.0308939   -0.1127783    0.0161120    0.8256042    0.2465666    0.5075260
   0.0310965   -0.1132959    0.0159426    0.9315306    0.2482125    0.2657841
   0.0311549   -0.1130963    0.0149833    0.9313530    0.3583519    0.0645411
   0.0302159   -0.1121821    0.0128824    0.6016161    0.7481280   -0.2799333
   0.0305861   -0.1123329    0.0135498    0.7646264    0.6256857   -0.1544794
   0.0307992   -0.1127886    0.0129097    0.7662061    0.5432452   -0.3432387
   0.0307247   -0.1121997    0.0146585    0.8191119    0.5645412   -0.1017303
   0.0298645   -0.1153430    0.0125351    0.1105110   -0.3678685   -0.9232876
   0.0301228   -0.1140448    0.0121129    0.3780896   -0.2045499   -0.9028885
   0.0306540   -0.1139238    0.0124022    0.6304856   -0.0854636   -0.7714816
   0.0303570   -0.1134880    0.0121630    0.5424518    0.0123478   -0.8399962
   0.0305644   -0.1133628    0.0123460    0.6305865    0.1637026   -0.7586581
   0.0305057   -0.1128165    0.0124919    0.6112153    0.3974258   -0.6844476
   0.0304944   -0.1125520    0.0126791    0.6631614    0.5492151   -0.5085074
   0.0225226   -0.1162532    0.0177513   -0.5783263   -0.3029805    0.7574573
   0.0234641   -0.1154982    0.0184249   -0.4138232   -0.2106597    0.8856483
   0.0233046   -0.1149982    0.0184580   -0.4877171   -0.1248500    0.8640281
   0.0237652   -0.1143667    0.0187750   -0.3189271   -0.1073279    0.9416826
   0.0240028   -0.1142025    0.0188299   -0.2027449   -0.1001404    0.9740977
   0.0250052   -0.1138508    0.0191040   -0.2206428   -0.0875257    0.9714196
   0.0246266   -0.1130717    0.0190219   -0.2782247    0.0950194    0.9558046
