NORM_ASCII
4113 8222
3 1455 1532 1534 
3 1456 1535 1536 
3 1456 1536 1457 
3 1535 1456 1458 
3 1537 1457 1536 
3 1457 1537 1464 
3 1538 1535 1458 
3 1460 1538 1458 
3 1462 1460 1459 
3 1538 1460 1462 
3 1462 1461 1539 
3 1484 1539 1461 
3 1462 1540 1538 
3 1462 1539 1540 
3 1465 1463 1541 
3 1463 1464 1541 
3 1541 1464 1537 
3 1542 1465 1541 
3 1467 1465 1542 
3 1543 1466 1467 
3 1466 1543 1531 
3 1533 1466 1531 
3 1467 1544 1543 
3 1544 1467 1545 
3 1545 1467 1542 
3 1534 1546 1469 
3 1469 1546 1471 
3 1470 1547 1548 
3 1470 1472 1547 
3 1548 1549 1470 
3 1496 1470 1549 
3 1487 1470 1496 
3 1550 1472 1471 
3 1471 1546 1550 
3 1550 1547 1472 
3 1482 1475 1551 
3 1551 1475 1477 
3 1476 1552 1477 
3 1476 1553 1554 
3 1552 1476 1554 
3 1480 1502 1476 
3 1476 1502 1555 
3 1553 1476 1555 
3 1551 1477 1552 
3 1481 1483 1556 
3 1557 1484 1481 
3 1556 1557 1481 
3 1558 1483 1482 
3 1559 1482 1551 
3 1482 1559 1558 
3 1483 1560 1556 
3 1560 1483 1561 
3 1561 1483 1562 
3 1483 1558 1562 
3 1563 1539 1484 
3 1563 1484 1564 
3 1564 1484 1557 
3 1565 1489 1488 
3 1488 1566 1565 
3 1498 1566 1488 
3 1489 1565 1567 
3 1490 1489 1567 
3 1568 1490 1567 
3 1569 1492 1490 
3 1569 1490 1568 
3 1491 1570 1493 
3 1571 1570 1491 
3 1572 1573 1491 
3 1491 1573 1571 
3 1492 1572 1491 
3 1572 1492 1569 
3 1570 1494 1493 
3 1571 1494 1570 
3 1571 1574 1494 
3 1526 1525 1494 
3 1494 1574 1526 
3 1498 1495 1496 
3 1495 1498 1497 
3 1566 1496 1575 
3 1549 1576 1496 
3 1496 1577 1575 
3 1496 1566 1498 
3 1496 1576 1577 
3 1501 1499 1578 
3 1578 1499 1504 
3 1500 1555 1502 
3 1501 1555 1500 
3 1501 1578 1579 
3 1501 1580 1555 
3 1580 1501 1579 
3 1505 1503 1581 
3 1581 1503 1582 
3 1582 1503 1507 
3 1578 1504 1505 
3 1581 1583 1505 
3 1505 1579 1578 
3 1505 1583 1579 
3 1510 1508 1506 
3 1584 1507 1585 
3 1582 1507 1584 
3 1508 1585 1507 
3 1508 1586 1587 
3 1588 1589 1508 
3 1587 1585 1508 
3 1586 1508 1589 
3 1510 1588 1508 
3 1509 1590 1510 
3 1512 1590 1509 
3 1588 1510 1590 
3 1591 1588 1511 
3 1588 1512 1511 
3 1591 1511 1592 
3 1511 1517 1592 
3 1588 1590 1512 
3 1513 1524 1593 
3 1593 1594 1513 
3 1594 1595 1513 
3 1514 1513 1595 
3 1596 1515 1514 
3 1597 1514 1598 
3 1514 1595 1598 
3 1514 1597 1596 
3 1516 1515 1596 
3 1517 1516 1596 
3 1592 1517 1596 
3 1518 1523 1520 
3 1521 1524 1519 
3 1524 1520 1593 
3 1520 1523 1599 
3 1524 1521 1520 
3 1520 1600 1593 
3 1520 1599 1601 
3 1601 1600 1520 
3 1522 1528 1602 
3 1523 1522 1602 
3 1599 1523 1602 
3 1526 1574 1603 
3 1527 1526 1603 
3 1528 1527 1603 
3 1603 1604 1528 
3 1604 1605 1528 
3 1605 1602 1528 
3 1533 1529 1530 
3 1531 1529 1533 
3 1534 1532 1531 
3 1606 1548 1531 
3 1548 1534 1531 
3 1607 1531 1543 
3 1531 1607 1606 
3 1534 1548 1546 
3 1535 1608 1536 
3 1609 1608 1535 
3 1610 1535 1538 
3 1535 1610 1609 
3 1611 1537 1536 
3 1611 1536 1608 
3 1612 1541 1537 
3 1612 1537 1613 
3 1613 1537 1611 
3 1614 1610 1538 
3 1540 1614 1538 
3 1563 1540 1539 
3 1615 1540 1563 
3 1616 1540 1615 
3 1616 1614 1540 
3 1541 1612 1542 
3 1545 1542 1612 
3 1543 1617 1607 
3 1617 1543 1544 
3 1544 1618 1617 
3 1618 1544 1545 
3 1619 1618 1545 
3 1619 1545 1620 
3 1620 1545 1612 
3 1547 1546 1548 
3 1547 1550 1546 
3 1621 1549 1548 
3 1548 1606 1621 
3 1549 1621 1622 
3 1549 1622 1576 
3 1559 1551 1623 
3 1623 1551 1552 
3 1554 1624 1552 
3 1623 1552 1624 
3 1625 1554 1553 
3 1555 1580 1553 
3 1553 1580 1626 
3 1553 1626 1627 
3 1625 1553 1628 
3 1627 1628 1553 
3 1554 1625 1624 
3 1556 1564 1557 
3 1629 1564 1556 
3 1560 1629 1556 
3 1630 1558 1559 
3 1558 1630 1631 
3 1631 1562 1558 
3 1630 1559 1623 
3 1560 1632 1629 
3 1632 1560 1633 
3 1634 1560 1635 
3 1560 1634 1633 
3 1561 1635 1560 
3 1636 1635 1561 
3 1562 1636 1561 
3 1637 1562 1638 
3 1562 1637 1639 
3 1639 1636 1562 
3 1638 1562 1640 
3 1562 1631 1640 
3 1564 1632 1563 
3 1615 1563 1632 
3 1629 1632 1564 
3 1566 1567 1565 
3 1641 1567 1566 
3 1642 1641 1566 
3 1575 1642 1566 
3 1567 1641 1568 
3 1568 1643 1644 
3 1641 1642 1568 
3 1568 1642 1643 
3 1568 1644 1569 
3 1645 1569 1644 
3 1572 1569 1646 
3 1646 1569 1645 
3 1573 1574 1571 
3 1572 1646 1573 
3 1573 1603 1574 
3 1573 1647 1603 
3 1646 1648 1573 
3 1573 1648 1647 
3 1649 1575 1577 
3 1650 1575 1651 
3 1649 1652 1575 
3 1575 1653 1654 
3 1642 1575 1654 
3 1575 1650 1653 
3 1655 1575 1652 
3 1651 1575 1655 
3 1576 1656 1577 
3 1576 1622 1656 
3 1577 1656 1649 
3 1583 1626 1579 
3 1580 1579 1626 
3 1581 1657 1583 
3 1658 1657 1581 
3 1581 1582 1659 
3 1658 1581 1659 
3 1584 1659 1582 
3 1583 1627 1626 
3 1657 1627 1583 
3 1584 1585 1660 
3 1584 1661 1659 
3 1660 1661 1584 
3 1660 1585 1587 
3 1662 1587 1586 
3 1589 1663 1586 
3 1664 1586 1663 
3 1664 1662 1586 
3 1660 1587 1662 
3 1665 1589 1588 
3 1665 1588 1591 
3 1589 1665 1663 
3 1591 1666 1667 
3 1591 1668 1666 
3 1591 1667 1665 
3 1592 1668 1591 
3 1669 1592 1670 
3 1671 1668 1592 
3 1669 1671 1592 
3 1596 1670 1592 
3 1593 1672 1673 
3 1593 1600 1672 
3 1594 1593 1673 
3 1595 1594 1673 
3 1598 1595 1673 
3 1674 1596 1597 
3 1596 1674 1670 
3 1597 1598 1675 
3 1597 1675 1676 
3 1676 1677 1597 
3 1677 1674 1597 
3 1673 1678 1598 
3 1678 1679 1598 
3 1598 1680 1675 
3 1598 1679 1681 
3 1598 1681 1680 
3 1602 1601 1599 
3 1679 1678 1600 
3 1600 1678 1672 
3 1600 1601 1682 
3 1600 1682 1679 
3 1605 1683 1601 
3 1601 1683 1682 
3 1601 1602 1605 
3 1684 1685 1603 
3 1603 1647 1684 
3 1686 1603 1685 
3 1686 1687 1603 
3 1604 1603 1687 
3 1605 1604 1688 
3 1688 1604 1687 
3 1683 1605 1689 
3 1605 1688 1689 
3 1606 1607 1617 
3 1617 1621 1606 
3 1611 1608 1609 
3 1609 1690 1611 
3 1690 1609 1691 
3 1610 1691 1609 
3 1614 1616 1610 
3 1616 1691 1610 
3 1692 1613 1611 
3 1611 1690 1692 
3 1612 1693 1620 
3 1612 1613 1694 
3 1694 1693 1612 
3 1613 1692 1694 
3 1615 1695 1696 
3 1615 1696 1616 
3 1615 1697 1698 
3 1695 1615 1698 
3 1697 1615 1632 
3 1616 1696 1691 
3 1699 1621 1617 
3 1617 1618 1699 
3 1700 1699 1618 
3 1700 1618 1619 
3 1620 1649 1619 
3 1619 1649 1700 
3 1649 1620 1693 
3 1656 1621 1699 
3 1622 1621 1656 
3 1623 1701 1630 
3 1702 1701 1623 
3 1703 1702 1623 
3 1703 1623 1704 
3 1624 1704 1623 
3 1624 1625 1705 
3 1706 1704 1624 
3 1707 1706 1624 
3 1708 1707 1624 
3 1709 1624 1705 
3 1708 1624 1709 
3 1625 1710 1705 
3 1628 1710 1625 
3 1657 1711 1627 
3 1628 1627 1711 
3 1628 1711 1712 
3 1712 1705 1628 
3 1705 1710 1628 
3 1631 1630 1701 
3 1640 1631 1713 
3 1701 1713 1631 
3 1632 1633 1697 
3 1714 1697 1633 
3 1633 1634 1715 
3 1714 1633 1715 
3 1635 1716 1634 
3 1716 1717 1634 
3 1715 1634 1717 
3 1716 1635 1636 
3 1636 1718 1716 
3 1636 1639 1718 
3 1637 1638 1719 
3 1719 1720 1637 
3 1637 1720 1721 
3 1721 1639 1637 
3 1719 1638 1640 
3 1722 1718 1639 
3 1639 1721 1722 
3 1640 1706 1707 
3 1640 1713 1706 
3 1719 1640 1707 
3 1642 1654 1643 
3 1644 1643 1654 
3 1723 1644 1654 
3 1723 1724 1644 
3 1724 1725 1644 
3 1725 1726 1644 
3 1644 1726 1645 
3 1645 1727 1646 
3 1645 1728 1729 
3 1729 1727 1645 
3 1645 1726 1728 
3 1646 1727 1730 
3 1730 1731 1646 
3 1731 1648 1646 
3 1731 1647 1648 
3 1732 1684 1647 
3 1732 1647 1731 
3 1700 1649 1656 
3 1649 1693 1652 
3 1651 1733 1650 
3 1650 1733 1653 
3 1651 1734 1735 
3 1651 1735 1733 
3 1736 1734 1651 
3 1651 1655 1737 
3 1737 1736 1651 
3 1652 1738 1655 
3 1739 1652 1693 
3 1652 1739 1738 
3 1654 1653 1733 
3 1654 1740 1723 
3 1654 1733 1740 
3 1738 1741 1655 
3 1742 1743 1655 
3 1655 1741 1744 
3 1655 1743 1737 
3 1655 1744 1742 
3 1656 1699 1700 
3 1658 1711 1657 
3 1712 1658 1661 
3 1712 1711 1658 
3 1658 1659 1661 
3 1660 1745 1661 
3 1662 1745 1660 
3 1661 1745 1712 
3 1662 1746 1745 
3 1746 1662 1747 
3 1662 1664 1747 
3 1667 1663 1665 
3 1748 1663 1667 
3 1748 1664 1663 
3 1747 1664 1749 
3 1749 1664 1748 
3 1750 1667 1666 
3 1666 1668 1671 
3 1666 1751 1752 
3 1753 1750 1666 
3 1666 1671 1751 
3 1752 1753 1666 
3 1750 1748 1667 
3 1670 1754 1669 
3 1755 1671 1669 
3 1756 1755 1669 
3 1669 1754 1756 
3 1754 1670 1757 
3 1757 1670 1674 
3 1751 1671 1755 
3 1673 1672 1678 
3 1674 1758 1757 
3 1674 1677 1758 
3 1759 1675 1760 
3 1680 1760 1675 
3 1759 1761 1675 
3 1676 1675 1761 
3 1677 1676 1761 
3 1758 1677 1762 
3 1762 1677 1761 
3 1681 1679 1682 
3 1763 1760 1680 
3 1681 1764 1680 
3 1763 1680 1765 
3 1680 1764 1765 
3 1766 1767 1681 
3 1767 1764 1681 
3 1682 1766 1681 
3 1689 1766 1682 
3 1682 1683 1689 
3 1684 1768 1685 
3 1684 1732 1768 
3 1685 1768 1769 
3 1685 1769 1686 
3 1770 1687 1686 
3 1769 1771 1686 
3 1770 1686 1771 
3 1689 1688 1687 
3 1689 1687 1772 
3 1772 1687 1770 
3 1766 1689 1772 
3 1694 1692 1690 
3 1690 1773 1694 
3 1773 1690 1691 
3 1691 1696 1774 
3 1774 1773 1691 
3 1739 1693 1694 
3 1694 1773 1739 
3 1774 1696 1695 
3 1695 1775 1774 
3 1775 1695 1698 
3 1714 1698 1697 
3 1698 1776 1777 
3 1777 1775 1698 
3 1698 1714 1776 
3 1701 1702 1703 
3 1701 1703 1713 
3 1706 1713 1703 
3 1704 1706 1703 
3 1778 1705 1712 
3 1778 1709 1705 
3 1707 1779 1719 
3 1779 1707 1780 
3 1780 1707 1708 
3 1780 1708 1781 
3 1709 1781 1708 
3 1782 1781 1709 
3 1782 1709 1778 
3 1712 1745 1746 
3 1712 1783 1778 
3 1712 1746 1784 
3 1783 1712 1784 
3 1776 1714 1777 
3 1785 1777 1714 
3 1714 1715 1786 
3 1786 1785 1714 
3 1787 1715 1717 
3 1786 1715 1787 
3 1717 1716 1718 
3 1787 1717 1718 
3 1787 1718 1722 
3 1720 1719 1779 
3 1721 1720 1788 
3 1788 1720 1789 
3 1789 1720 1779 
3 1721 1790 1722 
3 1790 1721 1788 
3 1722 1791 1787 
3 1792 1791 1722 
3 1793 1722 1790 
3 1792 1722 1793 
3 1740 1724 1723 
3 1740 1794 1724 
3 1725 1724 1794 
3 1726 1725 1728 
3 1795 1725 1794 
3 1728 1725 1795 
3 1729 1796 1727 
3 1732 1727 1797 
3 1730 1727 1732 
3 1797 1727 1796 
3 1728 1795 1729 
3 1796 1729 1795 
3 1731 1730 1732 
3 1732 1797 1768 
3 1740 1733 1735 
3 1798 1735 1734 
3 1734 1799 1798 
3 1799 1734 1736 
3 1735 1800 1740 
3 1801 1800 1735 
3 1735 1798 1801 
3 1799 1736 1737 
3 1799 1737 1743 
3 1774 1802 1738 
3 1738 1802 1741 
3 1774 1738 1739 
3 1739 1773 1774 
3 1800 1794 1740 
3 1803 1741 1802 
3 1744 1741 1777 
3 1777 1741 1803 
3 1743 1742 1804 
3 1804 1742 1744 
3 1799 1743 1805 
3 1805 1743 1804 
3 1744 1777 1785 
3 1785 1804 1744 
3 1746 1747 1806 
3 1746 1806 1784 
3 1806 1747 1749 
3 1749 1748 1807 
3 1748 1750 1807 
3 1749 1807 1808 
3 1806 1749 1808 
3 1807 1750 1753 
3 1752 1751 1809 
3 1809 1751 1755 
3 1810 1811 1752 
3 1812 1752 1809 
3 1752 1811 1753 
3 1810 1752 1812 
3 1811 1807 1753 
3 1754 1757 1813 
3 1756 1754 1813 
3 1755 1814 1812 
3 1812 1809 1755 
3 1815 1755 1756 
3 1816 1814 1755 
3 1817 1755 1815 
3 1755 1818 1816 
3 1818 1755 1817 
3 1756 1813 1815 
3 1813 1757 1815 
3 1815 1757 1819 
3 1819 1757 1758 
3 1820 1758 1762 
3 1821 1819 1758 
3 1821 1758 1820 
3 1822 1759 1760 
3 1759 1822 1823 
3 1824 1759 1823 
3 1759 1824 1825 
3 1761 1759 1826 
3 1759 1825 1826 
3 1760 1763 1822 
3 1827 1761 1826 
3 1762 1761 1827 
3 1820 1762 1828 
3 1827 1828 1762 
3 1765 1822 1763 
3 1765 1764 1767 
3 1766 1829 1765 
3 1829 1830 1765 
3 1767 1766 1765 
3 1765 1830 1822 
3 1772 1829 1766 
3 1831 1769 1768 
3 1768 1797 1832 
3 1768 1832 1831 
3 1831 1771 1769 
3 1770 1833 1772 
3 1834 1835 1770 
3 1771 1834 1770 
3 1833 1770 1835 
3 1771 1831 1836 
3 1771 1836 1834 
3 1837 1772 1833 
3 1829 1772 1837 
3 1802 1774 1775 
3 1803 1775 1777 
3 1802 1775 1803 
3 1838 1778 1783 
3 1778 1838 1782 
3 1780 1839 1779 
3 1839 1840 1779 
3 1789 1779 1840 
3 1781 1839 1780 
3 1841 1839 1781 
3 1782 1841 1781 
3 1841 1782 1842 
3 1838 1843 1782 
3 1843 1842 1782 
3 1783 1784 1844 
3 1838 1783 1845 
3 1783 1844 1845 
3 1806 1844 1784 
3 1804 1785 1846 
3 1847 1846 1785 
3 1785 1786 1847 
3 1847 1786 1791 
3 1787 1791 1786 
3 1788 1848 1849 
3 1850 1790 1788 
3 1788 1849 1850 
3 1848 1788 1851 
3 1851 1788 1789 
3 1852 1851 1789 
3 1852 1789 1840 
3 1850 1793 1790 
3 1791 1792 1853 
3 1854 1847 1791 
3 1791 1853 1854 
3 1855 1792 1793 
3 1792 1855 1853 
3 1849 1793 1850 
3 1855 1793 1849 
3 1795 1794 1800 
3 1856 1795 1800 
3 1796 1795 1856 
3 1832 1796 1856 
3 1797 1796 1832 
3 1798 1799 1857 
3 1857 1831 1798 
3 1832 1801 1798 
3 1798 1831 1832 
3 1805 1858 1799 
3 1799 1859 1857 
3 1860 1799 1858 
3 1799 1860 1859 
3 1800 1801 1856 
3 1832 1856 1801 
3 1805 1804 1861 
3 1804 1846 1862 
3 1862 1861 1804 
3 1861 1858 1805 
3 1808 1844 1806 
3 1863 1808 1807 
3 1807 1811 1863 
3 1845 1808 1863 
3 1845 1844 1808 
3 1864 1811 1810 
3 1865 1864 1810 
3 1865 1810 1812 
3 1811 1864 1863 
3 1866 1865 1812 
3 1866 1812 1814 
3 1816 1866 1814 
3 1815 1867 1817 
3 1815 1819 1867 
3 1868 1866 1816 
3 1816 1818 1869 
3 1868 1816 1869 
3 1817 1870 1818 
3 1867 1871 1817 
3 1872 1817 1871 
3 1817 1872 1873 
3 1873 1870 1817 
3 1870 1874 1818 
3 1869 1818 1874 
3 1867 1819 1821 
3 1821 1820 1828 
3 1875 1876 1821 
3 1828 1875 1821 
3 1871 1867 1821 
3 1871 1821 1876 
3 1822 1877 1823 
3 1822 1830 1877 
3 1824 1823 1878 
3 1823 1879 1880 
3 1880 1878 1823 
3 1877 1881 1823 
3 1823 1881 1879 
3 1878 1882 1824 
3 1882 1827 1824 
3 1827 1883 1824 
3 1824 1883 1825 
3 1826 1825 1883 
3 1826 1883 1827 
3 1882 1884 1827 
3 1827 1884 1885 
3 1827 1885 1828 
3 1875 1828 1885 
3 1829 1837 1886 
3 1886 1830 1829 
3 1830 1886 1877 
3 1836 1831 1887 
3 1831 1857 1887 
3 1837 1833 1888 
3 1888 1833 1835 
3 1834 1889 1835 
3 1889 1834 1836 
3 1888 1835 1889 
3 1887 1890 1836 
3 1836 1890 1891 
3 1889 1836 1891 
3 1888 1892 1837 
3 1886 1837 1892 
3 1843 1838 1893 
3 1838 1845 1893 
3 1840 1839 1841 
3 1894 1840 1841 
3 1840 1895 1852 
3 1896 1895 1840 
3 1894 1896 1840 
3 1894 1841 1842 
3 1897 1894 1842 
3 1842 1898 1899 
3 1899 1900 1842 
3 1842 1901 1902 
3 1900 1903 1842 
3 1842 1843 1901 
3 1842 1904 1898 
3 1903 1897 1842 
3 1904 1842 1902 
3 1893 1901 1843 
3 1864 1905 1845 
3 1893 1845 1906 
3 1845 1863 1864 
3 1905 1906 1845 
3 1862 1846 1854 
3 1854 1846 1847 
3 1907 1849 1848 
3 1908 1848 1909 
3 1907 1848 1908 
3 1848 1910 1909 
3 1910 1848 1851 
3 1911 1849 1907 
3 1849 1911 1855 
3 1910 1851 1852 
3 1852 1895 1910 
3 1912 1853 1913 
3 1912 1854 1853 
3 1911 1853 1855 
3 1913 1853 1911 
3 1862 1854 1912 
3 1857 1859 1914 
3 1914 1887 1857 
3 1858 1861 1860 
3 1914 1859 1860 
3 1860 1915 1914 
3 1860 1861 1862 
3 1860 1862 1915 
3 1912 1915 1862 
3 1905 1864 1916 
3 1916 1864 1865 
3 1865 1866 1916 
3 1916 1866 1868 
3 1917 1916 1868 
3 1917 1868 1918 
3 1918 1868 1869 
3 1918 1869 1874 
3 1874 1870 1873 
3 1919 1871 1876 
3 1871 1919 1920 
3 1872 1871 1920 
3 1921 1872 1920 
3 1922 1872 1921 
3 1872 1922 1923 
3 1923 1873 1872 
3 1874 1873 1923 
3 1924 1874 1925 
3 1874 1926 1918 
3 1874 1924 1926 
3 1923 1925 1874 
3 1876 1875 1885 
3 1876 1885 1927 
3 1919 1876 1927 
3 1877 1886 1928 
3 1881 1877 1928 
3 1878 1929 1930 
3 1878 1880 1931 
3 1931 1929 1878 
3 1882 1878 1930 
3 1879 1931 1880 
3 1932 1933 1879 
3 1881 1932 1879 
3 1931 1879 1933 
3 1932 1881 1934 
3 1934 1881 1928 
3 1882 1930 1935 
3 1884 1882 1936 
3 1936 1882 1935 
3 1884 1937 1938 
3 1936 1937 1884 
3 1938 1885 1884 
3 1938 1927 1885 
3 1886 1892 1928 
3 1914 1939 1887 
3 1940 1890 1887 
3 1941 1887 1939 
3 1887 1941 1940 
3 1892 1888 1942 
3 1943 1888 1889 
3 1888 1943 1944 
3 1944 1942 1888 
3 1889 1891 1943 
3 1940 1945 1890 
3 1891 1890 1945 
3 1891 1945 1943 
3 1942 1928 1892 
3 1893 1906 1946 
3 1946 1901 1893 
3 1947 1896 1894 
3 1948 1947 1894 
3 1949 1948 1894 
3 1897 1949 1894 
3 1950 1910 1895 
3 1950 1895 1896 
3 1947 1950 1896 
3 1903 1951 1897 
3 1952 1897 1953 
3 1897 1952 1949 
3 1897 1951 1953 
3 1898 1954 1899 
3 1954 1898 1904 
3 1955 1900 1899 
3 1955 1899 1954 
3 1903 1900 1955 
3 1946 1902 1901 
3 1904 1902 1946 
3 1903 1956 1951 
3 1955 1957 1903 
3 1956 1903 1958 
3 1957 1958 1903 
3 1946 1959 1904 
3 1960 1954 1904 
3 1904 1961 1960 
3 1958 1961 1904 
3 1958 1904 1959 
3 1906 1905 1962 
3 1962 1905 1916 
3 1906 1963 1946 
3 1963 1906 1962 
3 1907 1964 1911 
3 1964 1907 1908 
3 1908 1909 1965 
3 1965 1964 1908 
3 1947 1966 1909 
3 1909 1950 1947 
3 1965 1909 1966 
3 1909 1910 1950 
3 1911 1967 1913 
3 1964 1967 1911 
3 1915 1912 1913 
3 1914 1915 1913 
3 1914 1913 1968 
3 1968 1913 1967 
3 1939 1914 1968 
3 1969 1916 1917 
3 1970 1962 1916 
3 1969 1970 1916 
3 1926 1917 1918 
3 1971 1969 1917 
3 1917 1926 1972 
3 1973 1917 1972 
3 1971 1917 1973 
3 1920 1919 1974 
3 1974 1919 1927 
3 1975 1976 1920 
3 1975 1920 1974 
3 1921 1920 1976 
3 1977 1978 1921 
3 1922 1921 1979 
3 1921 1978 1979 
3 1921 1976 1975 
3 1975 1977 1921 
3 1980 1923 1922 
3 1979 1981 1922 
3 1982 1922 1981 
3 1980 1922 1982 
3 1980 1925 1923 
3 1925 1983 1924 
3 1983 1984 1924 
3 1972 1926 1924 
3 1972 1924 1984 
3 1925 1980 1983 
3 1927 1985 1974 
3 1938 1985 1927 
3 1928 1942 1986 
3 1928 1986 1934 
3 1929 1987 1930 
3 1988 1929 1989 
3 1988 1990 1929 
3 1929 1931 1989 
3 1987 1929 1990 
3 1987 1991 1930 
3 1930 1992 1935 
3 1992 1930 1991 
3 1933 1993 1931 
3 1993 1994 1931 
3 1994 1989 1931 
3 1995 1933 1932 
3 1932 1996 1995 
3 1932 1934 1996 
3 1993 1933 1995 
3 1986 1996 1934 
3 1935 1997 1936 
3 1998 1935 1992 
3 1935 1998 1997 
3 1936 1997 1937 
3 1937 1999 1938 
3 1997 2000 1937 
3 1937 2000 1999 
3 1938 1999 2001 
3 2002 1938 2001 
3 1985 1938 2002 
3 1939 1968 2003 
3 1941 1939 2003 
3 1940 1941 2004 
3 1945 1940 2005 
3 1940 2004 2005 
3 2004 1941 2006 
3 2006 1941 2003 
3 1944 1994 1942 
3 1942 1993 1986 
3 1994 1993 1942 
3 1943 2007 1944 
3 1943 1945 2008 
3 1943 2008 2009 
3 2007 1943 2009 
3 1944 2007 1994 
3 2008 1945 2005 
3 1959 1946 1963 
3 1966 1947 1948 
3 1966 1948 2010 
3 1948 1949 2011 
3 1948 2011 2010 
3 2012 2011 1949 
3 1949 1952 2012 
3 1956 1953 1951 
3 2013 1952 1953 
3 2010 2012 1952 
3 2014 2010 1952 
3 2013 2014 1952 
3 2013 1953 1956 
3 1955 1954 1960 
3 1955 1961 1957 
3 1960 1961 1955 
3 1956 1958 2015 
3 2016 2017 1956 
3 2015 2016 1956 
3 1956 2017 2013 
3 1961 1958 1957 
3 1963 2018 1958 
3 2018 2015 1958 
3 1958 1959 1963 
3 1962 1970 1963 
3 1963 1970 2019 
3 2018 1963 2019 
3 2020 1964 2021 
3 2020 1967 1964 
3 1965 2022 1964 
3 2021 1964 2022 
3 1966 2023 1965 
3 2022 1965 2023 
3 2024 2023 1966 
3 1966 2025 2024 
3 2025 1966 2026 
3 2026 1966 2010 
3 1968 1967 2003 
3 2027 2003 1967 
3 2027 1967 2028 
3 2028 1967 2020 
3 1971 2019 1969 
3 2019 1970 1969 
3 2029 1971 1973 
3 2019 1971 2018 
3 2029 2018 1971 
3 1984 1973 1972 
3 2029 1973 1984 
3 1975 1974 2030 
3 1974 1985 2030 
3 2031 1977 1975 
3 2030 2032 1975 
3 2033 2031 1975 
3 1975 2032 2033 
3 2034 1978 1977 
3 2031 2035 1977 
3 1977 2035 2034 
3 2034 2036 1978 
3 2037 1979 1978 
3 2036 2038 1978 
3 2037 1978 2038 
3 1981 1979 2037 
3 1980 2039 2040 
3 2039 1980 1982 
3 1983 1980 2040 
3 1982 1981 2039 
3 1981 2041 2039 
3 2042 2041 1981 
3 2042 1981 2037 
3 1984 1983 2043 
3 2040 2043 1983 
3 1984 2043 2044 
3 2029 1984 2044 
3 2002 2030 1985 
3 1996 1986 1993 
3 1990 1991 1987 
3 1988 2045 1992 
3 1992 1990 1988 
3 1988 1989 2046 
3 2046 2045 1988 
3 1989 1994 2047 
3 1989 2047 2046 
3 1992 1991 1990 
3 1998 1992 2045 
3 1995 1996 1993 
3 2047 1994 2048 
3 1994 2007 2048 
3 1998 2000 1997 
3 2049 2050 1998 
3 2050 2000 1998 
3 2049 1998 2045 
3 2001 1999 2050 
3 1999 2000 2050 
3 2050 2049 2001 
3 2001 2049 2051 
3 2051 2002 2001 
3 2002 2032 2030 
3 2052 2032 2002 
3 2053 2002 2051 
3 2052 2002 2053 
3 2054 2003 2027 
3 2006 2003 2054 
3 2055 2004 2006 
3 2005 2004 2055 
3 2056 2005 2055 
3 2005 2056 2008 
3 2006 2009 2056 
3 2006 2056 2055 
3 2006 2054 2057 
3 2057 2009 2006 
3 2009 2058 2007 
3 2059 2060 2007 
3 2058 2061 2007 
3 2061 2059 2007 
3 2048 2007 2060 
3 2009 2008 2056 
3 2062 2063 2009 
3 2009 2057 2062 
3 2063 2058 2009 
3 2012 2010 2011 
3 2010 2014 2026 
3 2064 2014 2013 
3 2013 2017 2064 
3 2014 2065 2026 
3 2065 2014 2064 
3 2015 2066 2016 
3 2066 2015 2067 
3 2067 2015 2018 
3 2068 2017 2016 
3 2069 2016 2070 
3 2016 2069 2068 
3 2066 2070 2016 
3 2071 2064 2017 
3 2071 2017 2072 
3 2068 2073 2017 
3 2072 2017 2073 
3 2018 2074 2067 
3 2018 2029 2075 
3 2075 2076 2018 
3 2074 2018 2076 
3 2021 2028 2020 
3 2022 2077 2021 
3 2021 2078 2079 
3 2021 2077 2080 
3 2079 2081 2021 
3 2028 2021 2082 
3 2080 2078 2021 
3 2083 2082 2021 
3 2083 2021 2081 
3 2023 2024 2022 
3 2022 2024 2084 
3 2022 2084 2077 
3 2024 2085 2084 
3 2024 2025 2086 
3 2024 2086 2085 
3 2079 2086 2025 
3 2079 2025 2026 
3 2026 2087 2079 
3 2087 2026 2088 
3 2026 2065 2088 
3 2027 2028 2054 
3 2054 2028 2082 
3 2089 2090 2029 
3 2029 2090 2091 
3 2091 2075 2029 
3 2029 2092 2089 
3 2092 2029 2093 
3 2044 2093 2029 
3 2031 2052 2094 
3 2031 2033 2052 
3 2094 2035 2031 
3 2032 2052 2033 
3 2034 2035 2095 
3 2034 2095 2096 
3 2096 2036 2034 
3 2035 2097 2095 
3 2097 2035 2098 
3 2035 2094 2098 
3 2038 2036 2099 
3 2096 2099 2036 
3 2038 2099 2037 
3 2037 2099 2042 
3 2100 2040 2039 
3 2039 2041 2042 
3 2101 2039 2102 
3 2102 2039 2042 
3 2100 2039 2101 
3 2044 2043 2040 
3 2040 2100 2044 
3 2103 2042 2099 
3 2102 2042 2103 
3 2093 2044 2100 
3 2046 2104 2045 
3 2045 2105 2106 
3 2105 2045 2107 
3 2049 2045 2106 
3 2045 2108 2107 
3 2108 2045 2109 
3 2045 2104 2109 
3 2048 2046 2047 
3 2110 2046 2048 
3 2110 2111 2046 
3 2111 2104 2046 
3 2048 2060 2112 
3 2048 2113 2110 
3 2112 2114 2048 
3 2114 2115 2048 
3 2115 2113 2048 
3 2051 2049 2106 
3 2051 2106 2116 
3 2117 2051 2116 
3 2053 2051 2117 
3 2098 2052 2118 
3 2098 2094 2052 
3 2118 2052 2053 
3 2119 2053 2117 
3 2053 2119 2118 
3 2054 2082 2057 
3 2057 2082 2062 
3 2058 2063 2120 
3 2058 2120 2061 
3 2060 2059 2121 
3 2121 2059 2061 
3 2122 2060 2121 
3 2122 2112 2060 
3 2061 2120 2123 
3 2124 2061 2123 
3 2121 2061 2124 
3 2063 2062 2083 
3 2062 2082 2083 
3 2125 2126 2063 
3 2083 2127 2063 
3 2063 2127 2125 
3 2120 2063 2126 
3 2088 2065 2064 
3 2128 2088 2064 
3 2064 2129 2130 
3 2064 2071 2131 
3 2064 2132 2133 
3 2133 2128 2064 
3 2129 2064 2131 
3 2064 2130 2134 
3 2134 2132 2064 
3 2135 2066 2136 
3 2137 2066 2135 
3 2137 2070 2066 
3 2067 2074 2066 
3 2074 2136 2066 
3 2073 2068 2069 
3 2138 2073 2069 
3 2069 2070 2137 
3 2135 2069 2137 
3 2069 2135 2139 
3 2139 2138 2069 
3 2131 2071 2072 
3 2138 2072 2073 
3 2138 2131 2072 
3 2076 2140 2074 
3 2136 2074 2140 
3 2140 2076 2075 
3 2140 2075 2091 
3 2080 2077 2084 
3 2086 2079 2078 
3 2085 2078 2080 
3 2078 2085 2086 
3 2081 2079 2087 
3 2084 2085 2080 
3 2081 2127 2083 
3 2125 2127 2081 
3 2141 2125 2081 
3 2141 2081 2133 
3 2081 2087 2128 
3 2128 2133 2081 
3 2087 2088 2128 
3 2142 2090 2089 
3 2143 2144 2089 
3 2089 2144 2142 
3 2143 2089 2145 
3 2145 2089 2092 
3 2091 2090 2140 
3 2090 2142 2136 
3 2136 2140 2090 
3 2092 2093 2145 
3 2145 2093 2146 
3 2146 2093 2147 
3 2147 2093 2148 
3 2149 2148 2093 
3 2093 2100 2149 
3 2096 2095 2150 
3 2150 2095 2097 
3 2099 2096 2151 
3 2152 2096 2153 
3 2152 2151 2096 
3 2153 2096 2150 
3 2098 2154 2097 
3 2150 2097 2154 
3 2118 2155 2098 
3 2098 2156 2154 
3 2156 2098 2155 
3 2099 2151 2103 
3 2100 2101 2157 
3 2157 2149 2100 
3 2157 2101 2102 
3 2157 2102 2158 
3 2102 2103 2158 
3 2103 2151 2159 
3 2159 2158 2103 
3 2104 2160 2109 
3 2111 2160 2104 
3 2116 2106 2105 
3 2107 2161 2105 
3 2162 2105 2161 
3 2105 2162 2116 
3 2163 2107 2164 
3 2165 2164 2107 
3 2107 2163 2161 
3 2165 2107 2166 
3 2107 2108 2166 
3 2109 2167 2108 
3 2167 2166 2108 
3 2168 2169 2109 
3 2109 2160 2168 
3 2167 2109 2169 
3 2113 2170 2110 
3 2111 2110 2171 
3 2171 2110 2170 
3 2160 2111 2171 
3 2172 2173 2112 
3 2174 2114 2112 
3 2112 2122 2175 
3 2112 2173 2176 
3 2112 2175 2172 
3 2176 2174 2112 
3 2170 2113 2174 
3 2113 2115 2174 
3 2114 2174 2115 
3 2117 2116 2162 
3 2117 2177 2119 
3 2177 2117 2162 
3 2177 2118 2119 
3 2178 2155 2118 
3 2178 2118 2179 
3 2179 2118 2177 
3 2126 2123 2120 
3 2121 2124 2122 
3 2175 2122 2180 
3 2181 2180 2122 
3 2122 2124 2182 
3 2122 2182 2181 
3 2126 2183 2123 
3 2124 2123 2182 
3 2182 2123 2183 
3 2126 2125 2141 
3 2183 2126 2184 
3 2141 2184 2126 
3 2130 2129 2138 
3 2129 2131 2138 
3 2134 2130 2185 
3 2138 2139 2130 
3 2139 2185 2130 
3 2132 2186 2133 
3 2132 2185 2187 
3 2188 2186 2132 
3 2132 2189 2188 
3 2190 2189 2132 
3 2185 2132 2134 
3 2187 2190 2132 
3 2141 2133 2191 
3 2133 2186 2191 
3 2136 2192 2135 
3 2139 2135 2193 
3 2135 2192 2194 
3 2194 2193 2135 
3 2136 2195 2192 
3 2195 2136 2142 
3 2139 2196 2185 
3 2139 2193 2197 
3 2196 2139 2198 
3 2199 2198 2139 
3 2199 2139 2197 
3 2191 2200 2141 
3 2201 2141 2200 
3 2184 2141 2201 
3 2195 2142 2144 
3 2202 2144 2143 
3 2203 2202 2143 
3 2203 2143 2145 
3 2144 2202 2195 
3 2204 2203 2145 
3 2145 2205 2204 
3 2146 2205 2145 
3 2206 2205 2146 
3 2206 2146 2147 
3 2206 2147 2207 
3 2207 2147 2148 
3 2148 2149 2208 
3 2208 2209 2148 
3 2207 2148 2209 
3 2149 2157 2210 
3 2210 2208 2149 
3 2154 2211 2150 
3 2212 2153 2150 
3 2150 2211 2213 
3 2212 2150 2213 
3 2152 2159 2151 
3 2212 2152 2153 
3 2210 2152 2214 
3 2210 2159 2152 
3 2214 2152 2212 
3 2154 2156 2215 
3 2211 2154 2215 
3 2156 2155 2178 
3 2215 2156 2178 
3 2159 2157 2158 
3 2159 2210 2157 
3 2168 2160 2216 
3 2171 2216 2160 
3 2217 2162 2161 
3 2217 2161 2163 
3 2162 2217 2177 
3 2218 2163 2164 
3 2218 2217 2163 
3 2164 2219 2220 
3 2164 2221 2218 
3 2222 2164 2165 
3 2220 2223 2164 
3 2164 2223 2221 
3 2222 2219 2164 
3 2224 2225 2165 
3 2166 2224 2165 
3 2222 2165 2225 
3 2166 2169 2168 
3 2166 2168 2226 
3 2166 2167 2169 
3 2226 2224 2166 
3 2168 2216 2227 
3 2228 2168 2227 
3 2226 2168 2228 
3 2170 2174 2176 
3 2229 2170 2176 
3 2171 2170 2229 
3 2171 2229 2216 
3 2172 2230 2173 
3 2172 2175 2180 
3 2180 2231 2172 
3 2232 2230 2172 
3 2172 2231 2232 
3 2233 2176 2173 
3 2233 2173 2230 
3 2233 2229 2176 
3 2217 2234 2177 
3 2235 2177 2234 
3 2177 2235 2179 
3 2179 2236 2178 
3 2178 2211 2215 
3 2178 2237 2238 
3 2178 2238 2239 
3 2240 2178 2236 
3 2239 2211 2178 
3 2237 2178 2240 
3 2179 2235 2241 
3 2236 2179 2241 
3 2180 2181 2242 
3 2231 2180 2243 
3 2180 2242 2243 
3 2182 2184 2181 
3 2201 2181 2184 
3 2201 2244 2181 
3 2242 2181 2244 
3 2182 2183 2184 
3 2187 2185 2196 
3 2188 2191 2186 
3 2245 2187 2196 
3 2246 2187 2245 
3 2246 2190 2187 
3 2188 2247 2191 
3 2188 2248 2249 
3 2248 2188 2189 
3 2247 2188 2249 
3 2248 2189 2190 
3 2246 2248 2190 
3 2250 2200 2191 
3 2191 2247 2250 
3 2194 2192 2251 
3 2195 2251 2192 
3 2197 2193 2194 
3 2194 2252 2199 
3 2197 2194 2199 
3 2252 2194 2251 
3 2253 2251 2195 
3 2254 2195 2202 
3 2195 2254 2255 
3 2255 2253 2195 
3 2196 2256 2257 
3 2196 2257 2245 
3 2198 2256 2196 
3 2198 2258 2259 
3 2198 2259 2256 
3 2199 2258 2198 
3 2260 2258 2199 
3 2261 2262 2199 
3 2260 2199 2262 
3 2199 2252 2261 
3 2201 2200 2250 
3 2244 2201 2263 
3 2263 2201 2250 
3 2264 2254 2202 
3 2203 2264 2202 
3 2203 2254 2264 
3 2265 2266 2203 
3 2203 2204 2265 
3 2255 2254 2203 
3 2266 2255 2203 
3 2267 2265 2204 
3 2204 2268 2267 
3 2206 2268 2204 
3 2204 2205 2206 
3 2269 2270 2206 
3 2207 2269 2206 
3 2271 2268 2206 
3 2271 2206 2270 
3 2209 2272 2207 
3 2273 2207 2272 
3 2207 2273 2269 
3 2214 2208 2210 
3 2209 2208 2274 
3 2208 2214 2274 
3 2274 2275 2209 
3 2209 2275 2272 
3 2211 2276 2213 
3 2276 2211 2239 
3 2214 2212 2277 
3 2278 2212 2213 
3 2212 2278 2277 
3 2279 2278 2213 
3 2213 2280 2279 
3 2280 2213 2276 
3 2274 2214 2277 
3 2216 2229 2281 
3 2216 2281 2227 
3 2234 2217 2218 
3 2234 2218 2282 
3 2282 2218 2221 
3 2219 2283 2220 
3 2219 2222 2283 
3 2284 2223 2220 
3 2284 2220 2285 
3 2285 2220 2283 
3 2221 2223 2282 
3 2225 2286 2222 
3 2222 2287 2283 
3 2288 2222 2286 
3 2287 2222 2288 
3 2223 2284 2289 
3 2289 2282 2223 
3 2225 2224 2290 
3 2224 2226 2291 
3 2224 2291 2290 
3 2290 2292 2225 
3 2286 2225 2292 
3 2293 2294 2226 
3 2291 2226 2294 
3 2226 2228 2293 
3 2227 2281 2295 
3 2296 2227 2297 
3 2298 2227 2296 
3 2297 2227 2295 
3 2228 2227 2298 
3 2293 2228 2299 
3 2299 2228 2300 
3 2298 2300 2228 
3 2229 2233 2281 
3 2295 2233 2230 
3 2230 2232 2301 
3 2230 2302 2295 
3 2302 2230 2301 
3 2303 2304 2231 
3 2231 2243 2303 
3 2305 2231 2304 
3 2305 2232 2231 
3 2306 2232 2305 
3 2307 2232 2306 
3 2301 2232 2307 
3 2281 2233 2295 
3 2235 2234 2282 
3 2289 2241 2235 
3 2282 2289 2235 
3 2236 2241 2240 
3 2237 2308 2238 
3 2237 2309 2310 
3 2310 2311 2237 
3 2237 2311 2308 
3 2240 2309 2237 
3 2238 2312 2239 
3 2238 2308 2312 
3 2312 2276 2239 
3 2240 2241 2289 
3 2289 2309 2240 
3 2242 2244 2313 
3 2313 2243 2242 
3 2303 2243 2313 
3 2313 2244 2263 
3 2257 2314 2245 
3 2246 2245 2314 
3 2315 2248 2246 
3 2246 2314 2316 
3 2315 2246 2316 
3 2317 2250 2247 
3 2247 2318 2317 
3 2318 2247 2249 
3 2249 2248 2315 
3 2249 2315 2318 
3 2250 2319 2263 
3 2250 2317 2319 
3 2253 2320 2251 
3 2320 2252 2251 
3 2252 2320 2253 
3 2261 2252 2253 
3 2261 2253 2255 
3 2255 2321 2261 
3 2266 2322 2255 
3 2321 2255 2322 
3 2256 2259 2257 
3 2323 2314 2257 
3 2257 2259 2323 
3 2259 2258 2324 
3 2325 2324 2258 
3 2258 2260 2325 
3 2259 2326 2323 
3 2259 2324 2326 
3 2260 2262 2327 
3 2327 2325 2260 
3 2327 2262 2261 
3 2321 2328 2261 
3 2327 2261 2328 
3 2319 2329 2263 
3 2313 2263 2329 
3 2330 2266 2265 
3 2330 2265 2331 
3 2265 2267 2332 
3 2331 2265 2332 
3 2333 2266 2330 
3 2333 2322 2266 
3 2332 2267 2268 
3 2271 2332 2268 
3 2269 2334 2270 
3 2269 2273 2335 
3 2269 2335 2334 
3 2270 2336 2271 
3 2337 2270 2334 
3 2338 2270 2337 
3 2338 2336 2270 
3 2271 2339 2340 
3 2340 2332 2271 
3 2336 2339 2271 
3 2341 2273 2272 
3 2341 2272 2275 
3 2342 2335 2273 
3 2273 2341 2342 
3 2274 2277 2343 
3 2343 2275 2274 
3 2343 2344 2275 
3 2342 2341 2275 
3 2342 2275 2344 
3 2276 2345 2280 
3 2276 2312 2346 
3 2345 2276 2346 
3 2277 2347 2348 
3 2277 2349 2350 
3 2350 2343 2277 
3 2277 2278 2351 
3 2348 2349 2277 
3 2351 2347 2277 
3 2351 2278 2279 
3 2351 2279 2280 
3 2345 2352 2280 
3 2351 2280 2353 
3 2353 2280 2352 
3 2354 2283 2287 
3 2354 2285 2283 
3 2289 2284 2355 
3 2285 2355 2284 
3 2285 2356 2355 
3 2285 2354 2357 
3 2356 2285 2357 
3 2288 2286 2292 
3 2358 2354 2287 
3 2359 2358 2287 
3 2287 2288 2359 
3 2292 2360 2288 
3 2359 2288 2360 
3 2289 2355 2361 
3 2362 2309 2289 
3 2362 2289 2361 
3 2290 2363 2292 
3 2291 2294 2290 
3 2364 2290 2294 
3 2363 2290 2364 
3 2292 2363 2365 
3 2366 2360 2292 
3 2292 2367 2366 
3 2292 2365 2367 
3 2294 2293 2364 
3 2299 2364 2293 
3 2368 2295 2302 
3 2295 2368 2297 
3 2296 2297 2369 
3 2298 2296 2369 
3 2368 2369 2297 
3 2369 2370 2298 
3 2371 2300 2298 
3 2370 2372 2298 
3 2298 2372 2371 
3 2373 2299 2300 
3 2374 2364 2299 
3 2299 2373 2374 
3 2373 2300 2371 
3 2375 2301 2307 
3 2376 2301 2375 
3 2302 2301 2376 
3 2302 2376 2368 
3 2377 2304 2303 
3 2303 2313 2378 
3 2378 2377 2303 
3 2304 2306 2305 
3 2306 2304 2377 
3 2306 2379 2380 
3 2306 2377 2379 
3 2380 2375 2306 
3 2375 2307 2306 
3 2312 2308 2381 
3 2381 2308 2382 
3 2308 2311 2382 
3 2310 2309 2383 
3 2383 2309 2362 
3 2383 2384 2310 
3 2311 2310 2384 
3 2382 2311 2384 
3 2385 2346 2312 
3 2312 2386 2385 
3 2312 2381 2386 
3 2378 2313 2329 
3 2314 2387 2316 
3 2323 2326 2314 
3 2326 2387 2314 
3 2318 2315 2388 
3 2315 2389 2390 
3 2316 2389 2315 
3 2390 2388 2315 
3 2325 2316 2387 
3 2325 2391 2316 
3 2316 2391 2389 
3 2319 2317 2392 
3 2392 2317 2318 
3 2392 2318 2393 
3 2318 2388 2393 
3 2319 2392 2378 
3 2378 2329 2319 
3 2322 2328 2321 
3 2325 2328 2322 
3 2322 2333 2325 
3 2387 2326 2324 
3 2387 2324 2325 
3 2327 2328 2325 
3 2391 2325 2394 
3 2395 2394 2325 
3 2395 2325 2333 
3 2330 2396 2333 
3 2396 2330 2331 
3 2397 2396 2331 
3 2398 2331 2340 
3 2397 2331 2398 
3 2332 2340 2331 
3 2333 2399 2400 
3 2400 2395 2333 
3 2399 2333 2396 
3 2401 2334 2402 
3 2335 2402 2334 
3 2401 2337 2334 
3 2403 2335 2342 
3 2335 2403 2402 
3 2338 2339 2336 
3 2404 2405 2337 
3 2337 2405 2338 
3 2404 2337 2401 
3 2339 2338 2340 
3 2406 2340 2338 
3 2407 2338 2405 
3 2406 2338 2407 
3 2340 2406 2398 
3 2342 2408 2409 
3 2409 2403 2342 
3 2344 2408 2342 
3 2343 2350 2410 
3 2410 2408 2343 
3 2344 2343 2408 
3 2346 2411 2345 
3 2352 2345 2411 
3 2385 2411 2346 
3 2348 2347 2412 
3 2412 2347 2351 
3 2348 2412 2413 
3 2349 2348 2413 
3 2350 2349 2414 
3 2413 2414 2349 
3 2414 2410 2350 
3 2351 2353 2412 
3 2352 2415 2416 
3 2353 2352 2416 
3 2415 2352 2417 
3 2418 2417 2352 
3 2418 2352 2411 
3 2419 2353 2416 
3 2412 2353 2419 
3 2420 2354 2358 
3 2420 2357 2354 
3 2361 2355 2356 
3 2421 2356 2422 
3 2422 2356 2357 
3 2361 2356 2421 
3 2423 2357 2420 
3 2357 2423 2422 
3 2424 2420 2358 
3 2424 2358 2359 
3 2360 2425 2359 
3 2426 2359 2425 
3 2427 2359 2426 
3 2424 2359 2427 
3 2428 2360 2366 
3 2429 2360 2428 
3 2429 2425 2360 
3 2362 2361 2430 
3 2430 2361 2421 
3 2362 2431 2383 
3 2430 2431 2362 
3 2374 2365 2363 
3 2363 2364 2374 
3 2365 2374 2367 
3 2432 2428 2366 
3 2432 2366 2367 
3 2433 2367 2374 
3 2367 2433 2432 
3 2368 2376 2434 
3 2434 2369 2368 
3 2369 2434 2435 
3 2370 2369 2435 
3 2435 2436 2370 
3 2370 2436 2437 
3 2370 2437 2372 
3 2371 2438 2373 
3 2371 2372 2437 
3 2438 2371 2437 
3 2438 2433 2373 
3 2374 2373 2433 
3 2375 2380 2439 
3 2376 2375 2440 
3 2441 2440 2375 
3 2439 2441 2375 
3 2440 2442 2376 
3 2434 2376 2442 
3 2379 2377 2378 
3 2379 2378 2443 
3 2444 2443 2378 
3 2378 2392 2444 
3 2380 2379 2443 
3 2380 2443 2439 
3 2381 2382 2445 
3 2446 2381 2445 
3 2386 2381 2446 
3 2382 2384 2447 
3 2447 2445 2382 
3 2383 2448 2384 
3 2431 2448 2383 
3 2449 2384 2448 
3 2447 2384 2449 
3 2450 2411 2385 
3 2386 2451 2385 
3 2451 2450 2385 
3 2386 2452 2453 
3 2454 2386 2446 
3 2386 2454 2452 
3 2386 2453 2455 
3 2451 2386 2455 
3 2393 2388 2456 
3 2457 2456 2388 
3 2457 2388 2390 
3 2389 2391 2390 
3 2458 2457 2390 
3 2390 2391 2459 
3 2390 2459 2458 
3 2394 2459 2391 
3 2393 2460 2392 
3 2460 2444 2392 
3 2460 2393 2456 
3 2394 2461 2459 
3 2461 2394 2395 
3 2395 2400 2461 
3 2399 2396 2462 
3 2462 2396 2397 
3 2463 2464 2397 
3 2462 2397 2465 
3 2465 2397 2464 
3 2397 2466 2463 
3 2466 2397 2398 
3 2463 2466 2398 
3 2398 2406 2467 
3 2398 2468 2463 
3 2468 2398 2467 
3 2469 2400 2399 
3 2399 2470 2469 
3 2462 2471 2399 
3 2399 2472 2473 
3 2474 2399 2471 
3 2470 2399 2475 
3 2472 2399 2474 
3 2475 2399 2473 
3 2469 2461 2400 
3 2401 2402 2476 
3 2476 2477 2401 
3 2401 2478 2404 
3 2401 2477 2479 
3 2480 2401 2479 
3 2481 2401 2480 
3 2481 2478 2401 
3 2482 2483 2402 
3 2484 2476 2402 
3 2402 2403 2482 
3 2402 2483 2484 
3 2403 2409 2482 
3 2404 2485 2405 
3 2478 2485 2404 
3 2485 2407 2405 
3 2407 2467 2406 
3 2407 2485 2486 
3 2486 2467 2407 
3 2409 2408 2487 
3 2410 2487 2408 
3 2482 2409 2487 
3 2487 2410 2488 
3 2488 2410 2414 
3 2489 2411 2450 
3 2411 2489 2418 
3 2490 2413 2412 
3 2419 2490 2412 
3 2491 2413 2490 
3 2414 2413 2491 
3 2492 2414 2491 
3 2493 2414 2492 
3 2414 2493 2488 
3 2419 2416 2415 
3 2415 2417 2419 
3 2419 2417 2494 
3 2418 2495 2417 
3 2494 2417 2496 
3 2417 2497 2496 
3 2495 2497 2417 
3 2495 2418 2489 
3 2494 2490 2419 
3 2420 2424 2423 
3 2421 2422 2498 
3 2498 2430 2421 
3 2422 2499 2498 
3 2423 2499 2422 
3 2423 2424 2499 
3 2500 2424 2427 
3 2424 2500 2501 
3 2501 2499 2424 
3 2425 2429 2426 
3 2502 2503 2426 
3 2426 2504 2427 
3 2429 2505 2426 
3 2426 2505 2502 
3 2506 2426 2503 
3 2504 2426 2506 
3 2427 2504 2500 
3 2428 2432 2429 
3 2505 2429 2432 
3 2430 2498 2507 
3 2430 2508 2509 
3 2509 2431 2430 
3 2430 2507 2508 
3 2510 2448 2431 
3 2510 2431 2509 
3 2432 2433 2505 
3 2438 2511 2433 
3 2433 2511 2505 
3 2442 2512 2434 
3 2513 2435 2434 
3 2434 2512 2514 
3 2434 2514 2515 
3 2434 2515 2513 
3 2435 2516 2517 
3 2516 2435 2518 
3 2517 2436 2435 
3 2518 2435 2513 
3 2437 2436 2519 
3 2520 2436 2517 
3 2519 2436 2520 
3 2438 2437 2519 
3 2519 2511 2438 
3 2521 2439 2522 
3 2522 2439 2443 
3 2441 2439 2521 
3 2523 2512 2440 
3 2440 2512 2442 
3 2440 2441 2523 
3 2523 2441 2524 
3 2521 2524 2441 
3 2444 2522 2443 
3 2444 2460 2522 
3 2445 2525 2446 
3 2447 2526 2445 
3 2525 2445 2526 
3 2446 2525 2454 
3 2526 2447 2449 
3 2448 2510 2527 
3 2449 2448 2527 
3 2527 2526 2449 
3 2450 2451 2489 
3 2451 2528 2489 
3 2528 2451 2455 
3 2453 2452 2529 
3 2529 2452 2454 
3 2455 2453 2530 
3 2530 2453 2529 
3 2531 2454 2525 
3 2529 2454 2531 
3 2528 2455 2532 
3 2455 2533 2532 
3 2455 2534 2533 
3 2455 2530 2534 
3 2535 2460 2456 
3 2535 2456 2457 
3 2457 2458 2535 
3 2458 2536 2535 
3 2536 2458 2459 
3 2536 2459 2461 
3 2460 2537 2522 
3 2537 2460 2535 
3 2538 2536 2461 
3 2461 2469 2538 
3 2471 2462 2465 
3 2539 2464 2463 
3 2540 2539 2463 
3 2468 2540 2463 
3 2465 2464 2539 
3 2474 2471 2465 
3 2474 2465 2541 
3 2465 2539 2540 
3 2541 2465 2542 
3 2542 2465 2540 
3 2468 2467 2543 
3 2467 2486 2543 
3 2468 2542 2540 
3 2544 2542 2468 
3 2468 2543 2544 
3 2469 2470 2538 
3 2545 2538 2470 
3 2546 2545 2470 
3 2475 2546 2470 
3 2547 2473 2472 
3 2472 2474 2547 
3 2473 2548 2549 
3 2549 2475 2473 
3 2548 2473 2547 
3 2541 2547 2474 
3 2475 2550 2551 
3 2551 2546 2475 
3 2475 2549 2552 
3 2552 2550 2475 
3 2477 2476 2484 
3 2477 2484 2553 
3 2554 2477 2553 
3 2555 2479 2477 
3 2556 2555 2477 
3 2556 2477 2554 
3 2485 2478 2557 
3 2557 2478 2481 
3 2479 2558 2559 
3 2558 2479 2555 
3 2559 2480 2479 
3 2560 2481 2480 
3 2480 2559 2561 
3 2562 2560 2480 
3 2562 2480 2561 
3 2481 2563 2557 
3 2560 2564 2481 
3 2481 2564 2565 
3 2565 2563 2481 
3 2483 2482 2566 
3 2566 2482 2487 
3 2567 2483 2566 
3 2568 2483 2567 
3 2483 2568 2553 
3 2484 2483 2553 
3 2485 2543 2486 
3 2543 2485 2557 
3 2566 2487 2569 
3 2488 2569 2487 
3 2569 2488 2493 
3 2570 2495 2489 
3 2528 2570 2489 
3 2490 2571 2491 
3 2572 2490 2494 
3 2571 2490 2572 
3 2491 2573 2492 
3 2574 2491 2575 
3 2571 2575 2491 
3 2573 2491 2574 
3 2576 2493 2492 
3 2492 2577 2576 
3 2577 2492 2573 
3 2569 2493 2576 
3 2572 2494 2496 
3 2497 2495 2570 
3 2578 2496 2579 
3 2496 2497 2579 
3 2496 2578 2572 
3 2570 2580 2497 
3 2579 2497 2580 
3 2499 2581 2498 
3 2498 2581 2507 
3 2581 2499 2582 
3 2501 2582 2499 
3 2583 2500 2584 
3 2501 2500 2583 
3 2500 2504 2584 
3 2501 2585 2582 
3 2585 2501 2583 
3 2503 2502 2586 
3 2511 2587 2502 
3 2502 2505 2511 
3 2587 2588 2502 
3 2588 2586 2502 
3 2503 2589 2590 
3 2590 2506 2503 
3 2586 2589 2503 
3 2504 2506 2584 
3 2584 2506 2590 
3 2508 2507 2581 
3 2509 2508 2591 
3 2582 2591 2508 
3 2581 2582 2508 
3 2591 2592 2509 
3 2510 2509 2592 
3 2592 2593 2510 
3 2510 2593 2527 
3 2519 2594 2511 
3 2587 2511 2594 
3 2512 2523 2595 
3 2514 2512 2595 
3 2513 2596 2518 
3 2596 2513 2515 
3 2595 2597 2514 
3 2598 2514 2597 
3 2515 2514 2598 
3 2599 2515 2598 
3 2515 2599 2596 
3 2518 2517 2516 
3 2517 2518 2520 
3 2518 2600 2601 
3 2602 2518 2596 
3 2518 2602 2600 
3 2520 2518 2601 
3 2520 2594 2519 
3 2587 2594 2520 
3 2601 2587 2520 
3 2522 2537 2521 
3 2603 2524 2521 
3 2521 2537 2535 
3 2535 2603 2521 
3 2595 2523 2524 
3 2597 2524 2604 
3 2604 2524 2603 
3 2597 2595 2524 
3 2525 2526 2605 
3 2605 2606 2525 
3 2525 2606 2607 
3 2525 2607 2608 
3 2525 2608 2531 
3 2526 2609 2605 
3 2609 2526 2527 
3 2527 2593 2610 
3 2527 2610 2609 
3 2570 2528 2611 
3 2611 2528 2532 
3 2531 2612 2529 
3 2529 2612 2530 
3 2613 2534 2530 
3 2613 2530 2612 
3 2608 2614 2531 
3 2615 2612 2531 
3 2615 2531 2614 
3 2532 2616 2579 
3 2617 2532 2618 
3 2619 2611 2532 
3 2617 2616 2532 
3 2532 2579 2619 
3 2618 2532 2533 
3 2533 2620 2618 
3 2533 2534 2620 
3 2620 2534 2613 
3 2535 2536 2621 
3 2621 2622 2535 
3 2603 2535 2623 
3 2623 2535 2622 
3 2536 2538 2545 
3 2621 2536 2545 
3 2547 2541 2624 
3 2542 2624 2541 
3 2625 2624 2542 
3 2544 2626 2542 
3 2625 2542 2626 
3 2544 2543 2563 
3 2557 2563 2543 
3 2544 2627 2626 
3 2563 2628 2544 
3 2627 2544 2628 
3 2629 2621 2545 
3 2630 2629 2545 
3 2545 2546 2630 
3 2630 2546 2551 
3 2548 2547 2625 
3 2547 2624 2625 
3 2549 2548 2631 
3 2625 2631 2548 
3 2552 2549 2631 
3 2550 2632 2551 
3 2633 2632 2550 
3 2633 2550 2552 
3 2634 2635 2551 
3 2551 2632 2634 
3 2635 2630 2551 
3 2633 2552 2631 
3 2553 2568 2636 
3 2637 2638 2553 
3 2638 2554 2553 
3 2637 2553 2636 
3 2639 2556 2554 
3 2639 2554 2638 
3 2558 2555 2556 
3 2640 2558 2556 
3 2640 2556 2639 
3 2561 2559 2558 
3 2558 2641 2561 
3 2641 2558 2640 
3 2560 2562 2564 
3 2642 2643 2561 
3 2561 2641 2642 
3 2561 2644 2565 
3 2565 2562 2561 
3 2561 2645 2644 
3 2561 2643 2645 
3 2562 2565 2564 
3 2563 2646 2628 
3 2647 2646 2563 
3 2563 2565 2644 
3 2645 2563 2644 
3 2647 2563 2645 
3 2569 2648 2566 
3 2648 2649 2566 
3 2566 2650 2567 
3 2566 2649 2650 
3 2568 2567 2650 
3 2636 2568 2651 
3 2568 2652 2651 
3 2568 2650 2652 
3 2576 2648 2569 
3 2580 2570 2611 
3 2578 2571 2572 
3 2575 2571 2578 
3 2573 2653 2577 
3 2573 2574 2653 
3 2574 2575 2654 
3 2655 2574 2654 
3 2653 2574 2655 
3 2654 2575 2578 
3 2577 2656 2576 
3 2657 2576 2658 
3 2657 2648 2576 
3 2576 2656 2658 
3 2577 2659 2660 
3 2660 2656 2577 
3 2661 2659 2577 
3 2577 2653 2661 
3 2655 2578 2579 
3 2654 2578 2655 
3 2579 2616 2655 
3 2579 2580 2619 
3 2619 2580 2611 
3 2591 2582 2662 
3 2663 2582 2585 
3 2662 2582 2663 
3 2584 2590 2583 
3 2664 2583 2665 
3 2585 2583 2666 
3 2583 2590 2665 
3 2583 2664 2666 
3 2585 2667 2663 
3 2667 2585 2666 
3 2589 2586 2668 
3 2588 2669 2586 
3 2586 2669 2668 
3 2670 2588 2587 
3 2587 2601 2670 
3 2588 2670 2671 
3 2588 2671 2669 
3 2589 2672 2590 
3 2668 2673 2589 
3 2589 2673 2672 
3 2672 2674 2590 
3 2590 2674 2675 
3 2665 2590 2675 
3 2676 2591 2662 
3 2676 2592 2591 
3 2592 2676 2593 
3 2593 2677 2610 
3 2678 2677 2593 
3 2678 2593 2676 
3 2602 2596 2599 
3 2598 2597 2604 
3 2598 2679 2680 
3 2680 2599 2598 
3 2598 2604 2679 
3 2599 2681 2602 
3 2681 2599 2680 
3 2601 2600 2682 
3 2600 2602 2681 
3 2683 2682 2600 
3 2681 2683 2600 
3 2601 2682 2684 
3 2670 2601 2684 
3 2685 2686 2603 
3 2603 2623 2685 
3 2686 2687 2603 
3 2688 2604 2603 
3 2688 2603 2687 
3 2689 2604 2688 
3 2679 2604 2690 
3 2604 2689 2690 
3 2691 2605 2609 
3 2605 2691 2692 
3 2605 2692 2606 
3 2693 2607 2606 
3 2694 2606 2692 
3 2606 2694 2693 
3 2608 2607 2695 
3 2607 2693 2695 
3 2696 2608 2695 
3 2696 2697 2608 
3 2614 2608 2697 
3 2610 2698 2609 
3 2698 2691 2609 
3 2677 2698 2610 
3 2613 2612 2615 
3 2699 2620 2613 
3 2699 2613 2615 
3 2614 2700 2615 
3 2700 2614 2697 
3 2700 2701 2615 
3 2615 2702 2703 
3 2615 2701 2702 
3 2703 2704 2615 
3 2699 2615 2704 
3 2616 2705 2661 
3 2661 2655 2616 
3 2617 2706 2616 
3 2706 2705 2616 
3 2618 2707 2617 
3 2617 2708 2706 
3 2617 2707 2709 
3 2709 2710 2617 
3 2711 2617 2710 
3 2708 2617 2711 
3 2712 2707 2618 
3 2618 2713 2712 
3 2713 2618 2620 
3 2714 2620 2699 
3 2620 2714 2713 
3 2622 2621 2629 
3 2623 2622 2635 
3 2622 2629 2635 
3 2635 2685 2623 
3 2626 2631 2625 
3 2715 2631 2626 
3 2626 2716 2715 
3 2627 2716 2626 
3 2717 2716 2627 
3 2717 2627 2718 
3 2627 2628 2718 
3 2718 2628 2719 
3 2720 2719 2628 
3 2628 2646 2720 
3 2635 2629 2630 
3 2631 2721 2633 
3 2722 2721 2631 
3 2722 2631 2715 
3 2634 2632 2723 
3 2723 2632 2633 
3 2723 2633 2724 
3 2724 2633 2721 
3 2635 2634 2725 
3 2634 2726 2725 
3 2634 2727 2726 
3 2728 2727 2634 
3 2728 2634 2729 
3 2723 2729 2634 
3 2685 2635 2725 
3 2637 2636 2651 
3 2637 2651 2730 
3 2638 2637 2639 
3 2730 2731 2637 
3 2639 2637 2732 
3 2733 2732 2637 
3 2731 2733 2637 
3 2732 2734 2639 
3 2735 2640 2639 
3 2735 2639 2736 
3 2734 2736 2639 
3 2640 2735 2641 
3 2736 2737 2641 
3 2641 2735 2736 
3 2641 2738 2739 
3 2642 2641 2739 
3 2738 2641 2740 
3 2641 2737 2740 
3 2643 2642 2741 
3 2739 2742 2642 
3 2642 2743 2741 
3 2743 2642 2742 
3 2643 2744 2647 
3 2647 2645 2643 
3 2744 2643 2741 
3 2720 2646 2647 
3 2744 2720 2647 
3 2745 2649 2648 
3 2745 2648 2657 
3 2745 2650 2649 
3 2652 2650 2745 
3 2651 2652 2730 
3 2730 2652 2745 
3 2661 2653 2655 
3 2746 2656 2747 
3 2656 2660 2747 
3 2746 2658 2656 
3 2748 2657 2658 
3 2749 2750 2657 
3 2750 2745 2657 
3 2749 2657 2748 
3 2658 2746 2748 
3 2747 2660 2659 
3 2705 2751 2659 
3 2659 2661 2705 
3 2747 2659 2752 
3 2751 2752 2659 
3 2662 2663 2753 
3 2678 2676 2662 
3 2753 2678 2662 
3 2663 2754 2755 
3 2753 2663 2755 
3 2754 2663 2667 
3 2665 2756 2664 
3 2664 2757 2758 
3 2664 2756 2757 
3 2758 2666 2664 
3 2756 2665 2759 
3 2675 2759 2665 
3 2667 2666 2758 
3 2754 2667 2760 
3 2760 2667 2761 
3 2667 2762 2761 
3 2758 2762 2667 
3 2763 2668 2669 
3 2764 2668 2763 
3 2765 2668 2764 
3 2765 2673 2668 
3 2669 2766 2763 
3 2669 2671 2766 
3 2767 2766 2670 
3 2684 2767 2670 
3 2766 2671 2670 
3 2672 2768 2769 
3 2673 2768 2672 
3 2672 2769 2674 
3 2768 2673 2770 
3 2673 2771 2770 
3 2673 2765 2771 
3 2675 2674 2772 
3 2674 2769 2772 
3 2773 2675 2772 
3 2773 2759 2675 
3 2678 2753 2677 
3 2753 2774 2677 
3 2677 2774 2698 
3 2775 2680 2679 
3 2775 2679 2690 
3 2775 2776 2680 
3 2776 2681 2680 
3 2683 2681 2776 
3 2682 2683 2777 
3 2682 2777 2778 
3 2778 2779 2682 
3 2779 2684 2682 
3 2777 2683 2776 
3 2767 2684 2779 
3 2780 2686 2685 
3 2781 2780 2685 
3 2725 2781 2685 
3 2687 2686 2780 
3 2782 2783 2687 
3 2687 2780 2784 
3 2687 2784 2785 
3 2785 2782 2687 
3 2688 2687 2783 
3 2786 2689 2688 
3 2783 2786 2688 
3 2689 2787 2690 
3 2788 2789 2689 
3 2790 2689 2789 
3 2788 2689 2786 
3 2689 2790 2791 
3 2791 2787 2689 
3 2690 2787 2792 
3 2690 2793 2775 
3 2793 2690 2792 
3 2691 2698 2774 
3 2691 2794 2692 
3 2774 2794 2691 
3 2694 2692 2794 
3 2693 2694 2795 
3 2795 2695 2693 
3 2796 2694 2794 
3 2694 2796 2795 
3 2795 2696 2695 
3 2796 2696 2795 
3 2797 2696 2798 
3 2798 2696 2796 
3 2697 2696 2797 
3 2697 2797 2799 
3 2700 2697 2799 
3 2714 2699 2704 
3 2800 2701 2700 
3 2801 2700 2799 
3 2700 2801 2800 
3 2702 2701 2800 
3 2802 2703 2702 
3 2702 2800 2802 
3 2802 2704 2703 
3 2714 2704 2803 
3 2802 2804 2704 
3 2803 2704 2804 
3 2751 2705 2706 
3 2805 2751 2706 
3 2706 2708 2806 
3 2806 2807 2706 
3 2805 2706 2807 
3 2709 2707 2712 
3 2806 2708 2711 
3 2709 2712 2713 
3 2709 2713 2808 
3 2808 2711 2709 
3 2711 2710 2709 
3 2808 2806 2711 
3 2808 2713 2809 
3 2713 2714 2810 
3 2809 2713 2810 
3 2803 2811 2714 
3 2812 2810 2714 
3 2811 2812 2714 
3 2722 2715 2813 
3 2715 2716 2717 
3 2813 2715 2814 
3 2717 2814 2715 
3 2717 2815 2816 
3 2816 2817 2717 
3 2817 2818 2717 
3 2819 2814 2717 
3 2717 2818 2819 
3 2717 2718 2815 
3 2718 2719 2820 
3 2821 2718 2820 
3 2815 2718 2821 
3 2820 2719 2720 
3 2820 2720 2744 
3 2822 2823 2721 
3 2722 2822 2721 
3 2721 2824 2724 
3 2721 2823 2824 
3 2822 2722 2813 
3 2729 2723 2825 
3 2724 2825 2723 
3 2826 2825 2724 
3 2826 2724 2824 
3 2726 2781 2725 
3 2827 2781 2726 
3 2726 2828 2827 
3 2727 2828 2726 
3 2782 2828 2727 
3 2782 2727 2728 
3 2729 2829 2728 
3 2782 2728 2829 
3 2729 2830 2829 
3 2830 2729 2825 
3 2730 2745 2750 
3 2730 2831 2731 
3 2750 2831 2730 
3 2731 2832 2733 
3 2832 2731 2831 
3 2734 2732 2733 
3 2833 2734 2733 
3 2834 2733 2832 
3 2833 2733 2834 
3 2835 2734 2833 
3 2836 2736 2734 
3 2836 2734 2835 
3 2736 2837 2737 
3 2736 2836 2837 
3 2740 2737 2838 
3 2838 2737 2837 
3 2739 2738 2839 
3 2840 2738 2740 
3 2839 2738 2840 
3 2742 2739 2839 
3 2740 2841 2842 
3 2842 2840 2740 
3 2740 2838 2841 
3 2843 2744 2741 
3 2741 2844 2843 
3 2844 2741 2845 
3 2845 2741 2743 
3 2742 2846 2847 
3 2742 2848 2846 
3 2742 2847 2743 
3 2839 2848 2742 
3 2847 2845 2743 
3 2744 2821 2820 
3 2849 2821 2744 
3 2850 2849 2744 
3 2843 2851 2744 
3 2744 2851 2850 
3 2752 2746 2747 
3 2746 2852 2853 
3 2854 2852 2746 
3 2752 2854 2746 
3 2855 2746 2853 
3 2855 2748 2746 
3 2748 2855 2749 
3 2750 2749 2856 
3 2856 2749 2855 
3 2831 2750 2857 
3 2856 2858 2750 
3 2857 2750 2858 
3 2751 2859 2752 
3 2860 2751 2805 
3 2860 2859 2751 
3 2854 2752 2859 
3 2753 2794 2774 
3 2794 2753 2796 
3 2796 2753 2755 
3 2861 2755 2754 
3 2862 2861 2754 
3 2760 2862 2754 
3 2755 2861 2796 
3 2773 2756 2759 
3 2757 2756 2863 
3 2773 2863 2756 
3 2758 2757 2864 
3 2863 2864 2757 
3 2762 2758 2865 
3 2864 2865 2758 
3 2862 2760 2866 
3 2761 2866 2760 
3 2762 2867 2761 
3 2761 2867 2868 
3 2761 2868 2866 
3 2865 2869 2762 
3 2867 2762 2869 
3 2764 2763 2870 
3 2871 2763 2766 
3 2763 2872 2870 
3 2871 2872 2763 
3 2870 2873 2764 
3 2873 2874 2764 
3 2771 2765 2764 
3 2764 2874 2875 
3 2875 2771 2764 
3 2766 2876 2877 
3 2766 2767 2878 
3 2879 2876 2766 
3 2871 2766 2877 
3 2878 2879 2766 
3 2767 2778 2777 
3 2777 2878 2767 
3 2779 2778 2767 
3 2769 2768 2880 
3 2881 2880 2768 
3 2881 2768 2770 
3 2772 2769 2880 
3 2770 2882 2881 
3 2770 2771 2882 
3 2771 2875 2883 
