NORM_ASCII
1321 2638
   0.0004904   -0.0079351    0.0025935    0.1533778    0.0503198    0.9868856
   0.0008627   -0.0098179    0.0023077    0.8767794    0.0011038    0.4808916
   0.0008515   -0.0093620    0.0023999    0.6718537   -0.0172752    0.7404824
   0.0010027   -0.0080215    0.0024246    0.4530567    0.0069299    0.8914548
   0.0010373   -0.0144444    0.0029984    0.5816196    0.2639806    0.7694367
   0.0010875   -0.0136850    0.0026822    0.8048252    0.4454241    0.3922419
   0.0009505   -0.0131869    0.0025324    0.8813178    0.3975601    0.2553919
   0.0008585   -0.0125589    0.0023949    0.9407542    0.2907981    0.1744078
   0.0011666   -0.0140009    0.0027717    0.7980102    0.3462061    0.4932758
   0.0008063   -0.0120888    0.0023025    0.9689044    0.2358834   -0.0747210
   0.0009114   -0.0127999    0.0022056    0.9426281    0.3321607   -0.0334888
   0.0007547   -0.0116190    0.0022108    0.9716504    0.2095487   -0.1094751
   0.0007447   -0.0111698    0.0024018    0.9739851    0.1717350    0.1478519
   0.0007526   -0.0107121    0.0023453    0.9857659    0.0739047    0.1510088
  -0.0024997   -0.0077490    0.0004109   -0.9561847   -0.0832004    0.2806930
  -0.0026542   -0.0067870   -0.0000721   -0.9371382   -0.2193585    0.2713926
  -0.0023692   -0.0068712    0.0006377   -0.8712868   -0.0775480    0.4846088
  -0.0021296   -0.0069332    0.0010513   -0.8206378   -0.0363633    0.5702905
  -0.0019786   -0.0060537    0.0012059   -0.7636117   -0.1185473    0.6346996
  -0.0026058   -0.0104813    0.0006859   -0.9215926   -0.0903193   -0.3775042
  -0.0025386   -0.0086600    0.0005005   -0.9926594   -0.0887737    0.0821378
  -0.0025722   -0.0100294    0.0006506   -0.9576117   -0.1166934   -0.2633674
  -0.0006958   -0.0058812    0.0023098   -0.4638138   -0.0886131    0.8814899
  -0.0001052   -0.0069119    0.0025402   -0.1806570    0.0011231    0.9835455
  -0.0017895   -0.0049509    0.0015261   -0.6265337   -0.2288390    0.7450424
  -0.0021837   -0.0109849    0.0000051   -0.7816213   -0.2325077   -0.5787990
  -0.0021272   -0.0115705    0.0001148   -0.5643559   -0.2568313   -0.7845636
  -0.0021177   -0.0119164    0.0001638   -0.4333588   -0.1633800   -0.8862884
  -0.0028346   -0.0131357    0.0001132   -0.7005108    0.4934832   -0.5155181
  -0.0028098   -0.0131563    0.0000697   -0.7047244    0.4039379   -0.5832647
  -0.0022622   -0.0126477    0.0001634   -0.1888165    0.2150276   -0.9581813
  -0.0019508   -0.0124041    0.0001468   -0.2138474    0.0040271   -0.9768588
   0.0011979   -0.0149190    0.0027579    0.9978426   -0.0459825    0.0468579
   0.0012505   -0.0144722    0.0027435    0.9674503    0.1366283    0.2130086
   0.0012781   -0.0144734    0.0026492    0.9896887    0.1427916   -0.0112639
   0.0010827   -0.0135076    0.0022658    0.9297489    0.3048666   -0.2064542
   0.0012329   -0.0140037    0.0025612    0.9366443    0.3424455    0.0736784
   0.0011833   -0.0138138    0.0025059    0.9185068    0.3953959   -0.0026938
   0.0001208   -0.0119041    0.0009221    0.6701765   -0.1701134   -0.7224437
  -0.0006811   -0.0112636    0.0000693    0.4336504   -0.2755672   -0.8579103
  -0.0016764   -0.0113532   -0.0001318    0.0297856   -0.3310014   -0.9431601
  -0.0018565   -0.0118939    0.0000747   -0.1419565   -0.2270080   -0.9634914
   0.0003533   -0.0124221    0.0013657    0.7496620   -0.0001470   -0.6618209
   0.0009547   -0.0130204    0.0020999    0.9202552    0.3414497   -0.1911610
   0.0008596   -0.0129900    0.0018073    0.8112573    0.2942572   -0.5052468
   0.0006708   -0.0124961    0.0017413    0.7758234    0.2572781   -0.5761129
   0.0011817   -0.0149236    0.0028974    0.9539891    0.0119844    0.2996016
   0.0012127   -0.0144710    0.0028605    0.7892708    0.2096021    0.5771643
   0.0011560   -0.0144620    0.0028991    0.5986926    0.2434158    0.7630962
   0.0003588   -0.0065422    0.0025886    0.0263951   -0.0489334    0.9984532
   0.0006557   -0.0075080    0.0025623    0.2571034    0.0202851    0.9661710
   0.0008612   -0.0102652    0.0021094    0.9906473   -0.0309986    0.1328799
   0.0010283   -0.0093825    0.0021053    0.9519291   -0.0970008    0.2905545
   0.0008643   -0.0098104    0.0023074    0.8463462   -0.0403091    0.5311058
   0.0011182   -0.0084954    0.0023048    0.7082915   -0.0589417    0.7034551
   0.0013301   -0.0076213    0.0023301    0.4241208   -0.1105177    0.8988367
   0.0012021   -0.0143614    0.0028399    0.7568301    0.2848402    0.5882808
   0.0010434   -0.0133370    0.0023572    0.9089736    0.4111011    0.0690138
   0.0007304   -0.0120627    0.0019981    0.8989723    0.2648452   -0.3488636
   0.0007526   -0.0116175    0.0022010    0.9602435    0.1570345   -0.2308087
   0.0008100   -0.0125314    0.0019615    0.8764235    0.3366620   -0.3442971
   0.0007154   -0.0111421    0.0018847    0.9901399   -0.0291470   -0.1370159
  -0.0025441   -0.0081882    0.0001847   -0.9747482   -0.2146333   -0.0616320
  -0.0025484   -0.0059113    0.0003478   -0.8379051   -0.2375507    0.4914109
  -0.0026829   -0.0071656   -0.0005384   -0.9290480   -0.3699220    0.0052436
  -0.0025154   -0.0081825   -0.0000511   -0.9595191   -0.2803092   -0.0273817
  -0.0028940   -0.0063705   -0.0005196   -0.8752202   -0.3816890    0.2971583
  -0.0028255   -0.0067295   -0.0006886   -0.9016185   -0.4049886    0.1518825
  -0.0021351   -0.0063031    0.0009687   -0.8210896   -0.1291633    0.5559934
  -0.0024125   -0.0053363    0.0006705   -0.7393301   -0.2623674    0.6201244
  -0.0022721   -0.0050749    0.0009360   -0.6918379   -0.2912963    0.6606865
  -0.0023764   -0.0100479    0.0002712   -0.8845821   -0.1769016   -0.4315326
  -0.0025062   -0.0091144    0.0003249   -0.9377763   -0.2007895   -0.2833005
  -0.0004919   -0.0054701    0.0024953   -0.4195912   -0.2032643    0.8846620
  -0.0000578   -0.0063520    0.0025523   -0.2309978   -0.1014655    0.9676491
  -0.0023114   -0.0046177    0.0010728   -0.6288559   -0.3594378    0.6894525
  -0.0018317   -0.0042774    0.0017025   -0.5742997   -0.3653844    0.7325805
  -0.0006854   -0.0048057    0.0024647   -0.5009882   -0.3003139    0.8116787
  -0.0009412   -0.0035665    0.0026273   -0.5576023   -0.2649403    0.7866933
  -0.0019797   -0.0112861   -0.0000800   -0.4463175   -0.3784116   -0.8109287
  -0.0020396   -0.0110052   -0.0001534   -0.5299672   -0.3595074   -0.7680425
  -0.0021874   -0.0104615   -0.0000625   -0.8846379   -0.2246661   -0.4085840
  -0.0020819   -0.0105365   -0.0002392   -0.7507170   -0.2384095   -0.6161045
  -0.0019368   -0.0114859   -0.0000277   -0.3236734   -0.3372067   -0.8840402
   0.0002275   -0.0113816    0.0008322    0.7784439   -0.1995356   -0.5951560
  -0.0011081   -0.0101938   -0.0004211    0.2496644   -0.3093266   -0.9175973
  -0.0005627   -0.0092205   -0.0007021    0.3314287   -0.3163563   -0.8888609
  -0.0000646   -0.0104634    0.0000975    0.5464278   -0.2862978   -0.7870516
   0.0001695   -0.0109827    0.0005376    0.6418622   -0.3103091   -0.7012283
  -0.0014842   -0.0107104   -0.0003429    0.1833611   -0.3128453   -0.9319370
  -0.0017852   -0.0110479   -0.0002390   -0.0983291   -0.3775423   -0.9207569
   0.0004567   -0.0115217    0.0012488    0.9113873   -0.0414706   -0.4094550
   0.0005403   -0.0120091    0.0015796    0.8768512    0.1262666   -0.4638844
   0.0007032   -0.0070595    0.0025569    0.1843682   -0.0377403    0.9821324
   0.0007389   -0.0065531    0.0025790    0.0514130   -0.1340388    0.9896415
   0.0013053   -0.0067132    0.0025351    0.1686437   -0.1334278    0.9766045
   0.0002076   -0.0058281    0.0026559   -0.1037643   -0.1675412    0.9803892
   0.0008746   -0.0102455    0.0016089    0.9948499   -0.0885025   -0.0494065
   0.0012282   -0.0089542    0.0019256    0.8922748   -0.2255849    0.3910974
   0.0013754   -0.0080780    0.0021627    0.7109283   -0.1659424    0.6834062
   0.0009959   -0.0098015    0.0013777    0.9745244   -0.1953607   -0.1101657
   0.0016991   -0.0072289    0.0022628    0.4063265   -0.5538604    0.7267307
   0.0014931   -0.0071962    0.0023805    0.3577674   -0.3983952    0.8445613
   0.0007152   -0.0106590    0.0013058    0.9167433   -0.1379174   -0.3749139
  -0.0024085   -0.0086536   -0.0001770   -0.8865353   -0.3089851   -0.3443593
  -0.0028556   -0.0053848    0.0000279   -0.7636280   -0.3665173    0.5315424
  -0.0030789   -0.0057747   -0.0005756   -0.7722656   -0.4454036    0.4530137
  -0.0025634   -0.0054572    0.0004443   -0.7556882   -0.3076816    0.5781586
  -0.0024572   -0.0078472   -0.0005624   -0.8367098   -0.4538541   -0.3064852
  -0.0028420   -0.0067143   -0.0009494   -0.8647212   -0.4994258   -0.0532080
  -0.0028960   -0.0065740   -0.0010015   -0.8341696   -0.5497468    0.0440404
  -0.0031805   -0.0061777   -0.0013796   -0.7516084   -0.5913923    0.2921301
  -0.0027165   -0.0040807    0.0009133   -0.6726059   -0.3386833    0.6579475
  -0.0000456   -0.0053678    0.0026897   -0.1875849   -0.2632205    0.9463228
  -0.0002898   -0.0048329    0.0027205   -0.4180101   -0.2877389    0.8616693
  -0.0025405   -0.0041198    0.0010729   -0.4991068   -0.3879552    0.7748440
  -0.0020612   -0.0037491    0.0017086   -0.6106740   -0.3604319    0.7051000
  -0.0024114   -0.0037000    0.0013823   -0.6853332   -0.3097847    0.6590538
  -0.0025607   -0.0038500    0.0011494   -0.6751722   -0.3538918    0.6472272
  -0.0011373   -0.0034462    0.0025130   -0.4979407   -0.2747583    0.8225344
  -0.0015394   -0.0034423    0.0022641   -0.4919004   -0.2722396    0.8269943
  -0.0017358   -0.0034008    0.0021384   -0.5669774   -0.2881617    0.7716862
  -0.0005525   -0.0041021    0.0028132   -0.4772403   -0.3336517    0.8129688
  -0.0003800   -0.0036891    0.0030497   -0.4241141   -0.2516716    0.8699360
  -0.0011401   -0.0030716    0.0025779   -0.5097175   -0.0744127    0.8571177
  -0.0007486   -0.0031557    0.0028307   -0.5335223   -0.0353470    0.8450470
  -0.0018681   -0.0110330   -0.0002215   -0.2917848   -0.4017164   -0.8680355
  -0.0018239   -0.0109372   -0.0002779   -0.1579183   -0.3788315   -0.9118928
  -0.0019115   -0.0105614   -0.0003808   -0.4288521   -0.3132630   -0.8473206
  -0.0020822   -0.0105159   -0.0002421   -0.7352954   -0.2566677   -0.6272658
  -0.0021251   -0.0096085   -0.0003834   -0.8092332   -0.2519289   -0.5307292
   0.0007952   -0.0102054    0.0010467    0.9218711   -0.2187058   -0.3198773
   0.0004427   -0.0105546    0.0006130    0.8165866   -0.2640345   -0.5132953
  -0.0016458   -0.0104079   -0.0004837    0.0850611   -0.3364653   -0.9378463
  -0.0015199   -0.0106333   -0.0003752    0.1542250   -0.3216187   -0.9342248
   0.0001737   -0.0090109   -0.0005118    0.4408608   -0.3550535   -0.8243657
   0.0002002   -0.0102002    0.0001603    0.5297302   -0.3233614   -0.7841067
  -0.0000405   -0.0081402   -0.0009285    0.2868737   -0.2383709   -0.9278377
  -0.0014485   -0.0097197   -0.0006958    0.1125835   -0.3002559   -0.9471913
   0.0006000   -0.0094935    0.0000737    0.6684446   -0.3347553   -0.6641692
   0.0010211   -0.0062086    0.0026265    0.0866439   -0.1458806    0.9855007
   0.0016821   -0.0067775    0.0024485    0.2143630   -0.2911071    0.9323653
   0.0006936   -0.0051366    0.0028790   -0.0822646   -0.3142867    0.9457570
   0.0017032   -0.0076780    0.0020686    0.6708726   -0.2883269    0.6832259
   0.0017225   -0.0081191    0.0016299    0.9095787   -0.3475177    0.2278112
   0.0016049   -0.0081687    0.0018145    0.8497573   -0.2934947    0.4379193
   0.0008681   -0.0101569    0.0013406    0.9193240   -0.1634179   -0.3579638
   0.0010522   -0.0095828    0.0011324    0.9477585   -0.2805341   -0.1518371
   0.0016991   -0.0072288    0.0022632    0.2601614   -0.7441214    0.6153044
   0.0016999   -0.0072293    0.0022622    0.2934672   -0.6638059    0.6879235
  -0.0020368   -0.0091576   -0.0006365   -0.7296065   -0.3328907   -0.5973761
  -0.0021396   -0.0093813   -0.0004205   -0.8099024   -0.2576556   -0.5269456
  -0.0032287   -0.0047794   -0.0001725   -0.6838849   -0.4219872    0.5951708
  -0.0029968   -0.0043339    0.0004257   -0.7423494   -0.3737309    0.5560959
  -0.0034057   -0.0058666   -0.0014151   -0.7833209   -0.5400648    0.3077960
  -0.0033790   -0.0048151   -0.0003857   -0.7432328   -0.3622559    0.5624729
  -0.0035259   -0.0048574   -0.0006055   -0.7581431   -0.4489200    0.4729587
  -0.0033759   -0.0054377   -0.0009430   -0.7936022   -0.4939344    0.3552806
  -0.0026456   -0.0070600   -0.0010345   -0.7988512   -0.5703193   -0.1912399
  -0.0025212   -0.0072186   -0.0011883   -0.7576939   -0.5878736   -0.2833806
  -0.0022495   -0.0079695   -0.0009208   -0.7443429   -0.4779179   -0.4664205
  -0.0027118   -0.0068863   -0.0013515   -0.7639772   -0.6354209   -0.1121566
  -0.0029684   -0.0064512   -0.0013164   -0.7277250   -0.6739321    0.1274045
  -0.0033233   -0.0060971   -0.0015867   -0.7394234   -0.6657586    0.1000922
  -0.0031480   -0.0062917   -0.0014506   -0.6605795   -0.7439193    0.1010881
  -0.0027325   -0.0036257    0.0010121   -0.0318773   -0.2408987    0.9700266
  -0.0028833   -0.0035881    0.0008122   -0.8073662   -0.1302001    0.5755066
  -0.0028751   -0.0040437    0.0007257   -0.7709111   -0.2502890    0.5857059
  -0.0001260   -0.0042292    0.0030024   -0.2319446   -0.3135137    0.9208207
  -0.0000139   -0.0046611    0.0028750   -0.0835509   -0.3072822    0.9479435
  -0.0027325   -0.0036257    0.0010121    0.7475090   -0.3226606    0.5806208
  -0.0022712   -0.0032823    0.0016728   -0.7173860   -0.1996850    0.6674453
  -0.0020999   -0.0033200    0.0018405   -0.6529549   -0.2414817    0.7178695
  -0.0025773   -0.0036620    0.0012063   -0.6337360   -0.2734816    0.7235928
  -0.0025736   -0.0032089    0.0012726   -0.8215817   -0.0751376    0.5651175
  -0.0025112   -0.0032246    0.0013562   -0.8021257   -0.1170295    0.5855754
  -0.0013381   -0.0030313    0.0024539   -0.5133012   -0.0784324    0.8546170
  -0.0017285   -0.0029480    0.0021992   -0.5612270   -0.0519170    0.8260320
  -0.0019208   -0.0033314    0.0019990   -0.6270110   -0.2130743    0.7493040
  -0.0019130   -0.0029071    0.0020538   -0.6340202   -0.0689837    0.7702335
  -0.0005558   -0.0031965    0.0029627   -0.5265983    0.0223684    0.8498199
  -0.0001655   -0.0036520    0.0031584   -0.3124562   -0.1879392    0.9311552
   0.0002959   -0.0038220    0.0032848   -0.2099126   -0.2240322    0.9517070
  -0.0000816   -0.0041990    0.0030271   -0.2108624   -0.3495807    0.9128693
  -0.0001496   -0.0032806    0.0031919   -0.3555308    0.0153874    0.9345379
  -0.0003601   -0.0032374    0.0030896   -0.4766704    0.0306966    0.8785460
  -0.0008746   -0.0026677    0.0026621   -0.4580630    0.1900863    0.8683579
  -0.0012809   -0.0025836    0.0024324   -0.4850314    0.1658619    0.8586236
  -0.0006749   -0.0027094    0.0027823   -0.4714810    0.2216234    0.8535741
  -0.0019423   -0.0102882   -0.0004344   -0.4951804   -0.3007832   -0.8150619
  -0.0017209   -0.0101321   -0.0005660   -0.2131297   -0.3072200   -0.9274651
  -0.0019672   -0.0100902   -0.0004753   -0.5787293   -0.2906312   -0.7619750
  -0.0020011   -0.0096242   -0.0005552   -0.6785970   -0.2721331   -0.6822388
   0.0007678   -0.0097192    0.0004622    0.8460748   -0.3053947   -0.4369114
   0.0004822   -0.0087116   -0.0005145    0.4788047   -0.3218635   -0.8167925
  -0.0008789   -0.0085569   -0.0009862    0.2319440   -0.2737373   -0.9334184
  -0.0004220   -0.0076055   -0.0011262    0.3071990   -0.1844891   -0.9335912
   0.0000367   -0.0076966   -0.0009838    0.1746613   -0.1336179   -0.9755202
   0.0007022   -0.0078280   -0.0007317    0.4226881   -0.1813411   -0.8879472
  -0.0017192   -0.0096702   -0.0006992   -0.1665245   -0.2830535   -0.9445371
  -0.0015876   -0.0092305   -0.0008431   -0.1175484   -0.3030590   -0.9456942
  -0.0012481   -0.0090227   -0.0009104    0.0834100   -0.3156794   -0.9451927
   0.0007590   -0.0084187   -0.0004660    0.6073765   -0.3132624   -0.7300414
   0.0008336   -0.0092629    0.0001820    0.7469318   -0.3554756   -0.5618986
   0.0025729   -0.0068171    0.0022622    0.2549472   -0.5739554    0.7781883
   0.0027634   -0.0065201    0.0024516    0.1090360   -0.4942874    0.8624332
   0.0019132   -0.0072641    0.0021509    0.4724177   -0.4837532    0.7367525
   0.0014080   -0.0049279    0.0030548   -0.0582872   -0.3609788    0.9307507
   0.0018954   -0.0063709    0.0025335    0.0992273   -0.3671836    0.9248406
   0.0017434   -0.0054404    0.0029296   -0.0506231   -0.3700228    0.9276424
   0.0011433   -0.0047350    0.0031151   -0.0422426   -0.3910135    0.9194150
   0.0011025   -0.0044242    0.0032312   -0.0294820   -0.2302490    0.9726851
   0.0008136   -0.0039182    0.0033306   -0.0306618   -0.1522479    0.9878666
   0.0005482   -0.0038707    0.0033177   -0.0974047   -0.2638759    0.9596259
   0.0018714   -0.0076370    0.0019175    0.7136295   -0.4119480    0.5665966
   0.0014634   -0.0087861    0.0010418    0.9398865   -0.3408836   -0.0202923
   0.0019605   -0.0077105    0.0017303    0.7209536   -0.5205838    0.4574039
   0.0016054   -0.0085190    0.0008534    0.9167558   -0.3965187   -0.0482875
   0.0021582   -0.0077183    0.0010976    0.8416565   -0.5252716    0.1253156
   0.0013612   -0.0089002    0.0007378    0.8765536   -0.3848795   -0.2890010
  -0.0018518   -0.0091854   -0.0007683   -0.4061036   -0.3091392   -0.8599493
  -0.0019958   -0.0084299   -0.0009548   -0.5263535   -0.4379262   -0.7288159
  -0.0034258   -0.0043564   -0.0002363   -0.8231179   -0.2757374    0.4964331
  -0.0032890   -0.0043923   -0.0000129   -0.8248063   -0.2802933    0.4910501
  -0.0032781   -0.0043947    0.0000012   -0.6502123   -0.3632328    0.6672975
  -0.0032076   -0.0039621    0.0002451   -0.8051867   -0.2133820    0.5533015
  -0.0030275   -0.0040072    0.0005274   -0.8114238   -0.2050789    0.5472970
  -0.0034868   -0.0058103   -0.0017269   -0.8743335   -0.4847633   -0.0233575
  -0.0035203   -0.0056532   -0.0015145   -0.8646370   -0.4420882    0.2386648
  -0.0035798   -0.0047662   -0.0006512   -0.8482858   -0.2799746    0.4494725
  -0.0035011   -0.0043362   -0.0004013   -0.9026691   -0.1440519    0.4055090
  -0.0036264   -0.0049580   -0.0009101   -0.8441169   -0.4524774    0.2876297
  -0.0036338   -0.0051810   -0.0013862   -0.9281585   -0.3628256    0.0829420
  -0.0024471   -0.0072245   -0.0013846   -0.7042152   -0.6841446   -0.1898079
  -0.0024434   -0.0072272   -0.0013908   -0.6292916   -0.6602149   -0.4100102
  -0.0022861   -0.0075627   -0.0012484   -0.6408703   -0.5739276   -0.5097964
  -0.0027728   -0.0066714   -0.0016704   -0.6340434   -0.6575665   -0.4069341
  -0.0026121   -0.0069795   -0.0015291   -0.6183401   -0.7021192   -0.3531065
  -0.0028756   -0.0066015   -0.0014914   -0.6933661   -0.7186336   -0.0530025
  -0.0032594   -0.0061487   -0.0016985   -0.6419755   -0.7566756   -0.1237314
  -0.0033887   -0.0059195   -0.0019039   -0.6814354   -0.6418697   -0.3516378
  -0.0030469   -0.0063775   -0.0016288   -0.5426911   -0.7676181   -0.3409528
  -0.0032428   -0.0061474   -0.0017827   -0.5508215   -0.7644146   -0.3350610
  -0.0028236   -0.0031423    0.0007855   -0.8779098    0.0876526    0.4707349
  -0.0027555   -0.0031612    0.0009392   -0.8670271    0.0727047    0.4929280
  -0.0027325   -0.0036257    0.0010121    0.7768174   -0.1213454    0.6179239
  -0.0030116   -0.0035544    0.0005744   -0.9381298   -0.0401025    0.3439538
  -0.0030118   -0.0035650    0.0005729   -0.9282265   -0.1053733    0.3567802
  -0.0022408   -0.0028318    0.0016953   -0.7414113   -0.0058407    0.6710255
  -0.0023951   -0.0027961    0.0014994   -0.8273067    0.0626631    0.5582446
  -0.0020822   -0.0028687    0.0018835   -0.7111195   -0.0152911    0.7029049
  -0.0027083   -0.0031747    0.0010452   -0.8549484   -0.0270041    0.5180097
  -0.0025173   -0.0027628    0.0012516   -0.8834563    0.1337913    0.4490042
  -0.0026207   -0.0027302    0.0009737   -0.9084745    0.2180291    0.3565633
  -0.0014765   -0.0025428    0.0023051   -0.5500340    0.1883402    0.8136280
  -0.0018441   -0.0024616    0.0020127   -0.6507656    0.1688028    0.7402768
  -0.0004782   -0.0027511    0.0029077   -0.4738988    0.2679664    0.8388170
   0.0000814   -0.0033263    0.0032604   -0.2681799    0.0083800    0.9633324
   0.0005679   -0.0034721    0.0033498   -0.0220685   -0.0276618    0.9993737
   0.0003132   -0.0033702    0.0033288   -0.1513899    0.0450516    0.9874469
  -0.0002824   -0.0027920    0.0030342   -0.4166861    0.2352025    0.8780960
  -0.0000280   -0.0028432    0.0031442   -0.2951744    0.3047886    0.9055253
  -0.0007549   -0.0022278    0.0025370   -0.3647719    0.4042997    0.8387391
  -0.0009654   -0.0021846    0.0024346   -0.4085662    0.3839266    0.8280544
  -0.0013601   -0.0021026    0.0021859   -0.4923774    0.3894054    0.7784137
  -0.0005440   -0.0022715    0.0026383   -0.3617257    0.4339519    0.8251305
  -0.0018038   -0.0096561   -0.0006785   -0.3843866   -0.2877397   -0.8771846
  -0.0015285   -0.0083139   -0.0011778    0.0321026   -0.3839655   -0.9227892
  -0.0011743   -0.0079184   -0.0012548    0.2569952   -0.3165675   -0.9130928
  -0.0006339   -0.0074970   -0.0012162    0.3661634   -0.1724082   -0.9144396
  -0.0005340   -0.0071195   -0.0013184    0.3939513   -0.2570930   -0.8824430
  -0.0010643   -0.0074763   -0.0014164    0.3483663   -0.2469657   -0.9042394
  -0.0002373   -0.0067194   -0.0012860    0.4318663   -0.1555110   -0.8884300
   0.0003316   -0.0072952   -0.0009481    0.3493238   -0.1126863   -0.9302014
   0.0001125   -0.0072112   -0.0010295    0.0921147   -0.1190963   -0.9886005
   0.0001923   -0.0068059   -0.0010949    0.1833469   -0.1786835   -0.9666727
   0.0010865   -0.0079111   -0.0004670    0.6215004   -0.2292456   -0.7491220
   0.0009820   -0.0074264   -0.0006720    0.4874626   -0.1368772   -0.8623485
  -0.0016942   -0.0087493   -0.0009756   -0.2167894   -0.3784969   -0.8998569
   0.0011312   -0.0083876   -0.0001626    0.6821777   -0.3368206   -0.6489880
   0.0013903   -0.0084513    0.0001937    0.7735955   -0.3942467   -0.4961044
   0.0030235   -0.0064096    0.0024981    0.2750560   -0.5104582    0.8147249
   0.0021203   -0.0072463    0.0020271    0.4727787   -0.6015748    0.6438851
   0.0024394   -0.0071819    0.0019695    0.2875291   -0.7241501    0.6268442
   0.0028761   -0.0068820    0.0022102    0.1767803   -0.5808356    0.7945934
   0.0020562   -0.0057866    0.0028164    0.0347279   -0.4750230    0.8792878
   0.0022746   -0.0056408    0.0029368    0.0362494   -0.4392363    0.8976399
   0.0029027   -0.0061016    0.0027440    0.1733485   -0.4507191    0.8756726
   0.0019051   -0.0050224    0.0031303   -0.0284650   -0.2450809    0.9690847
   0.0013712   -0.0045086    0.0032322    0.0109676   -0.2593594    0.9657186
   0.0017473   -0.0045407    0.0032227    0.1133477   -0.1272519    0.9853726
   0.0019657   -0.0054842    0.0029741   -0.0387732   -0.3935886    0.9184686
   0.0010827   -0.0039687    0.0033357    0.0325223   -0.0769234    0.9965064
   0.0013647   -0.0040201    0.0033206    0.1129031   -0.0550851    0.9920779
   0.0014193   -0.0035725    0.0033030    0.1068260    0.1196224    0.9870556
   0.0021692   -0.0073020    0.0019377    0.5513387   -0.5454135    0.6313080
   0.0023218   -0.0074195    0.0016708    0.6569142   -0.7259216    0.2037194
   0.0022682   -0.0073169    0.0018771    0.4921476   -0.6756086    0.5489478
   0.0015587   -0.0084978    0.0005600    0.8618512   -0.4596574   -0.2143073
   0.0026905   -0.0071516    0.0011126    0.7312967   -0.6503281   -0.2056174
  -0.0018586   -0.0082279   -0.0011460   -0.3459878   -0.5039332   -0.7914188
  -0.0034053   -0.0039050   -0.0001976   -0.9369878   -0.0002494    0.3493620
  -0.0033820   -0.0039135   -0.0001254   -0.9326409   -0.0281040    0.3597097
  -0.0032892   -0.0043726   -0.0000091   -0.8326423   -0.2269054    0.5051938
  -0.0032253   -0.0034912    0.0000273   -0.9346718    0.1997709    0.2940751
  -0.0031292   -0.0035224    0.0003182   -0.9118203    0.0863768    0.4014010
  -0.0036179   -0.0052693   -0.0018786   -0.9250762   -0.3464494   -0.1555853
  -0.0035262   -0.0054273   -0.0020534   -0.8233706   -0.4008904   -0.4016812
  -0.0036314   -0.0042963   -0.0007430   -0.9660106    0.0401116    0.2553716
  -0.0037075   -0.0047290   -0.0009902   -0.9600065   -0.2142417    0.1802441
  -0.0034688   -0.0038788   -0.0005424   -0.9654962    0.1950906    0.1725013
  -0.0036995   -0.0048390   -0.0012248   -0.9295352   -0.3585108    0.0862225
  -0.0037112   -0.0047057   -0.0015020   -0.9918545   -0.0866141   -0.0933949
  -0.0036756   -0.0048370   -0.0017158   -0.9697797   -0.2368830   -0.0584269
  -0.0037242   -0.0047145   -0.0012558   -0.9832675   -0.1820663    0.0060675
  -0.0036348   -0.0051577   -0.0019030   -0.9604049   -0.2352245   -0.1493043
  -0.0024455   -0.0072244   -0.0013924   -0.4907126   -0.8046934   -0.3341700
  -0.0021673   -0.0075074   -0.0014330   -0.4311983   -0.5931106   -0.6799176
  -0.0024386   -0.0072244   -0.0013982   -0.4286104   -0.7553868   -0.4956651
  -0.0025879   -0.0067236   -0.0017992   -0.4167887   -0.5698418   -0.7082143
  -0.0029240   -0.0062889   -0.0018150   -0.3756357   -0.6674124   -0.6430074
  -0.0023283   -0.0071972   -0.0015742   -0.3613090   -0.6996601   -0.6163859
  -0.0033515   -0.0056557   -0.0021664   -0.6143744   -0.4420895   -0.6535296
  -0.0032717   -0.0058779   -0.0020878   -0.4190357   -0.6391012   -0.6449486
  -0.0031016   -0.0061116   -0.0019500   -0.3010519   -0.7445050   -0.5958859
  -0.0031755   -0.0061575   -0.0018366   -0.3194557   -0.7723581   -0.5490091
  -0.0029044   -0.0031192    0.0005860   -0.9182491    0.1531733    0.3651802
  -0.0026995   -0.0027037    0.0006646   -0.9083928    0.2968462    0.2944568
  -0.0030087   -0.0035373    0.0005718   -0.9674917    0.0544069    0.2469813
  -0.0021580   -0.0023881    0.0016311   -0.7633441    0.2590686    0.5917679
  -0.0022724   -0.0023574    0.0013999   -0.8342168    0.3785249    0.4010004
  -0.0023648   -0.0022913    0.0010790   -0.8429101    0.4777926    0.2474203
  -0.0025574   -0.0024236    0.0004666   -0.8388677    0.5408618    0.0613953
  -0.0017872   -0.0022662    0.0019510   -0.6737946    0.3276839    0.6622870
  -0.0015446   -0.0020615    0.0020408   -0.5827284    0.4024898    0.7059955
  -0.0002402   -0.0026627    0.0029863   -0.3643725    0.4076803    0.8372750
  -0.0003343   -0.0023141    0.0027426   -0.3695799    0.4657369    0.8040521
   0.0001561   -0.0028808    0.0032100   -0.2321706    0.2558188    0.9384314
   0.0005820   -0.0033585    0.0033447    0.0146080    0.1289703    0.9915409
   0.0003969   -0.0029274    0.0032624   -0.0988045    0.2963349    0.9499596
   0.0002867   -0.0025303    0.0030530   -0.1142265    0.5106637    0.8521589
   0.0001079   -0.0023672    0.0029184   -0.2019613    0.5583345    0.8046578
  -0.0008229   -0.0018365    0.0022582   -0.2420896    0.6221992    0.7444869
  -0.0006380   -0.0019487    0.0023905   -0.2058008    0.6381566    0.7418909
  -0.0010128   -0.0017593    0.0021274   -0.3745559    0.6310649    0.6793121
  -0.0014107   -0.0017497    0.0018726   -0.5165889    0.6616701    0.5434415
  -0.0004527   -0.0020631    0.0025228   -0.2241183    0.6474711    0.7283901
  -0.0018723   -0.0076328   -0.0014820   -0.1356019   -0.4885222   -0.8619502
  -0.0016615   -0.0078241   -0.0014036    0.1672039   -0.3846113   -0.9078089
  -0.0008133   -0.0073357   -0.0013507    0.4080172   -0.2789033   -0.8693302
  -0.0011593   -0.0062146   -0.0019650    0.4028219   -0.3154850   -0.8591878
  -0.0000709   -0.0058304   -0.0014149    0.4478713   -0.1118567   -0.8870735
  -0.0000094   -0.0067670   -0.0011628    0.3637841   -0.1533043   -0.9187812
   0.0003832   -0.0059438   -0.0012688    0.2897292   -0.1206803   -0.9494700
   0.0005076   -0.0064068   -0.0010922    0.4087230   -0.1409594   -0.9017072
   0.0018594   -0.0076026    0.0001330    0.6760263   -0.2683252   -0.6862871
   0.0015734   -0.0080234    0.0000789    0.7258825   -0.3143737   -0.6117710
   0.0014286   -0.0070609   -0.0004359    0.5766279   -0.1997816   -0.7922042
   0.0011298   -0.0065363   -0.0007702    0.4481065   -0.1151777   -0.8865296
   0.0021315   -0.0077241    0.0005749    0.7887697   -0.3833264   -0.4805239
   0.0031869   -0.0068842    0.0021556    0.4492458   -0.5463300    0.7068959
   0.0031551   -0.0065870    0.0023512    0.5023587   -0.3637431    0.7844276
   0.0030123   -0.0061193    0.0027077    0.4101890   -0.3334968    0.8488374
   0.0032047   -0.0061495    0.0025812    0.5985724   -0.2799186    0.7505709
   0.0025427   -0.0072458    0.0017902    0.4402658   -0.8448128    0.3040679
   0.0027529   -0.0071625    0.0019136    0.3327556   -0.8665015    0.3720872
   0.0029243   -0.0069906    0.0021143    0.2095939   -0.6986393    0.6840859
   0.0030388   -0.0070106    0.0020769    0.3787024   -0.7413084    0.5541176
   0.0028718   -0.0058390    0.0028362    0.2501569   -0.2449105    0.9367179
   0.0026555   -0.0056070    0.0029225    0.1605398   -0.2180847    0.9626350
   0.0023577   -0.0055561    0.0029798    0.1821000   -0.2710768    0.9451756
   0.0022669   -0.0050884    0.0031163    0.1769075   -0.1262885    0.9760917
   0.0022562   -0.0046297    0.0031282    0.2719320    0.0275512    0.9619220
   0.0021334   -0.0041538    0.0031674    0.4095271    0.1039482    0.9063566
   0.0019671   -0.0041259    0.0032266    0.2825525    0.0556885    0.9576340
   0.0016124   -0.0036056    0.0032726    0.2233395    0.2000758    0.9539859
   0.0009196   -0.0030228    0.0032647    0.1055033    0.3465030    0.9320969
   0.0012530   -0.0030814    0.0032311    0.1532802    0.3276934    0.9322672
   0.0015636   -0.0031366    0.0031829    0.2608384    0.3251281    0.9089857
   0.0024910   -0.0073421    0.0015160    0.5574468   -0.8300489   -0.0164897
   0.0024091   -0.0073361    0.0017164    0.5755503   -0.7535660    0.3176162
   0.0030206   -0.0064891    0.0006799    0.8025577   -0.3503831   -0.4828383
   0.0030542   -0.0067306    0.0010390    0.7532165   -0.4999535   -0.4274474
   0.0026555   -0.0072376    0.0016079    0.5789379   -0.8152211    0.0156698
   0.0029926   -0.0070344    0.0015438    0.6261662   -0.7377506   -0.2522696
   0.0031285   -0.0068399    0.0013530    0.7488589   -0.5492259   -0.3708925
  -0.0032589   -0.0034293   -0.0003607   -0.9495498    0.2880135    0.1241105
  -0.0030466   -0.0030552   -0.0002723   -0.9227712    0.3728017    0.0975309
  -0.0029265   -0.0031102    0.0005068   -0.9370208    0.2303545    0.2625429
  -0.0035606   -0.0051630   -0.0021082   -0.8770650   -0.2351531   -0.4188795
  -0.0034352   -0.0051773   -0.0022802   -0.7263893   -0.2373160   -0.6450114
  -0.0034930   -0.0038561   -0.0009518   -0.9436493    0.3262732    0.0554246
  -0.0036859   -0.0042732   -0.0010340   -0.9861205    0.1443007    0.0821197
  -0.0034888   -0.0038684   -0.0007055   -0.9471215    0.3204068    0.0173272
  -0.0037223   -0.0047171   -0.0011677   -0.9786601   -0.1933077    0.0696892
  -0.0036828   -0.0042692   -0.0011610   -0.9944513    0.1000445    0.0325214
  -0.0030144   -0.0030413   -0.0006965   -0.9126454    0.4080166   -0.0245128
  -0.0036806   -0.0047007   -0.0017363   -0.9867322   -0.0256226   -0.1603219
  -0.0036359   -0.0045239   -0.0017301   -0.9745768    0.1009077   -0.2000444
  -0.0035769   -0.0042640   -0.0017247   -0.9438312    0.2392884   -0.2278678
  -0.0036791   -0.0042645   -0.0012836   -0.9898094    0.1137735   -0.0856323
  -0.0036335   -0.0046992   -0.0019599   -0.9484670   -0.0258197   -0.3158221
  -0.0020361   -0.0072890   -0.0016296   -0.1841129   -0.5339385   -0.8252346
  -0.0020300   -0.0073012   -0.0016242   -0.1447648   -0.5042219   -0.8513539
  -0.0023526   -0.0066927   -0.0019061   -0.2004852   -0.5130353   -0.8346259
  -0.0027704   -0.0062267   -0.0019776   -0.4580995   -0.5291345   -0.7142559
  -0.0023160   -0.0067701   -0.0018732   -0.1590665   -0.5277720   -0.8343587
  -0.0028551   -0.0062138   -0.0019157   -0.3735004   -0.6208675   -0.6892177
  -0.0030209   -0.0061834   -0.0018899   -0.1734404   -0.7725622   -0.6107913
  -0.0031535   -0.0056857   -0.0022897   -0.3075547   -0.5038657   -0.8071737
  -0.0032981   -0.0051985   -0.0023888   -0.6070236   -0.2036568   -0.7681447
  -0.0032599   -0.0052038   -0.0024179   -0.5085217   -0.2668742   -0.8186476
  -0.0029721   -0.0059723   -0.0021384   -0.1945200   -0.6868360   -0.7002987
  -0.0027957   -0.0061530   -0.0020028   -0.2775464   -0.6921355   -0.6662705
  -0.0027555   -0.0026763    0.0002969   -0.8937089    0.4298716    0.1284317
  -0.0018387   -0.0019771    0.0016286   -0.7503262    0.5370363    0.3854900
  -0.0019571   -0.0019532    0.0012968   -0.7547380    0.6258905    0.1965490
  -0.0019723   -0.0019392    0.0010322   -0.6222400    0.7803675   -0.0619998
  -0.0022270   -0.0020812    0.0008876   -0.6805580    0.7326434   -0.0086260
  -0.0024214   -0.0023003    0.0007169   -0.8248377    0.5614163    0.0667431
  -0.0026618   -0.0025533    0.0001634   -0.6976121    0.6954200   -0.1724194
  -0.0024397   -0.0023761    0.0002825   -0.4099049    0.8000470   -0.4380671
  -0.0024221   -0.0022911    0.0005363   -0.7027905    0.6916901   -0.1662837
  -0.0017113   -0.0020226    0.0018668   -0.6992705    0.4152111    0.5819111
  -0.0016188   -0.0018174    0.0017485   -0.6350174    0.6516543    0.4148488
  -0.0001280   -0.0023564    0.0028520   -0.3155548    0.5032045    0.8044939
  -0.0002652   -0.0021619    0.0026545   -0.2548605    0.6528744    0.7133030
   0.0006608   -0.0029760    0.0032774    0.0316291    0.3442320    0.9383517
   0.0004568   -0.0027684    0.0031906   -0.0112983    0.4979429    0.8671362
   0.0004286   -0.0022911    0.0028599    0.0566001    0.7314203    0.6795739
   0.0005833   -0.0024913    0.0029834    0.1081247    0.6407802    0.7600722
  -0.0000770   -0.0022488    0.0027856   -0.2191331    0.6617653    0.7169709
   0.0002452   -0.0021610    0.0027268   -0.0234960    0.8240169    0.5660778
  -0.0005195   -0.0018012    0.0022210   -0.0749583    0.7306432    0.6786323
  -0.0007633   -0.0017545    0.0021735   -0.1734094    0.7195336    0.6724586
  -0.0003202   -0.0018982    0.0023334    0.0030506    0.8626024    0.5058732
  -0.0008776   -0.0015707    0.0019369   -0.2554110    0.9068628    0.3352090
  -0.0011564   -0.0016716    0.0019225   -0.4361903    0.7849821    0.4399332
  -0.0012836   -0.0016379    0.0016868   -0.4424454    0.8736149    0.2025810
  -0.0001322   -0.0019911    0.0024647   -0.0455307    0.8764702    0.4792983
  -0.0017119   -0.0072446   -0.0016816    0.0881500   -0.4155062   -0.9053089
  -0.0011915   -0.0055887   -0.0022646    0.5360714   -0.1477568   -0.8311410
  -0.0018748   -0.0069562   -0.0018220    0.0650891   -0.4403047   -0.8954860
  -0.0016972   -0.0064330   -0.0020276    0.2832398   -0.4536829   -0.8449539
  -0.0013059   -0.0060304   -0.0021493    0.4248124   -0.3721963   -0.8252298
  -0.0011396   -0.0051414   -0.0022781    0.5481904    0.1045671   -0.8297909
   0.0002500   -0.0049795   -0.0013496    0.3525908   -0.0280391   -0.9353574
  -0.0005601   -0.0048109   -0.0018126    0.5045597    0.1042435   -0.8570606
   0.0006111   -0.0059658   -0.0011911    0.4751768   -0.1333295   -0.8697300
   0.0007181   -0.0050711   -0.0012228    0.4312496   -0.0328491   -0.9016344
   0.0009231   -0.0064124   -0.0008661    0.4396367   -0.0554199   -0.8964643
   0.0007414   -0.0062705   -0.0009997    0.5619957   -0.1226304   -0.8179991
   0.0021612   -0.0072213    0.0001541    0.6702098   -0.3168008   -0.6711603
   0.0017106   -0.0066585   -0.0003791    0.4752229   -0.2886011   -0.8311874
   0.0012852   -0.0056456   -0.0008812    0.4161051   -0.0117229   -0.9092410
   0.0018897   -0.0059608   -0.0005596    0.4009816   -0.1900707   -0.8961512
   0.0023458   -0.0067962    0.0000890    0.7724075   -0.2809387   -0.5696140
   0.0028777   -0.0064531    0.0004664    0.7603699   -0.2357018   -0.6052125
   0.0027241   -0.0064156    0.0002706    0.7332996   -0.2497409   -0.6323774
   0.0032947   -0.0069171    0.0019749    0.7653827   -0.6197884    0.1733544
   0.0033493   -0.0066158    0.0022250    0.7548263   -0.2756052    0.5952134
   0.0034416   -0.0061811    0.0023050    0.7665633   -0.1468038    0.6251635
   0.0031729   -0.0056952    0.0027571    0.5549605   -0.0152921    0.8317361
   0.0032853   -0.0059131    0.0026029    0.7522934   -0.1325574    0.6453551
   0.0032523   -0.0057068    0.0026892    0.6465389   -0.0182544    0.7626626
   0.0028656   -0.0071564    0.0017312    0.4868591   -0.8733190   -0.0167987
   0.0030749   -0.0070787    0.0018550    0.5822718   -0.8128930    0.0128289
   0.0028556   -0.0056429    0.0028937    0.3118644   -0.0603649    0.9482071
   0.0027541   -0.0051686    0.0029303    0.3688407    0.0736935    0.9265667
   0.0025281   -0.0051333    0.0030354    0.3971682   -0.0065745    0.9177223
   0.0023322   -0.0046430    0.0031021    0.4261249    0.1161316    0.8971795
   0.0023480   -0.0041669    0.0030523    0.5107357    0.2409444    0.8252847
   0.0021299   -0.0036937    0.0031075    0.4552283    0.2531181    0.8536383
   0.0023150   -0.0037216    0.0029756    0.6005363    0.3639227    0.7119806
   0.0018925   -0.0036547    0.0032045    0.3341296    0.2526545    0.9080325
   0.0018344   -0.0032989    0.0031228    0.3776311    0.5015740    0.7783433
   0.0017968   -0.0031743    0.0030830    0.4268960    0.5030574    0.7514606
   0.0012431   -0.0030517    0.0032211    0.1464837    0.4754629    0.8674546
   0.0010819   -0.0027473    0.0030803    0.1429381    0.6585283    0.7388566
   0.0007736   -0.0027236    0.0031337    0.0931012    0.6003367    0.7943098
   0.0015488   -0.0030929    0.0031683    0.2692771    0.5184570    0.8115985
   0.0032646   -0.0065557    0.0011761    0.8414417   -0.3312436   -0.4269116
   0.0031234   -0.0060473    0.0005829    0.8047077   -0.0761358   -0.5887689
   0.0032328   -0.0062018    0.0008328    0.8372183   -0.2117591   -0.5042059
   0.0032031   -0.0069470    0.0016670    0.7437347   -0.6052103   -0.2838647
   0.0031299   -0.0070126    0.0017757    0.6687198   -0.7183402   -0.1918364
   0.0033766   -0.0065878    0.0014413    0.8423565   -0.3823044   -0.3798406
  -0.0028980   -0.0028442    0.0000492   -0.9038770    0.4206546    0.0778201
  -0.0030035   -0.0029858   -0.0002536   -0.8405988    0.5406045   -0.0337703
  -0.0028719   -0.0028267   -0.0004428   -0.7365213    0.6715699   -0.0808095
  -0.0035366   -0.0047080   -0.0021503   -0.8362844    0.0399621   -0.5468377
  -0.0034011   -0.0047255   -0.0023148   -0.6803482    0.0162786   -0.7327082
  -0.0034769   -0.0038482   -0.0012069   -0.9173158    0.3873025   -0.0923502
  -0.0029452   -0.0030433   -0.0009688   -0.8311042    0.5089732   -0.2240804
  -0.0030087   -0.0030415   -0.0007562   -0.8811716    0.4394563   -0.1743981
  -0.0036077   -0.0041066   -0.0012577   -0.9383187    0.3284810   -0.1079732
  -0.0029814   -0.0029996   -0.0007442   -0.7764366    0.6076466   -0.1670684
  -0.0035059   -0.0042682   -0.0019321   -0.9027150    0.2213269   -0.3689443
  -0.0034880   -0.0042356   -0.0019253   -0.7951647    0.4327322   -0.4248011
  -0.0033488   -0.0038277   -0.0016345   -0.8436505    0.4427746   -0.3036519
  -0.0026691   -0.0060350   -0.0021902   -0.2571089   -0.5935064   -0.7626567
  -0.0024704   -0.0062750   -0.0020997   -0.1513296   -0.5244869   -0.8378621
  -0.0020391   -0.0066774   -0.0019618    0.0687638   -0.4815751   -0.8737030
  -0.0020580   -0.0061257   -0.0022958    0.0220640   -0.4932078   -0.8696317
  -0.0026859   -0.0054697   -0.0025249   -0.1220461   -0.4017373   -0.9075858
  -0.0022246   -0.0058646   -0.0024348   -0.0763113   -0.4754937   -0.8764031
  -0.0030290   -0.0052427   -0.0025188   -0.3489790   -0.2216428   -0.9105427
  -0.0029916   -0.0054265   -0.0024724   -0.2444674   -0.3790216   -0.8925124
  -0.0032167   -0.0047551   -0.0024464   -0.5134891    0.0143154   -0.8579767
  -0.0027634   -0.0026666    0.0001124   -0.7897962    0.6092077   -0.0713297
  -0.0019200   -0.0019247    0.0013170   -0.6917818    0.7071093    0.1464046
  -0.0017025   -0.0017806    0.0014378   -0.5853823    0.8034289    0.1087634
  -0.0014913   -0.0016895    0.0015608   -0.4901130    0.8686687    0.0721388
  -0.0017950   -0.0018205    0.0011302   -0.5336554    0.8371749   -0.1197922
  -0.0018642   -0.0019516    0.0008497   -0.3006641    0.8573516   -0.4177910
  -0.0016873   -0.0018513    0.0009497   -0.2054548    0.8245476   -0.5271713
  -0.0023302   -0.0022032    0.0005838   -0.6757110    0.7091082   -0.2014454
  -0.0021125   -0.0020570    0.0007045   -0.3856043    0.8518628   -0.3544560
  -0.0025477   -0.0025373   -0.0000196   -0.4281966    0.8309106   -0.3552961
  -0.0023371   -0.0024500    0.0001037   -0.2241702    0.8665633   -0.4458875
  -0.0022234   -0.0022438    0.0004037   -0.2626397    0.7741051   -0.5760049
  -0.0021896   -0.0023246    0.0003354   -0.0037211    0.7084018   -0.7057996
  -0.0021326   -0.0024077    0.0002291   -0.0091957    0.8469367   -0.5316142
   0.0000573   -0.0020702    0.0025955   -0.0673763    0.8699030    0.4885991
   0.0005499   -0.0022142    0.0026745    0.2409006    0.9187935    0.3127065
   0.0007317   -0.0023580    0.0028081    0.2773828    0.8183618    0.5033316
   0.0008793   -0.0025435    0.0029256    0.2804720    0.7354576    0.6167962
   0.0003635   -0.0021096    0.0025425    0.1835825    0.9679173    0.1715622
  -0.0004704   -0.0018096    0.0022265    0.0838314    0.8367162    0.5411824
  -0.0005049   -0.0017798    0.0022010    0.1024163    0.8088436    0.5790362
  -0.0006873   -0.0016440    0.0020674   -0.0019980    0.8406652    0.5415515
  -0.0002311   -0.0018493    0.0021309    0.3017767    0.9349842    0.1863744
  -0.0000162   -0.0019551    0.0022812    0.2075921    0.9723949    0.1065532
  -0.0012799   -0.0016371    0.0016772   -0.3460507    0.9379265   -0.0232983
  -0.0009646   -0.0015613    0.0016274   -0.0721384    0.9454641   -0.3176377
  -0.0005715   -0.0016121    0.0018840    0.2612960    0.9598943   -0.1016235
   0.0001735   -0.0020343    0.0024119    0.1703681    0.9795333    0.1071878
  -0.0013887   -0.0055467   -0.0023889    0.4174247   -0.1667000   -0.8932904
  -0.0013364   -0.0050996   -0.0024029    0.4588263    0.0808848   -0.8848368
  -0.0017181   -0.0058969   -0.0023610    0.2560087   -0.4214035   -0.8699877
  -0.0015172   -0.0059865   -0.0022501    0.3380162   -0.3895185   -0.8567499
  -0.0013457   -0.0046453   -0.0023153    0.3828438    0.2730334   -0.8825437
  -0.0004910   -0.0039117   -0.0017811    0.3652608    0.0649368   -0.9286376
  -0.0002276   -0.0035085   -0.0016944    0.2994503    0.1253061   -0.9458477
  -0.0011456   -0.0045182   -0.0021689    0.3400560    0.2484229   -0.9069994
  -0.0009493   -0.0042749   -0.0019974    0.4583910    0.1367402   -0.8781684
   0.0010274   -0.0037642   -0.0010653    0.4738124    0.0753774   -0.8773939
   0.0014236   -0.0038473   -0.0008195    0.5298264    0.0844046   -0.8438956
   0.0017693   -0.0043790   -0.0005629    0.5456510    0.0832542   -0.8338667
   0.0022919   -0.0067832    0.0000105    0.6394170   -0.3059878   -0.7053491
   0.0022438   -0.0063039   -0.0002868    0.6275982   -0.2392936   -0.7408502
   0.0020550   -0.0062339   -0.0004199    0.4484097   -0.2156788   -0.8674165
   0.0021444   -0.0055210   -0.0004521    0.5229923    0.1566192   -0.8378242
   0.0021328   -0.0058185   -0.0004805    0.4694993   -0.0348350   -0.8822454
   0.0029680   -0.0060214    0.0003882    0.7505073   -0.1149549   -0.6507873
   0.0029735   -0.0060109    0.0003908    0.7317251   -0.0760988   -0.6773384
   0.0026640   -0.0059360   -0.0000076    0.7027644   -0.0682924   -0.7081372
   0.0028253   -0.0059749    0.0001754    0.7742783   -0.0538618   -0.6305490
   0.0034303   -0.0067265    0.0017844    0.8886293   -0.4286221   -0.1631596
   0.0034628   -0.0066300    0.0020463    0.9208837   -0.2967838    0.2527699
   0.0034711   -0.0062135    0.0022524    0.8691102   -0.0892343    0.4865025
   0.0035710   -0.0061928    0.0020602    0.9489360   -0.0697435    0.3076625
   0.0035504   -0.0057403    0.0022434    0.8973469    0.0271999    0.4404868
   0.0029827   -0.0052068    0.0028280    0.4845415    0.2090036    0.8494334
   0.0033490   -0.0052612    0.0025615    0.6994570    0.2844352    0.6556344
   0.0033407   -0.0054726    0.0025828    0.7548490    0.1684582    0.6338965
   0.0033401   -0.0057191    0.0026136    0.8009459    0.0545334    0.5962481
   0.0027528   -0.0047093    0.0028718    0.5598160    0.2538367    0.7887794
   0.0029652   -0.0050949    0.0028027    0.5276819    0.2948631    0.7966226
   0.0025368   -0.0042164    0.0029260    0.5898506    0.2603230    0.7644005
   0.0024569   -0.0037412    0.0028156    0.6851109    0.5178812    0.5122715
   0.0024952   -0.0038824    0.0028574    0.6376304    0.4587247    0.6188693
   0.0021100   -0.0035853    0.0030807    0.4998649    0.4575096    0.7354047
   0.0022336   -0.0034865    0.0028945    0.6133868    0.6717035    0.4154168
   0.0019399   -0.0031943    0.0029236    0.6195754    0.7776584    0.1066474
   0.0019572   -0.0032103    0.0029366    0.5237523    0.8144561    0.2496893
   0.0016777   -0.0029594    0.0029801    0.4882540    0.7891121    0.3727064
   0.0013868   -0.0027965    0.0030277    0.2764668    0.7566104    0.5925427
   0.0009045   -0.0025703    0.0029449    0.1967008    0.8039592    0.5612115
   0.0012053   -0.0026528    0.0028940    0.2935843    0.9167548    0.2708670
   0.0035012   -0.0061473    0.0013088    0.9121067   -0.1575673   -0.3784626
   0.0034662   -0.0061371    0.0012269    0.9031277   -0.1008739   -0.4173546
   0.0033903   -0.0061158    0.0010420    0.8656655   -0.1065104   -0.4891614
   0.0033019   -0.0056330    0.0008061    0.7991938    0.1240775   -0.5881275
   0.0029716   -0.0059919    0.0003870    0.7579709    0.0483224   -0.6504960
   0.0033942   -0.0065934    0.0014916    0.8911034   -0.3130212   -0.3285610
  -0.0027685   -0.0027047   -0.0001392   -0.7623830    0.6268449   -0.1607411
  -0.0026553   -0.0026925   -0.0003216   -0.4168611    0.8637754   -0.2830529
  -0.0027564   -0.0027948   -0.0006263   -0.4393365    0.8736616   -0.2090424
  -0.0025485   -0.0027331   -0.0005019   -0.2281754    0.9464589   -0.2283671
  -0.0032574   -0.0042978   -0.0022767   -0.6390106    0.2830635   -0.7152206
  -0.0029847   -0.0032150   -0.0012258   -0.7097747    0.6002850   -0.3686160
  -0.0028482   -0.0030522   -0.0011592   -0.6639569    0.5964500   -0.4510084
  -0.0028619   -0.0029363   -0.0009291   -0.6672242    0.6987221   -0.2580683
  -0.0027507   -0.0029417   -0.0011109   -0.5185718    0.7492909   -0.4118816
  -0.0026461   -0.0028059   -0.0008076   -0.3354288    0.9152790   -0.2230513
  -0.0030116   -0.0038900   -0.0021714   -0.6382136    0.4909427   -0.5930082
  -0.0028906   -0.0035455   -0.0018841   -0.5825732    0.5786271   -0.5707882
  -0.0018870   -0.0056552   -0.0024992    0.1601910   -0.3480514   -0.9236877
  -0.0020798   -0.0054111   -0.0025980    0.0864908   -0.2238502   -0.9707783
  -0.0029358   -0.0052581   -0.0025363   -0.1739810   -0.1955336   -0.9651410
  -0.0023471   -0.0053621   -0.0026075   -0.0783649   -0.2216152   -0.9719803
  -0.0029881   -0.0047913   -0.0025497   -0.3162337    0.0486474   -0.9474332
  -0.0027200   -0.0026657   -0.0001128   -0.5686739    0.7871632   -0.2387136
  -0.0015846   -0.0017311    0.0012535   -0.3720879    0.9164456   -0.1472346
  -0.0013789   -0.0016830    0.0013785   -0.2487498    0.9403240   -0.2321944
  -0.0012051   -0.0016427    0.0014842   -0.2414919    0.9332496   -0.2659453
  -0.0014792   -0.0017836    0.0010738   -0.0859626    0.8781482   -0.4706020
  -0.0018032   -0.0020751    0.0006505   -0.0375285    0.8015819   -0.5967060
  -0.0016198   -0.0019934    0.0008172    0.0451718    0.7569487   -0.6519111
  -0.0013929   -0.0019826    0.0009009    0.2154450    0.7055793   -0.6750862
  -0.0024461   -0.0026150   -0.0001981   -0.1182325    0.8799483   -0.4601219
  -0.0022424   -0.0025825   -0.0000722    0.0316007    0.8396788   -0.5421632
  -0.0017159   -0.0022704    0.0004773    0.1418496    0.6717093   -0.7271075
  -0.0016743   -0.0024212    0.0003852    0.1655847    0.7555149   -0.6338603
