NORM_ASCII
1851 3698
   0.0015136    0.0049855    0.0040581    0.6968188    0.5896079    0.4084190
   0.0010163    0.0014584    0.0068310    0.6201523    0.5022811    0.6025984
   0.0009538    0.0014508    0.0068873    0.5422933    0.5574042    0.6286640
   0.0016650    0.0028246    0.0054942    0.6950162    0.3756464    0.6130597
   0.0019191    0.0022299    0.0054034    0.6489647    0.4436700    0.6180629
   0.0011070    0.0012256    0.0069221    0.9227469    0.2630627    0.2816668
   0.0011070    0.0012256    0.0069221    0.8676177    0.3154263    0.3843772
  -0.0064701    0.0066305    0.0075795   -0.8018450    0.4412684    0.4028980
  -0.0059571    0.0068185    0.0078507   -0.4095130    0.6784122    0.6099639
  -0.0060017    0.0011391    0.0058031   -0.5654382   -0.7297007   -0.3844692
  -0.0055794    0.0007511    0.0058426   -0.4873357   -0.7220867   -0.4910140
  -0.0066246    0.0021362    0.0052780   -0.7017676   -0.6361384   -0.3207027
  -0.0062564    0.0015326    0.0055909   -0.5999180   -0.7124446   -0.3640344
  -0.0070411    0.0034564    0.0053124   -0.9530737   -0.2718985   -0.1331228
  -0.0069498    0.0060068    0.0064241   -0.9976181   -0.0162992    0.0670256
  -0.0069496    0.0058393    0.0058195   -0.9952495   -0.0745679   -0.0625946
  -0.0069243    0.0058918    0.0069523   -0.9824361    0.0485849    0.1801632
  -0.0070527    0.0036201    0.0052788   -0.9752229   -0.1788040   -0.1302667
  -0.0069531    0.0040597    0.0047684   -0.9797586   -0.1221616   -0.1585863
  -0.0069262    0.0031272    0.0049389   -0.8996668   -0.3562478   -0.2523631
  -0.0007782   -0.0036130    0.0070470    0.7548635   -0.4873100    0.4389877
  -0.0016424   -0.0043732    0.0072574    0.6533506   -0.6427907    0.3999414
  -0.0014680   -0.0044249    0.0068719    0.6970748   -0.6868227    0.2058187
  -0.0020264   -0.0044486    0.0075429    0.5836450   -0.6536026    0.4818321
  -0.0011120   -0.0040622    0.0070169    0.7509079   -0.5826191    0.3109539
  -0.0022404   -0.0043271    0.0078935    0.5442318   -0.5852608    0.6010670
   0.0002274   -0.0029370    0.0066131    0.7172509   -0.6017973    0.3512707
   0.0020397   -0.0021331    0.0055466    0.7040471   -0.4373212    0.5595246
   0.0006226   -0.0028162    0.0062014    0.6480311   -0.6766564    0.3495595
   0.0012892   -0.0023134    0.0061328    0.6445302   -0.6269179    0.4376697
   0.0011302   -0.0027683    0.0056222    0.6271187   -0.7017343    0.3380697
   0.0020738   -0.0024343    0.0051217    0.5818824   -0.6605146    0.4744822
   0.0029062    0.0002768    0.0057127    0.6885553    0.2179774    0.6916484
   0.0023094    0.0005602    0.0062428    0.6625033    0.2429742    0.7085569
   0.0019465    0.0008194    0.0064848    0.5419170    0.2957380    0.7866798
   0.0018816    0.0010774    0.0064045    0.5398986    0.5481833    0.6387524
   0.0015582    0.0017250    0.0061100    0.5377172    0.5942227    0.5981301
   0.0014485    0.0012671    0.0066175    0.4988079    0.5771069    0.6466361
   0.0031564   -0.0003719    0.0054030    0.7634453   -0.0750981    0.6414917
   0.0033847   -0.0005253    0.0050656    0.7881513   -0.0884613    0.6090912
   0.0032376   -0.0014925    0.0046475    0.7428587   -0.3406078    0.5763222
   0.0029490    0.0002383    0.0056763    0.7299182    0.1778526    0.6599909
  -0.0026167   -0.0040455    0.0083736    0.4740744   -0.5251839    0.7067074
  -0.0031304   -0.0042569    0.0083577    0.1049718   -0.7852398    0.6102289
  -0.0026632   -0.0043311    0.0081449    0.3883503   -0.7107749    0.5865008
  -0.0028789   -0.0044465    0.0080398    0.1470556   -0.8540677    0.4989419
  -0.0046669   -0.0007560    0.0063944   -0.5127390   -0.5714966   -0.6406953
  -0.0043400   -0.0017047    0.0067408   -0.5272975   -0.5658942   -0.6338147
  -0.0042200   -0.0021370    0.0070399   -0.5141506   -0.6636714   -0.5433133
  -0.0045520   -0.0002761    0.0058861   -0.5148158   -0.6073936   -0.6050104
  -0.0050921    0.0008023    0.0053950   -0.4254016   -0.7242914   -0.5426191
  -0.0046549    0.0006167    0.0051836   -0.4905998   -0.6921343   -0.5293977
  -0.0038167    0.0003897    0.0044778   -0.5564665   -0.6503761   -0.5170648
  -0.0038707   -0.0027591    0.0073447   -0.6140208   -0.5807736   -0.5344909
  -0.0040124   -0.0023483    0.0070369   -0.5843962   -0.6480157   -0.4884227
  -0.0039697   -0.0032593    0.0077075   -0.6969966   -0.3354861   -0.6337545
  -0.0043345   -0.0033932    0.0085084   -0.7454621   -0.6588725    0.1008629
  -0.0041831   -0.0035382    0.0081255   -0.7836883   -0.5686410   -0.2499601
  -0.0039715   -0.0036247    0.0077672   -0.7765621   -0.3547467   -0.5206784
  -0.0034268   -0.0039867    0.0086367   -0.0123231   -0.7409082    0.6714933
  -0.0040619   -0.0036144    0.0087024   -0.4185573   -0.7895457    0.4488067
  -0.0039244   -0.0039277    0.0083394   -0.5530092   -0.8005944    0.2307150
  -0.0036949   -0.0040085    0.0084854   -0.3712844   -0.8317370    0.4127488
  -0.0041765   -0.0035590    0.0086273   -0.6117725   -0.7473948    0.2591050
  -0.0067453    0.0061200    0.0075119   -0.9411307    0.2335713    0.2443716
  -0.0063261    0.0069781    0.0074084   -0.6764564    0.5330213    0.5082273
  -0.0063757    0.0073039    0.0068734   -0.7258258    0.5686493    0.3870593
  -0.0061444    0.0079094    0.0059178   -0.6294072    0.7090560    0.3179405
  -0.0058399    0.0083010    0.0051986   -0.4518178    0.8355953    0.3124760
  -0.0055561    0.0084557    0.0050289   -0.3761204    0.8796381    0.2911532
  -0.0054936    0.0085773    0.0046044   -0.3669117    0.9191163    0.1435304
  -0.0049487    0.0086484    0.0046657   -0.1750728    0.9665203    0.1875847
  -0.0039509    0.0087291    0.0037446    0.0059774    0.9992691    0.0377570
  -0.0029192    0.0085589    0.0028842    0.2775026    0.9588810    0.0594935
  -0.0028420    0.0085291    0.0029339    0.1607902    0.9848330    0.0651963
  -0.0024508    0.0084315    0.0021867    0.3373611    0.9407800   -0.0334740
  -0.0017592    0.0081470    0.0026330    0.2823161    0.9587748    0.0323795
  -0.0026806    0.0084990    0.0025373    0.7589004    0.6510865    0.0125117
  -0.0003432    0.0073150    0.0030937    0.4485734    0.8762026    0.1762130
  -0.0004917    0.0075179    0.0024795    0.4051141    0.9142583    0.0037947
   0.0001505    0.0068358    0.0034584    0.5372200    0.8081887    0.2413001
   0.0004237    0.0063186    0.0040046    0.6034593    0.7429958    0.2894722
  -0.0045669    0.0087576    0.0038789   -0.1459608    0.9865634    0.0734032
   0.0019276    0.0027889    0.0051571    0.7332468    0.4411619    0.5174219
   0.0016374    0.0051341    0.0036100    0.6962554    0.6467523    0.3113516
   0.0023720    0.0030230    0.0043852    0.7355933    0.4943349    0.4631798
   0.0026282    0.0019228    0.0047161    0.6755111    0.5190678    0.5236921
   0.0021541    0.0017228    0.0054651    0.5814843    0.5817830    0.5686866
  -0.0065326    0.0069628    0.0070681   -0.8617102    0.3455547    0.3715474
  -0.0058310    0.0013348    0.0053744   -0.4727921   -0.7445980   -0.4712127
  -0.0065186    0.0022677    0.0048226   -0.6436881   -0.6710848   -0.3678463
  -0.0068458    0.0069235    0.0051837   -0.9996111    0.0278690   -0.0010253
  -0.0067175    0.0069393    0.0066908   -0.9488178    0.2112502    0.2347726
  -0.0068910    0.0064938    0.0062041   -0.9908984    0.0861361    0.1034453
  -0.0067700    0.0062268    0.0045130   -0.9668365   -0.1833114   -0.1778315
  -0.0068455    0.0036280    0.0044077   -0.9220708   -0.2914081   -0.2546897
  -0.0068554    0.0041434    0.0043160   -0.9670619   -0.1199134   -0.2245264
  -0.0065399    0.0028450    0.0042200   -0.7899868   -0.5026239   -0.3511269
  -0.0007918   -0.0038731    0.0066757    0.7646948   -0.5765990    0.2877072
  -0.0016627   -0.0045773    0.0067851    0.5910236   -0.7967878    0.1257786
  -0.0018252   -0.0045463    0.0071807    0.5764580   -0.7573145    0.3068729
  -0.0015986   -0.0045407    0.0065291    0.5373020   -0.8283363   -0.1586362
  -0.0011509   -0.0042263    0.0065211    0.6810996   -0.7321904    0.0007634
  -0.0013514   -0.0043720    0.0064361    0.6480309   -0.7496365   -0.1345398
  -0.0022143   -0.0046130    0.0074618    0.4360548   -0.7974667    0.4170169
  -0.0020266   -0.0046866    0.0070880    0.4794183   -0.8394519    0.2558880
  -0.0009541   -0.0040585    0.0065635    0.7145993   -0.6916898    0.1044654
  -0.0006480   -0.0038711    0.0062634    0.7339275   -0.6710442    0.1051192
  -0.0001863   -0.0034839    0.0060637    0.7454270   -0.6528388    0.1346854
  -0.0000222   -0.0034679    0.0055686    0.6261028   -0.7778429    0.0543660
   0.0003238   -0.0033263    0.0052500    0.5667415   -0.7984230    0.2032850
   0.0032888   -0.0028023    0.0034113    0.6559459   -0.5270909    0.5402871
   0.0022639   -0.0027523    0.0042952    0.4754375   -0.7689876    0.4273373
   0.0014509   -0.0030580    0.0043719    0.5299525   -0.7655462    0.3648142
   0.0004809   -0.0033461    0.0048495    0.4647746   -0.8704828    0.1620005
   0.0010476   -0.0031358    0.0047196    0.5264001   -0.7940775    0.3038813
   0.0025723    0.0008465    0.0058522    0.6166659    0.5013722    0.6069177
   0.0029205    0.0008382    0.0054643    0.6188264    0.4638157    0.6339787
   0.0039286   -0.0004696    0.0043811    0.8125240    0.0517476    0.5806263
   0.0035312    0.0002630    0.0050187    0.7926501    0.1680523    0.5860583
   0.0040674   -0.0009577    0.0040477    0.7713099   -0.2216621    0.5966129
   0.0034756    0.0002666    0.0050831    0.7567767    0.1164350    0.6432200
   0.0036421   -0.0017999    0.0039428    0.7247104   -0.3747751    0.5782201
   0.0032412    0.0005943    0.0052909    0.6897835    0.3431450    0.6375345
  -0.0033875   -0.0042965    0.0082163   -0.1435520   -0.8682306    0.4749404
  -0.0033280   -0.0043447    0.0081476   -0.0147750   -0.8921938    0.4514110
  -0.0027766   -0.0046463    0.0076378    0.1767497   -0.9139991    0.3651919
  -0.0032610   -0.0045074    0.0078297   -0.1793709   -0.9407076    0.2879154
  -0.0028922   -0.0046604    0.0075733   -0.0000557   -0.9634628    0.2678420
  -0.0043374   -0.0012108    0.0064040   -0.5511344   -0.5502635   -0.6272647
  -0.0040935   -0.0014344    0.0063435   -0.5253822   -0.5508663   -0.6484750
  -0.0038405   -0.0019043    0.0064420   -0.5583924   -0.5858629   -0.5873352
  -0.0036800   -0.0016445    0.0061221   -0.5580162   -0.5412583   -0.6290130
  -0.0043385   -0.0004922    0.0058699   -0.5262384   -0.5923632   -0.6100647
  -0.0052154    0.0013529    0.0047379   -0.4209646   -0.7787967   -0.4650424
  -0.0060072    0.0018644    0.0047430   -0.4428419   -0.7858223   -0.4317110
  -0.0040440    0.0009790    0.0039920   -0.5466210   -0.7327189   -0.4053745
  -0.0032153   -0.0005078    0.0046361   -0.6520106   -0.6217227   -0.4339850
  -0.0036781   -0.0006985    0.0053869   -0.5854219   -0.5850456   -0.5612511
  -0.0036927   -0.0029973    0.0073342   -0.6458633   -0.5058790   -0.5717928
  -0.0027802   -0.0033066    0.0064235   -0.6838601   -0.4489009   -0.5751724
  -0.0033425   -0.0033579    0.0070968   -0.6931640   -0.2270611   -0.6840811
  -0.0036875   -0.0036390    0.0074391   -0.7246665   -0.1829854   -0.6643604
  -0.0040723   -0.0037509    0.0082250   -0.7108583   -0.7024758   -0.0347583
  -0.0039000   -0.0038761    0.0078505   -0.7679623   -0.5865067   -0.2573788
  -0.0036821   -0.0039558    0.0074950   -0.7444101   -0.3951312   -0.5382610
  -0.0037943   -0.0040942    0.0079477   -0.6094894   -0.7918339    0.0390101
  -0.0036278   -0.0042523    0.0080700   -0.4862382   -0.8542317    0.1840127
  -0.0037733   -0.0041078    0.0079621   -0.5733985   -0.8037645    0.1586724
  -0.0065635    0.0072804    0.0065001   -0.8432847    0.4664850    0.2669508
  -0.0060446    0.0083147    0.0048010   -0.5874046    0.7939572    0.1568049
  -0.0063116    0.0080270    0.0051947   -0.7887456    0.6011313    0.1285364
  -0.0064868    0.0078479    0.0051123   -0.8784130    0.4647040    0.1115378
  -0.0055614    0.0085860    0.0038285   -0.5268869    0.8435350   -0.1041101
  -0.0053279    0.0086670    0.0039495   -0.3369041    0.9403686   -0.0469303
  -0.0043827    0.0087189    0.0030809   -0.2141645    0.9673528   -0.1355070
  -0.0037488    0.0086798    0.0028800   -0.0897803    0.9901335   -0.1075878
  -0.0029356    0.0085706    0.0023785    0.0366863    0.9976981   -0.0570315
  -0.0026806    0.0084990    0.0025373    0.8567073    0.5156982   -0.0103913
  -0.0026806    0.0084990    0.0025373    0.8482432    0.5290201   -0.0249244
  -0.0025016    0.0084414    0.0021557    0.1155057    0.9897357   -0.0841532
  -0.0022528    0.0083315    0.0018230    0.1907028    0.9746850   -0.1167114
  -0.0015817    0.0080546    0.0017618    0.3255512    0.9402401   -0.0998245
   0.0000575    0.0070933    0.0028672    0.5193837    0.8436552    0.1359651
  -0.0008760    0.0076643    0.0020333    0.3780356    0.9185578   -0.1155016
   0.0000403    0.0071310    0.0018618    0.4667845    0.8765248   -0.1175432
   0.0002362    0.0069748    0.0024956    0.5528810    0.8326061    0.0330115
   0.0006491    0.0063878    0.0033257    0.6115592    0.7622083    0.2122115
   0.0026277    0.0021517    0.0045213    0.7055550    0.4668625    0.5331337
   0.0022087    0.0048136    0.0025095    0.7415741    0.6389283    0.2045447
   0.0017297    0.0052525    0.0031488    0.6790611    0.6989649    0.2243306
   0.0030872    0.0027801    0.0033546    0.7374993    0.5690879    0.3636397
   0.0028925    0.0018575    0.0043852    0.6509482    0.5784958    0.4915375
   0.0036355    0.0017373    0.0033501    0.6931837    0.6043443    0.3927650
   0.0031791    0.0008551    0.0052116    0.5916603    0.6015737    0.5367003
  -0.0061277    0.0023865    0.0040395   -0.6000896   -0.6894409   -0.4056645
  -0.0059938    0.0021965    0.0041485   -0.4403326   -0.8074725   -0.3925498
  -0.0067050    0.0070851    0.0063570   -0.9623432    0.2339136    0.1384918
  -0.0067898    0.0071006    0.0048506   -0.9936363    0.1126295   -0.0012008
  -0.0066814    0.0073737    0.0056876   -0.9587981    0.2623279    0.1090428
  -0.0067951    0.0070515    0.0047815   -0.9934163   -0.0154266   -0.1135171
  -0.0066867    0.0059684    0.0041097   -0.9733631   -0.0771306   -0.2159055
  -0.0066747    0.0066248    0.0040073   -0.9709643   -0.1047908   -0.2150515
  -0.0065548    0.0063649    0.0036254   -0.9349810   -0.2276989   -0.2719629
  -0.0066519    0.0062998    0.0040322   -0.9338724   -0.2682284   -0.2365076
  -0.0066121    0.0038418    0.0035178   -0.9143035   -0.2648060   -0.3064750
  -0.0065243    0.0032842    0.0036614   -0.7972227   -0.5042872   -0.3318590
  -0.0066680    0.0050483    0.0037794   -0.9582024   -0.0791161   -0.2749343
  -0.0018887   -0.0046732    0.0066706    0.4343112   -0.9004064    0.0253392
  -0.0018811   -0.0046680    0.0066405    0.3754912   -0.9069091   -0.1911080
  -0.0018462   -0.0045334    0.0062656    0.1531049   -0.8383308   -0.5232211
  -0.0017418   -0.0044832    0.0062295    0.2717591   -0.8252052   -0.4951600
  -0.0015741   -0.0044750    0.0063246    0.4787776   -0.8307871   -0.2838395
  -0.0013078   -0.0042659    0.0060905    0.4700069   -0.8127521   -0.3442784
  -0.0011054   -0.0041507    0.0060464    0.4982333   -0.8371349   -0.2257627
  -0.0010491   -0.0041257    0.0060233    0.5491712   -0.8162858   -0.1791325
  -0.0015624   -0.0044077    0.0061506    0.3098481   -0.8041735   -0.5072466
  -0.0024290   -0.0047292    0.0073573    0.2944463   -0.9189876    0.2622272
  -0.0022721   -0.0047490    0.0069566    0.2746980   -0.9604222    0.0461542
  -0.0008033   -0.0039790    0.0059799    0.6201816   -0.7761069   -0.1141619
  -0.0005451   -0.0037940    0.0058158    0.6396952   -0.7657936   -0.0659564
  -0.0004855   -0.0037187    0.0054909    0.4928182   -0.8478834   -0.1955097
  -0.0004595   -0.0036849    0.0053528    0.4959850   -0.8624177   -0.1011661
  -0.0002352   -0.0035753    0.0054382    0.4976789   -0.8669245   -0.0275253
  -0.0000745   -0.0035023    0.0048350    0.4085661   -0.9127287   -0.0001919
   0.0026849   -0.0029829    0.0035876    0.4047538   -0.7612929    0.5065644
   0.0040323   -0.0016327    0.0036453    0.7575164   -0.3750839    0.5343043
   0.0034099   -0.0034965    0.0026076    0.5076117   -0.6126261    0.6058215
   0.0038414   -0.0027674    0.0027354    0.8003614   -0.3537652    0.4840163
   0.0041393   -0.0032793    0.0020032    0.8034856   -0.2453042    0.5424359
   0.0021574   -0.0032638    0.0033303    0.3068379   -0.8715993    0.3823154
   0.0014269   -0.0032568    0.0038965    0.3883375   -0.8868797    0.2502764
   0.0008641   -0.0032702    0.0045633    0.3906412   -0.9048489    0.1692569
   0.0001161   -0.0034324    0.0041590    0.1643482   -0.9839001   -0.0702155
   0.0038621    0.0004944    0.0044712    0.8216676    0.2077962    0.5307383
   0.0042016   -0.0002825    0.0040127    0.8167942    0.1545835    0.5558338
   0.0042010   -0.0001952    0.0039982    0.8164172    0.1634852    0.5538371
   0.0043940   -0.0007805    0.0037121    0.8451452   -0.0004274    0.5345366
   0.0037314    0.0008103    0.0045486    0.7247857    0.4783414    0.4958580
   0.0045158   -0.0012065    0.0033588    0.8590155   -0.1370507    0.4932641
  -0.0025772   -0.0047448    0.0072745    0.0735630   -0.9965147    0.0393316
  -0.0027069   -0.0047320    0.0071975   -0.0033659   -0.9994965    0.0315487
  -0.0034683   -0.0043893    0.0076906   -0.5253837   -0.8426697   -0.1178124
  -0.0030847   -0.0046286    0.0074569   -0.2811137   -0.9596742   -0.0006725
  -0.0025972   -0.0030990    0.0060000   -0.6387920   -0.5213856   -0.5657754
  -0.0047564    0.0015382    0.0039828   -0.4225181   -0.8120974   -0.4024628
  -0.0041892    0.0013247    0.0035900   -0.5077611   -0.7723467   -0.3816533
  -0.0034401    0.0006627    0.0034040   -0.6309197   -0.7034145   -0.3273352
  -0.0025504   -0.0006884    0.0036475   -0.7062545   -0.6229510   -0.3363579
  -0.0025740   -0.0010606    0.0041906   -0.6938073   -0.5949947   -0.4057249
  -0.0030291   -0.0035798    0.0068198   -0.7083677   -0.2085027   -0.6743455
  -0.0027465   -0.0042397    0.0065985   -0.6256733   -0.3572208   -0.6934884
  -0.0022195   -0.0038999    0.0060041   -0.5472341   -0.4868062   -0.6808484
  -0.0033919   -0.0039650    0.0071693   -0.7014583   -0.2131698   -0.6800844
  -0.0030655   -0.0040911    0.0068842   -0.6689682   -0.1391453   -0.7301508
  -0.0036154   -0.0042128    0.0075761   -0.6830251   -0.6428276   -0.3467699
  -0.0035003   -0.0042238    0.0074346   -0.6243228   -0.6466565   -0.4382425
  -0.0033624   -0.0042578    0.0072351   -0.6659868   -0.5768735   -0.4729466
  -0.0034751   -0.0043817    0.0076850   -0.5570432   -0.8156130   -0.1564558
  -0.0061030    0.0082930    0.0040592   -0.7333589    0.6744817   -0.0852011
  -0.0062691    0.0080908    0.0039972   -0.8627055    0.4935745   -0.1101063
  -0.0067100    0.0074250    0.0047145   -0.9800560    0.1941141   -0.0425434
  -0.0065476    0.0076893    0.0043979   -0.9439865    0.3055428   -0.1246320
  -0.0050976    0.0085844    0.0031073   -0.4012544    0.8957087   -0.1915743
  -0.0056903    0.0084446    0.0035346   -0.6189510    0.7396087   -0.2643457
  -0.0050574    0.0084667    0.0026556   -0.5112610    0.7993283   -0.3157317
  -0.0047764    0.0086059    0.0027941   -0.3526194    0.9026321   -0.2468093
  -0.0042288    0.0085059    0.0021378   -0.3289412    0.8916191   -0.3111479
  -0.0036228    0.0085368    0.0019875   -0.2014121    0.9443330   -0.2601316
  -0.0030271    0.0085072    0.0018415   -0.0636407    0.9731843   -0.2210480
  -0.0027174    0.0084907    0.0020231    0.2548708    0.9604431   -0.1122051
  -0.0025263    0.0083842    0.0016565    0.0921011    0.9702999   -0.2236863
  -0.0016542    0.0080100    0.0012326    0.2642462    0.9324981   -0.2462138
  -0.0009830    0.0077054    0.0016706    0.3787533    0.9161703   -0.1310645
   0.0003826    0.0068336    0.0021090    0.5622436    0.8248461   -0.0592545
  -0.0003376    0.0072514    0.0013702    0.4442220    0.8736995   -0.1982826
   0.0007336    0.0063922    0.0010797    0.4886406    0.8384627   -0.2412687
   0.0009651    0.0061920    0.0010680    0.5381379    0.8124069   -0.2245054
   0.0013775    0.0058998    0.0023437    0.6444164    0.7589899    0.0930689
   0.0012249    0.0060985    0.0017279    0.5747428    0.8138922   -0.0851481
   0.0031010    0.0031430    0.0028077    0.7544204    0.5894366    0.2888155
   0.0021001    0.0050524    0.0019059    0.6922719    0.7211556    0.0263479
   0.0026726    0.0041695    0.0021176    0.7598330    0.6224972    0.1874858
   0.0030673    0.0038368    0.0011894    0.6824780    0.7306574    0.0190674
   0.0026651    0.0043794    0.0013616    0.6974326    0.7165921   -0.0091389
   0.0036352    0.0013876    0.0039026    0.5927316    0.6927066    0.4108855
   0.0038859    0.0020393    0.0024553    0.7121986    0.6269476    0.3157687
   0.0040998    0.0010966    0.0035036    0.6677356    0.6319098    0.3934707
  -0.0050388    0.0022809    0.0027070   -0.4468361   -0.8396019   -0.3088788
  -0.0060012    0.0025380    0.0035925   -0.5571435   -0.7574069   -0.3404789
  -0.0041851    0.0014738    0.0032702   -0.4868541   -0.8185806   -0.3047931
  -0.0065909    0.0073519    0.0039347   -0.9756196    0.1042504   -0.1931275
  -0.0065689    0.0061122    0.0036591   -0.9620171   -0.0944572   -0.2561268
  -0.0064953    0.0072561    0.0035112   -0.9593284    0.0069597   -0.2822068
  -0.0062904    0.0059134    0.0028639   -0.9385209   -0.1429205   -0.3142487
  -0.0064039    0.0068531    0.0031362   -0.9456123   -0.0846952   -0.3140765
  -0.0062617    0.0036267    0.0027666   -0.8693774   -0.3316865   -0.3662882
  -0.0061259    0.0030871    0.0029349   -0.7430690   -0.5751484   -0.3421297
  -0.0064684    0.0043329    0.0030244   -0.9343837   -0.1430799   -0.3262748
  -0.0063805    0.0050640    0.0029534   -0.9341764   -0.0844469   -0.3466745
  -0.0056770    0.0063579    0.0011655   -0.9067586   -0.0691814   -0.4159359
  -0.0019099   -0.0046761    0.0066592    0.2347071   -0.9577214   -0.1663800
  -0.0021807   -0.0046512    0.0064985    0.1521520   -0.9439173   -0.2930358
  -0.0019179   -0.0043603    0.0061072   -0.1385680   -0.7254182   -0.6742161
  -0.0022717   -0.0044420    0.0063223   -0.3398895   -0.6065013   -0.7187707
  -0.0022046   -0.0046451    0.0064838   -0.1190414   -0.8667482   -0.4843311
  -0.0013002   -0.0041184    0.0057646    0.3099013   -0.8484691   -0.4290236
  -0.0016049   -0.0042344    0.0059172    0.0162439   -0.7206448   -0.6931142
  -0.0014504   -0.0041688    0.0058504    0.1051988   -0.8286917   -0.5497301
  -0.0010213   -0.0039879    0.0056611    0.3950462   -0.8443967   -0.3618463
  -0.0019219   -0.0043455    0.0060907   -0.1995547   -0.7407818   -0.6414205
  -0.0022822   -0.0047484    0.0069509    0.0812438   -0.9834312   -0.1620569
  -0.0007328   -0.0037286    0.0052020    0.2945677   -0.9133264   -0.2811845
  -0.0010127   -0.0038420    0.0053321    0.2508557   -0.8748599   -0.4143568
  -0.0002880   -0.0035111    0.0045101    0.2414914   -0.9480243   -0.2071998
   0.0029077   -0.0037307    0.0023572    0.1513512   -0.8701756    0.4689213
   0.0045681   -0.0012478    0.0032397    0.8141382   -0.3496637    0.4635885
   0.0036393   -0.0036438    0.0022702    0.5524343   -0.5816340    0.5970915
   0.0036901   -0.0035760    0.0022881    0.6776896   -0.3691752    0.6359610
   0.0034395   -0.0037876    0.0021788    0.2942801   -0.7616977    0.5772486
   0.0046963   -0.0012981    0.0029838    0.8693275   -0.1959615    0.4537276
   0.0041563   -0.0025697    0.0023897    0.8434781   -0.3125370    0.4368814
   0.0040205   -0.0035661    0.0019824    0.7539498   -0.3397351    0.5622630
   0.0044644   -0.0026741    0.0017362    0.8779997   -0.2449982    0.4112084
   0.0043251   -0.0033490    0.0016276    0.8742246   -0.1885999    0.4473940
   0.0012791   -0.0034857    0.0028606    0.1388123   -0.9700880    0.1991491
   0.0006030   -0.0034151    0.0036961    0.2286473   -0.9681766    0.1017572
  -0.0006252   -0.0033111    0.0040952   -0.1994163   -0.9057829   -0.3738857
  -0.0002883   -0.0031531    0.0028901   -0.3353416   -0.9378242   -0.0896202
   0.0004043   -0.0034290    0.0033353   -0.0151551   -0.9995510    0.0258470
   0.0042295    0.0003901    0.0039171    0.7805308    0.3646868    0.5077156
   0.0044546   -0.0003600    0.0036223    0.8566536    0.1139226    0.5031563
   0.0044760    0.0003383    0.0035734    0.8154386    0.3147340    0.4858007
   0.0046989   -0.0000648    0.0032745    0.8640203    0.0812722    0.4968539
  -0.0025462   -0.0046865    0.0067884   -0.1202348   -0.9469657   -0.2979926
  -0.0028522   -0.0046935    0.0071076   -0.3170443   -0.9044446   -0.2854171
  -0.0032568   -0.0044758    0.0073324   -0.5593214   -0.7793035   -0.2825698
  -0.0016123   -0.0033616    0.0050818   -0.5367921   -0.6498708   -0.5380727
  -0.0018690   -0.0036145    0.0055169   -0.4619590   -0.6097138   -0.6440831
  -0.0033451    0.0007836    0.0029441   -0.6371787   -0.7230596   -0.2668110
  -0.0024518   -0.0005632    0.0031891   -0.7238110   -0.6439201   -0.2479204
  -0.0020552   -0.0011111    0.0030147   -0.7436181   -0.6224387   -0.2441357
  -0.0015378   -0.0018626    0.0029434   -0.7041976   -0.6612998   -0.2584342
  -0.0018580   -0.0022600    0.0043088   -0.6624379   -0.6336298   -0.3996115
  -0.0028998   -0.0042503    0.0067477   -0.6326754   -0.3064315   -0.7112114
  -0.0020484   -0.0041332    0.0060072   -0.3760684   -0.5346633   -0.7567745
  -0.0026824   -0.0044993    0.0066783   -0.4686692   -0.6309342   -0.6182809
  -0.0014063   -0.0037651    0.0053320   -0.2446702   -0.6981259   -0.6728720
  -0.0016374   -0.0040307    0.0057198   -0.2043051   -0.6948118   -0.6895622
  -0.0030780   -0.0042721    0.0069069   -0.6590815   -0.3181457   -0.6814652
  -0.0030074   -0.0045251    0.0069897   -0.5546478   -0.6300865   -0.5434675
  -0.0059269    0.0082931    0.0035610   -0.7413011    0.6022999   -0.2961544
  -0.0062819    0.0078741    0.0035315   -0.8841020    0.3676882   -0.2883903
  -0.0063994    0.0075674    0.0035144   -0.9194988    0.2588090   -0.2958714
  -0.0052505    0.0080726    0.0021152   -0.6828186    0.6447141   -0.3436605
  -0.0047186    0.0079017    0.0009667   -0.5507652    0.7624404   -0.3396209
  -0.0042467    0.0079769    0.0007319   -0.3099487    0.9183049   -0.2462681
  -0.0031813    0.0081774    0.0008187   -0.1866565    0.9332609   -0.3068934
  -0.0025314    0.0081117    0.0007098   -0.0058459    0.9495912   -0.3134363
  -0.0004781    0.0072918    0.0010417    0.4103327    0.8857556   -0.2169427
  -0.0011569    0.0074580    0.0004028    0.3161359    0.8776669   -0.3602206
  -0.0017162    0.0076814    0.0002625    0.2492998    0.8564464   -0.4520499
  -0.0005931    0.0071479    0.0004074    0.4293822    0.8626310   -0.2673925
  -0.0020860    0.0079339    0.0005019    0.1186603    0.9135120   -0.3891215
   0.0012963    0.0059312    0.0013985    0.6178794    0.7795762   -0.1024015
   0.0010504    0.0062018    0.0015316    0.6015172    0.7977663   -0.0417848
  -0.0001033    0.0068733    0.0005460    0.4596458    0.8411323   -0.2849952
   0.0001409    0.0066679    0.0005135    0.4966197    0.8032195   -0.3289488
   0.0011491    0.0060514    0.0011977    0.5958114    0.7818913   -0.1834524
   0.0014469    0.0055937    0.0007255    0.5513671    0.7706078   -0.3196215
   0.0008220    0.0060853    0.0005202    0.5234221    0.7736081   -0.3571552
   0.0005823    0.0063526    0.0006418    0.5082537    0.7871020   -0.3494977
   0.0018229    0.0054274    0.0016905    0.6637486    0.7462903   -0.0498856
   0.0013828    0.0059327    0.0018470    0.6445267    0.7619052   -0.0639206
   0.0035962    0.0027203    0.0021749    0.7472247    0.6247095    0.2267009
   0.0024017    0.0046403    0.0009587    0.6749305    0.7294105   -0.1114860
   0.0037379    0.0029139    0.0012349    0.7235750    0.6551496    0.2172976
   0.0025438    0.0043143    0.0003133    0.6135829    0.7661535   -0.1911146
   0.0031208    0.0036492   -0.0002322    0.5426040    0.8256400   -0.1545945
   0.0040911    0.0026731    0.0004899    0.6656565    0.7297955    0.1558841
   0.0035986    0.0031814   -0.0003733    0.5238041    0.8479899   -0.0808849
   0.0037964    0.0030538   -0.0002382    0.5581784    0.8288085   -0.0389015
   0.0048909    0.0008292    0.0022472    0.7270863    0.6066763    0.3213866
   0.0043656    0.0007672    0.0034380    0.7222797    0.5326651    0.4411121
  -0.0054725    0.0024782    0.0029183   -0.3961568   -0.8693762   -0.2953723
  -0.0052982    0.0026964    0.0019935   -0.5144878   -0.8123456   -0.2745850
  -0.0039502    0.0016620    0.0022207   -0.5285312   -0.8193652   -0.2220260
  -0.0043399    0.0020855    0.0016590   -0.4946125   -0.8561145   -0.1497548
  -0.0056452    0.0026219    0.0027951   -0.4927200   -0.8088333   -0.3209605
  -0.0062445    0.0072367    0.0028469   -0.9499605    0.0546439   -0.3075534
  -0.0060349    0.0064528    0.0019773   -0.9309527   -0.1504359   -0.3327103
  -0.0062485    0.0068366    0.0027344   -0.9552006   -0.1061176   -0.2762804
  -0.0059996    0.0032388    0.0024877   -0.7693106   -0.4953577   -0.4034624
  -0.0063017    0.0045245    0.0025940   -0.9184397   -0.1265296   -0.3747784
  -0.0061309    0.0041532    0.0022601   -0.8640616   -0.2551751   -0.4339162
  -0.0055462    0.0027468    0.0023368   -0.5618825   -0.7545432   -0.3390466
  -0.0058201    0.0053560    0.0017446   -0.9057139   -0.1972223   -0.3752143
  -0.0054724    0.0062530    0.0008065   -0.8413799    0.1069789   -0.5297503
  -0.0053826    0.0073290    0.0011735   -0.7911581    0.2811474   -0.5431620
  -0.0054064    0.0055444    0.0004680   -0.8972986   -0.0764988   -0.4347449
  -0.0059205    0.0072709    0.0018623   -0.8961389    0.1346839   -0.4228420
  -0.0019741   -0.0042615    0.0060583   -0.3457337   -0.6034659   -0.7185382
  -0.0013348   -0.0039499    0.0055156    0.0534506   -0.8077521   -0.5870941
  -0.0012086   -0.0039021    0.0054514    0.0621342   -0.8463967   -0.5289158
  -0.0010373   -0.0036783    0.0050654   -0.0694097   -0.8580975   -0.5087740
   0.0014890   -0.0035852    0.0025035    0.0351590   -0.9586334    0.2824640
   0.0016671   -0.0038824    0.0016666   -0.0050390   -0.9007394    0.4343307
   0.0034708   -0.0040822    0.0017516    0.1781709   -0.8174194    0.5477962
   0.0030964   -0.0045481    0.0009191    0.0662057   -0.8580987    0.5091988
   0.0040903   -0.0039297    0.0015888    0.7472110   -0.4060863    0.5260890
   0.0036901   -0.0039742    0.0018601    0.4167226   -0.6941530    0.5869360
   0.0049097   -0.0001462    0.0029149    0.8909296    0.1299513    0.4351517
   0.0048739   -0.0013545    0.0026011    0.8765936   -0.2937268    0.3811932
   0.0049667   -0.0010248    0.0026065    0.9092405   -0.0492451    0.4133481
   0.0048161   -0.0024675    0.0012696    0.9114668   -0.1894297    0.3651638
   0.0048742   -0.0032388    0.0004422    0.9203386   -0.1681867    0.3531147
   0.0042768   -0.0036811    0.0014979    0.8748623   -0.2154580    0.4338131
   0.0003048   -0.0034801    0.0022976   -0.1646402   -0.9691750    0.1832852
  -0.0011891   -0.0035339    0.0049064   -0.3187908   -0.7951786   -0.5158134
  -0.0010196   -0.0029899    0.0039246   -0.5314869   -0.7769106   -0.3375376
  -0.0008069   -0.0026977    0.0025152   -0.6488387   -0.7510194   -0.1223852
  -0.0004914   -0.0030035    0.0022536   -0.5088181   -0.8565586    0.0860901
   0.0048521    0.0004192    0.0027876    0.8238461    0.4197694    0.3808823
  -0.0032681    0.0008873    0.0024767   -0.6374537   -0.7415779   -0.2090812
  -0.0028277    0.0003820    0.0023202   -0.7095489   -0.6811475   -0.1804947
  -0.0022283   -0.0002314    0.0012876   -0.7777490   -0.6246188   -0.0704122
  -0.0014782   -0.0017763    0.0024690   -0.7374483   -0.6612124   -0.1377253
  -0.0060247    0.0079649    0.0031702   -0.8081939    0.4380583   -0.3936084
  -0.0059509    0.0075648    0.0022903   -0.8763888    0.3790799   -0.2970540
  -0.0059854    0.0077089    0.0027410   -0.7917453    0.5190682   -0.3220367
  -0.0052695    0.0078602    0.0016580   -0.6978865    0.5865271   -0.4110237
  -0.0057897    0.0075372    0.0018934   -0.7686283    0.4973934   -0.4022566
  -0.0046988    0.0076276    0.0005292   -0.7544834    0.4043386   -0.5169769
  -0.0043241    0.0079575    0.0006904   -0.4437777    0.8524082   -0.2765168
  -0.0045322    0.0078315    0.0005916   -0.6238036    0.6407984   -0.4474890
  -0.0041478    0.0079043    0.0003066   -0.4732211    0.8076982   -0.3516892
  -0.0037281    0.0079152    0.0000523   -0.2725101    0.8997053   -0.3409817
  -0.0032667    0.0078524   -0.0001654   -0.0817445    0.9199816   -0.3833427
  -0.0005141    0.0068442   -0.0001364    0.3499733    0.8267608   -0.4404375
  -0.0008053    0.0067294   -0.0005369    0.2902232    0.7640405   -0.5762053
  -0.0024659    0.0074422   -0.0006244    0.1803254    0.8119983   -0.5551050
  -0.0014515    0.0066902   -0.0009799    0.2353594    0.7789984   -0.5811776
  -0.0000351    0.0065746    0.0000209    0.4951581    0.8012185   -0.3359574
  -0.0003059    0.0068563    0.0001987    0.5080353    0.8254073   -0.2461766
  -0.0030293    0.0076758   -0.0004938    0.0138976    0.8507051   -0.5254595
   0.0017477    0.0054364    0.0011507    0.6160713    0.7674417   -0.1774524
   0.0002197    0.0061561   -0.0003450    0.4961557    0.7536546   -0.4310850
   0.0024628    0.0042029   -0.0002094    0.5331985    0.7961350   -0.2861266
   0.0010970    0.0054375   -0.0002139    0.4950009    0.7559718   -0.4283464
   0.0018217    0.0044656   -0.0008429    0.4835156    0.7702551   -0.4158362
   0.0020541    0.0046729   -0.0000287    0.5349331    0.7701606   -0.3474179
   0.0020188    0.0044685   -0.0005097    0.5338000    0.7608721   -0.3689597
   0.0004279    0.0060481   -0.0001924    0.5146962    0.7408347   -0.4315690
   0.0031343    0.0033955   -0.0011711    0.3878716    0.8711326   -0.3011371
   0.0035716    0.0031822   -0.0008834    0.4752707    0.8678157   -0.1449612
   0.0051537    0.0015205    0.0003059    0.7048469    0.6957802    0.1381332
   0.0046070    0.0022700   -0.0001344    0.6438542    0.7628154    0.0597038
   0.0047509    0.0021167   -0.0005205    0.6382569    0.7685075   -0.0449916
   0.0042993    0.0025469   -0.0010056    0.5988899    0.7990916   -0.0527587
   0.0042230    0.0025904   -0.0013983    0.5577224    0.8124722   -0.1698081
   0.0052757    0.0013184    0.0004095    0.7267699    0.6646230    0.1734408
   0.0054190    0.0007880    0.0010751    0.7754903    0.5690974    0.2733914
   0.0054961    0.0005420    0.0011606    0.9226904    0.2805008    0.2645028
   0.0049786    0.0005939    0.0023371    0.8293412    0.4431367    0.3403279
   0.0052279    0.0002225    0.0020482    0.8903805    0.3220118    0.3217623
  -0.0055421    0.0031007    0.0017857   -0.7131648   -0.5965016   -0.3682144
  -0.0050075    0.0027165    0.0011692   -0.6488173   -0.7215806   -0.2415731
  -0.0036292    0.0015250    0.0016678   -0.6103982   -0.7810378   -0.1318865
  -0.0044642    0.0023400    0.0005560   -0.5446878   -0.8293881   -0.1242204
  -0.0037784    0.0017748    0.0005511   -0.5698352   -0.8180945   -0.0775188
  -0.0061234    0.0069120    0.0022263   -0.9595953   -0.0049805   -0.2813397
  -0.0058199    0.0033593    0.0020770   -0.8159933   -0.4075327   -0.4099659
  -0.0059209    0.0040372    0.0019059   -0.8647229   -0.2303609   -0.4463050
  -0.0054118    0.0052168    0.0005195   -0.8941505   -0.2139999   -0.3933177
  -0.0054676    0.0047467    0.0010601   -0.8661329   -0.1933058   -0.4609194
  -0.0052861    0.0046967    0.0006786   -0.9074210   -0.2659024   -0.3253967
  -0.0051830    0.0048256    0.0002221   -0.8961624   -0.3138964   -0.3136273
  -0.0047098    0.0069086    0.0001481   -0.7703939    0.1499543   -0.6196829
  -0.0053572    0.0058084    0.0004525   -0.7737608    0.1240818   -0.6212069
  -0.0049820    0.0051608   -0.0002123   -0.8033954    0.0762881   -0.5905387
   0.0012752   -0.0037568    0.0019145    0.0970411   -0.9218734    0.3751433
   0.0014229   -0.0039059    0.0015299    0.2209662   -0.8673193    0.4460171
   0.0014302   -0.0039306    0.0014853    0.1260636   -0.8710391    0.4747620
   0.0014137   -0.0041676    0.0010737   -0.0228869   -0.8407811    0.5408912
   0.0030339   -0.0050205    0.0001718    0.1962706   -0.8503198    0.4882971
   0.0037257   -0.0042788    0.0014364    0.2988269   -0.8041251    0.5138923
   0.0035808   -0.0045680    0.0009068    0.2259898   -0.8569802    0.4631561
   0.0041349   -0.0042483    0.0011730    0.6624025   -0.5735254    0.4819663
   0.0045280   -0.0040673    0.0006431    0.8685777   -0.3423053    0.3583291
   0.0051036   -0.0011889    0.0022112    0.9382781   -0.0552086    0.3414472
   0.0050855   -0.0002366    0.0025369    0.9203506    0.1704426    0.3520000
   0.0050637   -0.0016722    0.0017745    0.9065340   -0.3051398    0.2916948
   0.0051764   -0.0013916    0.0018262    0.9390575   -0.1823546    0.2914067
   0.0049120   -0.0031168    0.0004440    0.9279833   -0.2022826    0.3129357
   0.0049890   -0.0025127    0.0008747    0.9259287   -0.0386386    0.3757168
   0.0051526   -0.0025497    0.0004881    0.9361900   -0.1669646    0.3093076
   0.0050773   -0.0019371    0.0013317    0.9105798   -0.2773263    0.3064876
   0.0046101   -0.0040774    0.0004296    0.9023463   -0.3358118    0.2701882
   0.0048628   -0.0037694    0.0000295    0.9545490   -0.1710673    0.2440743
   0.0000309   -0.0034795    0.0016450   -0.3605586   -0.8811485    0.3059000
   0.0005823   -0.0037957    0.0015213   -0.1301194   -0.9223186    0.3638646
  -0.0013357   -0.0019309    0.0020822   -0.7577123   -0.6523401   -0.0180111
  -0.0009087   -0.0025338    0.0023327   -0.6875578   -0.7261287   -0.0011835
  -0.0002308   -0.0034286    0.0013302   -0.5481784   -0.7754807    0.3132573
  -0.0027410    0.0005224    0.0013580   -0.7309919   -0.6788653   -0.0692300
  -0.0022521   -0.0002295    0.0007762   -0.7913332   -0.6077610    0.0664707
  -0.0019556   -0.0008761    0.0005602   -0.8175571   -0.5645755    0.1133794
  -0.0045225    0.0074099    0.0001727   -0.7908557    0.2126806   -0.5738591
  -0.0044842    0.0075057    0.0001788   -0.7427962    0.3570271   -0.5663792
  -0.0043346    0.0077391    0.0002262   -0.6358279    0.6186396   -0.4615278
  -0.0041246    0.0076252   -0.0001279   -0.6733120    0.4434901   -0.5915805
  -0.0039514    0.0078125   -0.0000595   -0.5181953    0.6862967   -0.5103631
  -0.0035912    0.0078407   -0.0001796   -0.2803314    0.8824887   -0.3776613
  -0.0035384    0.0077908   -0.0003120   -0.3475397    0.7822088   -0.5170741
  -0.0037303    0.0076787   -0.0004041   -0.4486837    0.6754373   -0.5852071
  -0.0035192    0.0078022   -0.0003028   -0.2466056    0.8069999   -0.5365975
  -0.0032660    0.0076091   -0.0006192   -0.1650024    0.7762208   -0.6084862
  -0.0002596    0.0066227   -0.0002047    0.3904317    0.7725317   -0.5007573
  -0.0015139    0.0063795   -0.0013822    0.2256277    0.7387624   -0.6350766
  -0.0010482    0.0056051   -0.0019735    0.2537912    0.7209892   -0.6447980
  -0.0026646    0.0073542   -0.0008322    0.0564490    0.7395213   -0.6707621
  -0.0018239    0.0064926   -0.0014184    0.1216574    0.7019171   -0.7017919
  -0.0000551    0.0057881   -0.0011454    0.3992489    0.7338243   -0.5496383
  -0.0030774    0.0074408   -0.0007972   -0.1336392    0.6370796   -0.7591246
   0.0022549    0.0042185   -0.0006019    0.4954820    0.7905579   -0.3598830
   0.0025010    0.0039464   -0.0007368    0.4426113    0.8266368   -0.3475152
   0.0003854    0.0050081   -0.0017181    0.3528914    0.7413216   -0.5708852
   0.0018295    0.0043091   -0.0010869    0.5833351    0.7089732   -0.3963297
   0.0020488    0.0042032   -0.0009428    0.8741716    0.4291929   -0.2271949
   0.0020434    0.0044524   -0.0004929    0.6743652    0.6640733   -0.3228594
   0.0021054    0.0036459   -0.0018462    0.2891401    0.8083933   -0.5127361
   0.0034517    0.0028238   -0.0023766    0.3353877    0.8729237   -0.3542869
   0.0038841    0.0026718   -0.0019916    0.4953509    0.8174164   -0.2940373
   0.0023290    0.0038626   -0.0012190    0.5434330    0.7566090   -0.3636253
   0.0050307    0.0017489   -0.0002977    0.7336099    0.6791944   -0.0226159
   0.0055071    0.0009575   -0.0003856    0.8127810    0.5803720   -0.0505500
   0.0045430    0.0022780   -0.0011343    0.5849362    0.8103031    0.0354761
   0.0047184    0.0021124   -0.0010331    0.6916406    0.7141575   -0.1077606
   0.0043961    0.0024391   -0.0012731    0.6075058    0.7925267   -0.0532744
   0.0044645    0.0022011   -0.0017060    0.6411935    0.7108980   -0.2889550
   0.0055028    0.0008984    0.0006108    0.8513797    0.5154879    0.0970821
   0.0055788    0.0006509    0.0006957    0.9165362    0.3683334    0.1558588
   0.0054431    0.0002938    0.0013832    0.9743940    0.1535624    0.1642402
   0.0054554   -0.0004370    0.0008059    0.9804159    0.1079505    0.1647159
   0.0055924    0.0003420    0.0007550    0.9824128    0.0844789    0.1665183
   0.0053646   -0.0002594    0.0017128    0.9546569    0.1198700    0.2725093
  -0.0056934    0.0035954    0.0016159   -0.8234180   -0.3607568   -0.4379923
  -0.0052076    0.0031632    0.0009792   -0.8510227   -0.3718385   -0.3708050
  -0.0044083    0.0027720   -0.0004728   -0.8218385   -0.4900225   -0.2906190
  -0.0042055    0.0023122   -0.0003050   -0.6788541   -0.7244356   -0.1197924
  -0.0029551    0.0008767    0.0010428   -0.6795521   -0.7326223   -0.0383857
  -0.0034518    0.0014605    0.0002976   -0.6892603   -0.7227993    0.0498130
  -0.0050152    0.0050187   -0.0002077   -0.8448276   -0.0687708   -0.5306005
  -0.0050138    0.0047190   -0.0001570   -0.8738967   -0.1819583   -0.4507724
  -0.0045780    0.0060940   -0.0001345   -0.6885260    0.1034966   -0.7177886
  -0.0043758    0.0070733   -0.0001812   -0.7478767    0.1650230   -0.6429991
  -0.0046130    0.0052615   -0.0005108   -0.6381960    0.2958635   -0.7107536
  -0.0047437    0.0049938   -0.0005379   -0.7481700    0.2105723   -0.6292066
   0.0009433   -0.0038084    0.0016542   -0.0000202   -0.9074100    0.4202464
   0.0028297   -0.0053945   -0.0003781    0.3105904   -0.7723020    0.5541509
   0.0009855   -0.0046239    0.0003761   -0.0363155   -0.7235180    0.6893496
   0.0000628   -0.0039585    0.0007542   -0.2512634   -0.8153028    0.5216781
   0.0013488   -0.0048632    0.0001632    0.0173378   -0.7450246    0.6668116
   0.0018003   -0.0047922    0.0003254    0.0693536   -0.7469569    0.6612454
   0.0032540   -0.0051582   -0.0001728    0.3811817   -0.8072901    0.4505366
   0.0040160   -0.0047291    0.0001954    0.5553253   -0.7782993    0.2930257
   0.0041480   -0.0045105    0.0007299    0.5648987   -0.7404656    0.3641430
   0.0043028   -0.0045284    0.0003272    0.7802112   -0.5869814    0.2161556
   0.0055041   -0.0009838    0.0010084    0.9736642    0.0727592    0.2160653
   0.0054096   -0.0013541    0.0010912    0.9491238   -0.1654912    0.2679116
   0.0050687   -0.0027243    0.0004690    0.9146300   -0.2820358    0.2896684
   0.0052693   -0.0027626   -0.0003460    0.9388895   -0.2827236    0.1963512
   0.0055639   -0.0019598    0.0000098    0.9450469   -0.1891613    0.2666539
   0.0055493   -0.0022376   -0.0003241    0.9449633   -0.2509311    0.2099475
   0.0046916   -0.0042607   -0.0003660    0.8522742   -0.4921836    0.1771552
   0.0050049   -0.0039997   -0.0008391    0.8943358   -0.3435985    0.2865371
   0.0052605   -0.0029595   -0.0008649    0.9477164   -0.1500234    0.2816499
  -0.0008766   -0.0026206    0.0014731   -0.7279677   -0.6752011    0.1190234
  -0.0007778   -0.0029758    0.0009828   -0.6997857   -0.6337149    0.3297050
  -0.0006023   -0.0034771    0.0005764   -0.6407754   -0.6448333    0.4166497
  -0.0002156   -0.0039663    0.0005013   -0.4416041   -0.6872262    0.5768067
  -0.0026162    0.0003782    0.0004650   -0.7691596   -0.6354781    0.0675352
  -0.0018091   -0.0013489    0.0002289   -0.8584859   -0.4620389    0.2225354
  -0.0020927   -0.0006767   -0.0000717   -0.8379806   -0.5263806    0.1439166
  -0.0038930    0.0074412   -0.0004583   -0.6737376    0.2059390   -0.7096948
  -0.0038861    0.0074573   -0.0004572   -0.6078207    0.3859307   -0.6939823
  -0.0036131    0.0075856   -0.0005413   -0.3938773    0.5773767   -0.7151900
  -0.0034601    0.0074585   -0.0007058   -0.3393545    0.5395398   -0.7705422
  -0.0013758    0.0057078   -0.0020061    0.0298940    0.6159682   -0.7872036
  -0.0011129    0.0054292   -0.0021699    0.0501222    0.5729447   -0.8180600
  -0.0006221    0.0052138   -0.0021571    0.2524715    0.6866418   -0.6817486
  -0.0001235    0.0055557   -0.0014227    0.2814997    0.7227326   -0.6312016
  -0.0026270    0.0069890   -0.0011366   -0.0969277    0.5685831   -0.8168955
  -0.0019408    0.0062864   -0.0016127   -0.0747748    0.5683394   -0.8193894
  -0.0031380    0.0071431   -0.0009622   -0.3064341    0.3973671   -0.8649841
   0.0023157    0.0039229   -0.0011136    0.4660681    0.8055106   -0.3659689
   0.0020488    0.0042032   -0.0009428    0.8523363    0.4718730   -0.2255188
  -0.0003417    0.0047461   -0.0024118    0.2420685    0.6934903   -0.6785823
  -0.0000426    0.0045699   -0.0024592    0.2578520    0.6718351   -0.6943702
   0.0005644    0.0045052   -0.0021306    0.3264967    0.7165271   -0.6164323
   0.0020488    0.0042032   -0.0009428    0.9089815    0.3755587   -0.1808541
   0.0020933    0.0039527   -0.0013699    0.4315824    0.7949797   -0.4263143
   0.0032552    0.0026134   -0.0029493    0.2718100    0.8327037   -0.4824146
   0.0008136    0.0042315   -0.0022716    0.3110047    0.6823590   -0.6615604
   0.0021808    0.0027723   -0.0031010    0.0458686    0.8509115   -0.5233027
   0.0017221    0.0029218   -0.0030676   -0.0165396    0.7759233   -0.6306104
   0.0014427    0.0033657   -0.0026364    0.2351983    0.7197302   -0.6532000
   0.0028318    0.0028570   -0.0027396    0.0703171    0.8520181   -0.5187684
   0.0037179    0.0026387   -0.0024034    0.4566477    0.7930452   -0.4031777
   0.0039964    0.0020512   -0.0029227    0.5069175    0.7690182   -0.3894171
   0.0056863    0.0004891   -0.0002046    0.9448058    0.3272156    0.0164919
   0.0059822   -0.0003434   -0.0028625    0.8817267    0.4715936   -0.0125491
   0.0056605    0.0004914   -0.0007143    0.9192933    0.3935269   -0.0060410
   0.0055102    0.0007206   -0.0018279    0.7806579    0.6203186   -0.0760138
   0.0052682    0.0010984   -0.0015361    0.7025265    0.6942548   -0.1564188
   0.0048220    0.0014616   -0.0021283    0.6656019    0.7109791   -0.2268983
   0.0042409    0.0015517   -0.0035279    0.4809195    0.8237027   -0.3003837
   0.0047538    0.0012908   -0.0028537    0.5613360    0.7987762   -0.2164679
   0.0056591    0.0004349    0.0002832    0.9723407    0.2237388    0.0670418
   0.0056192    0.0000743    0.0003208    0.9858820    0.0926615    0.1394650
   0.0057359   -0.0007956   -0.0000374    0.9686317    0.1633001    0.1873116
  -0.0048185    0.0045952   -0.0005184   -0.8645578   -0.1918343   -0.4644775
  -0.0046046    0.0038672   -0.0007684   -0.8798654   -0.2343628   -0.4134137
  -0.0040563    0.0021800   -0.0006657   -0.7900790   -0.5858770   -0.1803424
  -0.0043824    0.0033727   -0.0010525   -0.8759194   -0.2992878   -0.3784072
  -0.0042989    0.0029077   -0.0009265   -0.8401792   -0.4394220   -0.3178164
  -0.0036303    0.0015800   -0.0004099   -0.7066038   -0.7072290    0.0231990
  -0.0030120    0.0007140   -0.0013030   -0.7652558   -0.6366239    0.0953607
  -0.0028876    0.0005005   -0.0012194   -0.8101183   -0.5625089    0.1652031
  -0.0026566    0.0003656   -0.0000509   -0.7655999   -0.6313808    0.1233496
  -0.0047422    0.0049918   -0.0005407   -0.7482601    0.1477038   -0.6467538
  -0.0048159    0.0046238   -0.0005218   -0.8337745   -0.0140936   -0.5519252
  -0.0042124    0.0065431   -0.0004931   -0.6853236    0.0677730   -0.7250782
  -0.0038877    0.0053740   -0.0008856   -0.6119311    0.1520651   -0.7761550
  -0.0041826    0.0052527   -0.0007557   -0.5150858    0.3462787   -0.7840776
