NORM_ASCII
4230 8456
   0.0095009   -0.0113791   -0.0046169    0.0850741    0.8513520   -0.5176506
   0.0091397   -0.0108157   -0.0036532    0.2217945    0.8321576   -0.5082528
   0.0084017   -0.0103470   -0.0033767    0.3392820    0.7741114   -0.5344522
   0.0082042   -0.0099419   -0.0029200    0.4286718    0.7594542   -0.4893565
   0.0082703   -0.0094362   -0.0020166    0.4743446    0.7584922   -0.4468633
   0.0064214   -0.0069601    0.0008246   -0.1265283    0.9584480   -0.2556718
   0.0063777   -0.0070214    0.0005886   -0.1078951    0.9393557   -0.3255296
   0.0075630   -0.0087674   -0.0017911    0.4616434    0.7575578   -0.4615102
   0.0084170   -0.0092573   -0.0015671    0.8736845    0.4195342   -0.2463056
   0.0083452   -0.0093463   -0.0017921    0.5381600    0.7143384   -0.4473305
   0.0084170   -0.0092573   -0.0015671    0.9252988    0.3381901   -0.1716090
   0.0084170   -0.0092573   -0.0015671    0.9082610    0.3612435   -0.2111047
   0.0063065   -0.0081035   -0.0014719    0.0768434    0.8476954   -0.5248882
   0.0064597   -0.0085650   -0.0021655    0.1972934    0.8266981   -0.5269208
   0.0068004   -0.0088523   -0.0024154    0.3057330    0.8018259   -0.5134225
   0.0061267   -0.0078079   -0.0009928   -0.0659386    0.8779672   -0.4741579
   0.0050090   -0.0123887   -0.0051648   -0.6237101   -0.0902401   -0.7764293
   0.0050542   -0.0127379   -0.0051459   -0.4843597   -0.2048370   -0.8505513
   0.0049475   -0.0134983   -0.0048989   -0.2962621   -0.2914449   -0.9095541
   0.0045579   -0.0119030   -0.0046832   -0.7724189    0.2397903   -0.5881068
   0.0047645   -0.0120262   -0.0049481   -0.6903059    0.1768647   -0.7015673
   0.0052040   -0.0122459   -0.0053390   -0.5544731   -0.0549621   -0.8303847
   0.0051686   -0.0108801   -0.0047652   -0.5986672    0.5174014   -0.6114683
   0.0052462   -0.0100209   -0.0039443   -0.5880622    0.6345059   -0.5015825
   0.0051515   -0.0114408   -0.0051487   -0.5629122    0.3781696   -0.7349270
   0.0049739   -0.0084559   -0.0009050   -0.6800887    0.6719519   -0.2931895
   0.0048539   -0.0090494   -0.0017793   -0.6716780    0.6627594   -0.3310569
   0.0052222   -0.0081698   -0.0007554   -0.6735841    0.6952370   -0.2508585
   0.0051933   -0.0091759   -0.0025823   -0.6547760    0.6289396   -0.4191699
   0.0055490   -0.0094042   -0.0033646   -0.4296196    0.7588331   -0.4894888
   0.0054678   -0.0099030   -0.0040093   -0.4243493    0.7232974   -0.5447647
   0.0102430   -0.0118379   -0.0048956    0.1031424    0.3438469   -0.9333440
   0.0100050   -0.0120955   -0.0049804    0.1401105    0.0842910   -0.9865415
   0.0099850   -0.0117267   -0.0048766    0.0529948    0.4079956   -0.9114446
   0.0097518   -0.0121089   -0.0050069    0.1416439    0.2818771   -0.9489375
   0.0060783   -0.0130472   -0.0051954    0.3091625   -0.7165895   -0.6252343
   0.0058309   -0.0131078   -0.0052155    0.0910120   -0.5825096   -0.8077124
   0.0076979   -0.0122022   -0.0053214    0.0228365    0.0680482   -0.9974206
   0.0077819   -0.0127007   -0.0053087   -0.0853962   -0.2018402   -0.9756885
   0.0076838   -0.0118885   -0.0052201    0.1010916    0.3718264   -0.9227815
   0.0069040   -0.0118684   -0.0053524    0.2313319    0.1804838   -0.9559870
   0.0071637   -0.0116492   -0.0051865    0.2204758    0.4288619   -0.8760525
   0.0066876   -0.0124646   -0.0054334    0.2156031   -0.2693140   -0.9386082
   0.0062134   -0.0125833   -0.0054721    0.1317526   -0.3943329   -0.9094739
   0.0060775   -0.0130462   -0.0051970    0.2443326   -0.6117060   -0.7524077
   0.0064592   -0.0125232   -0.0054547    0.1663621   -0.2472001   -0.9545762
   0.0052730   -0.0127340   -0.0052869   -0.4040320   -0.2983248   -0.8647314
   0.0054972   -0.0127190   -0.0053933   -0.2722149   -0.3164251   -0.9087212
   0.0084634   -0.0119120   -0.0050898    0.1099577    0.3961543   -0.9115761
   0.0079479   -0.0121336   -0.0052848    0.1210276    0.2363633   -0.9640979
   0.0092494   -0.0117504   -0.0050035    0.1736303    0.4105049   -0.8951750
   0.0089571   -0.0116588   -0.0049752    0.0317131    0.5579967   -0.8292369
   0.0087113   -0.0116280   -0.0049404   -0.0142163    0.5736429   -0.8189821
   0.0059917   -0.0074610   -0.0002763   -0.2764147    0.8713129   -0.4054734
   0.0058233   -0.0080893   -0.0013923   -0.2737422    0.8136293   -0.5129060
   0.0054098   -0.0082738   -0.0012796   -0.5203275    0.7435574   -0.4199782
   0.0102408   -0.0114876   -0.0047176    0.0602167    0.5509895   -0.8323368
   0.0083826   -0.0093761   -0.0017913    0.6517219    0.6455805   -0.3981009
   0.0097465   -0.0114099   -0.0046517    0.0075797    0.7279009   -0.6856405
   0.0099875   -0.0115001   -0.0047405   -0.0181070    0.5811192   -0.8136170
   0.0088257   -0.0109958   -0.0040734    0.1973559    0.8303478   -0.5211269
   0.0090009   -0.0112628   -0.0045582    0.0602027    0.8283374   -0.5569855
   0.0094755   -0.0115551   -0.0048298    0.1049475    0.6308492   -0.7687752
   0.0080800   -0.0105137   -0.0037994    0.3233880    0.7289536   -0.6033629
   0.0076375   -0.0097501   -0.0031258    0.4192968    0.7384395   -0.5281073
   0.0071347   -0.0092763   -0.0028902    0.3445697    0.7840029   -0.5163441
   0.0073086   -0.0098724   -0.0035574    0.3818611    0.7106998   -0.5908366
   0.0060340   -0.0082576   -0.0016596   -0.1533920    0.8285796   -0.5384485
   0.0060175   -0.0093775   -0.0034935    0.0139834    0.8222350   -0.5689763
   0.0064473   -0.0091413   -0.0030622    0.2094266    0.8265942   -0.5223816
   0.0051786   -0.0119473   -0.0052952   -0.5592322    0.1221069   -0.8199691
   0.0054281   -0.0122311   -0.0054508   -0.3340312   -0.0175834   -0.9423980
   0.0052970   -0.0110725   -0.0050011   -0.4738168    0.4134139   -0.7775517
   0.0053778   -0.0110190   -0.0050267   -0.4225857    0.4744874   -0.7721937
   0.0054043   -0.0105158   -0.0046316   -0.4272949    0.6187392   -0.6592275
   0.0054048   -0.0116964   -0.0053915   -0.4243000    0.2334579   -0.8749097
   0.0056067   -0.0110468   -0.0051367   -0.2909922    0.4759205   -0.8299537
   0.0056006   -0.0112390   -0.0052714   -0.2585204    0.4877773   -0.8338108
   0.0055365   -0.0084725   -0.0017709   -0.4899532    0.7701092   -0.4085067
   0.0052450   -0.0088248   -0.0021557   -0.5840282    0.7107482   -0.3921071
   0.0057803   -0.0093416   -0.0034177   -0.1878257    0.7954328   -0.5762015
   0.0057986   -0.0082703   -0.0016042   -0.3040252    0.7956160   -0.5239884
   0.0056464   -0.0103316   -0.0045686   -0.1623079    0.6927754   -0.7026509
   0.0057296   -0.0126871   -0.0054549   -0.0523795   -0.3306413   -0.9423018
   0.0074226   -0.0114307   -0.0050238    0.1884813    0.5516956   -0.8124695
   0.0064642   -0.0120150   -0.0054989    0.2059366    0.0940004   -0.9740401
   0.0066277   -0.0116456   -0.0053542    0.2233391    0.3436534   -0.9121524
   0.0069576   -0.0112178   -0.0049924    0.2307177    0.5660618   -0.7914186
   0.0063624   -0.0114608   -0.0053277    0.2191881    0.5153193   -0.8284942
   0.0058533   -0.0109849   -0.0051190    0.0817200    0.5927794   -0.8012081
   0.0058973   -0.0121576   -0.0055461   -0.0772158   -0.0260155   -0.9966749
   0.0061409   -0.0121019   -0.0055437    0.0633247    0.0049635   -0.9979806
   0.0063893   -0.0120367   -0.0055135    0.1395858    0.0613453   -0.9883079
   0.0082112   -0.0115069   -0.0048823    0.1345998    0.6192951   -0.7735350
   0.0087277   -0.0113926   -0.0047391    0.0052365    0.7189994   -0.6949910
   0.0084843   -0.0113748   -0.0047017    0.0883313    0.7623291   -0.6411333
   0.0085434   -0.0110751   -0.0042653    0.1492277    0.7983563   -0.5834024
   0.0077491   -0.0109534   -0.0044147    0.2918199    0.7122273   -0.6384147
   0.0065505   -0.0093100   -0.0032990    0.2362464    0.7831529   -0.5752036
   0.0064712   -0.0098239   -0.0039412    0.2551616    0.7048385   -0.6618876
   0.0066853   -0.0103288   -0.0043772    0.2835154    0.6509905   -0.7041523
   0.0062150   -0.0097255   -0.0039198    0.1335501    0.7502519   -0.6475233
   0.0059196   -0.0100542   -0.0043093    0.0621239    0.7054253   -0.7060565
   0.0056095   -0.0116731   -0.0054644   -0.0256385    0.1548905   -0.9875989
   0.0056089   -0.0109563   -0.0050800   -0.2126993    0.5827716   -0.7843063
   0.0056053   -0.0116095   -0.0054460   -0.2218138    0.3512778   -0.9096167
   0.0058434   -0.0112540   -0.0053096    0.1853233    0.4779119   -0.8586358
   0.0074100   -0.0109915   -0.0046065    0.2616496    0.6625165   -0.7018628
   0.0063826   -0.0119525   -0.0054995    0.1648151    0.2272449   -0.9597894
   0.0061116   -0.0117628   -0.0054966    0.1186657    0.2310321   -0.9656825
   0.0061024   -0.0115504   -0.0054261    0.3324116    0.3724195   -0.8664908
   0.0066697   -0.0105671   -0.0045778    0.2357114    0.6146682   -0.7527437
   0.0058494   -0.0116255   -0.0054830    0.6057366    0.1365138   -0.7838668
   0.0058494   -0.0116255   -0.0054830    0.8129816    0.2020576   -0.5461077
   0.0058494   -0.0116255   -0.0054830    0.9513275    0.1306642   -0.2791108
3 0 1 2 
3 2 3 0 
3 4 1 0 
3 5 6 0 
3 3 7 0 
3 0 6 4 
3 0 7 8 
3 9 0 8 
3 9 5 0 
3 1 10 2 
3 11 1 4 
3 1 11 12 
3 13 10 1 
3 12 13 1 
3 10 14 2 
3 2 14 3 
3 3 14 15 
3 7 3 16 
3 3 15 16 
3 4 17 18 
3 6 17 4 
3 4 18 11 
3 6 5 19 
3 20 5 21 
3 21 5 9 
3 19 5 20 
3 19 17 6 
3 8 7 16 
3 22 8 16 
3 22 23 8 
3 9 8 23 
3 21 9 23 
3 24 14 10 
3 13 24 10 
3 11 25 26 
3 26 27 11 
3 11 27 12 
3 25 11 28 
3 18 28 11 
3 12 27 29 
3 12 29 13 
3 29 24 13 
3 30 15 14 
3 31 32 14 
3 33 30 14 
3 34 14 32 
3 35 14 34 
3 33 14 35 
3 14 24 31 
3 30 36 15 
3 16 15 37 
3 38 15 36 
3 37 15 38 
3 39 40 16 
3 22 16 40 
3 39 16 37 
3 18 17 41 
3 41 17 19 
3 28 18 42 
3 18 41 43 
3 43 42 18 
3 44 19 20 
3 41 19 44 
3 45 20 21 
3 20 45 44 
3 23 46 21 
3 45 21 46 
3 40 47 22 
3 23 22 47 
3 23 48 46 
3 47 49 23 
3 48 23 49 
3 24 50 31 
3 24 29 50 
3 25 51 26 
3 51 25 52 
3 53 52 25 
3 54 53 25 
3 28 54 25 
3 27 26 55 
3 51 55 26 
3 29 27 55 
3 56 54 28 
3 56 28 42 
3 57 58 29 
3 55 57 29 
3 29 58 50 
3 59 30 33 
3 36 30 59 
3 60 32 31 
3 61 31 50 
3 61 60 31 
3 32 60 34 
3 35 62 33 
3 33 63 59 
3 33 64 63 
3 65 33 62 
3 33 65 64 
3 34 60 66 
3 62 34 67 
3 35 34 62 
3 34 66 67 
3 36 59 38 
3 68 37 38 
3 68 39 37 
3 69 68 38 
3 38 59 70 
3 69 38 71 
3 38 70 71 
3 47 40 39 
3 72 47 39 
3 39 68 72 
3 73 43 41 
3 41 44 73 
3 74 75 42 
3 42 43 74 
3 76 42 75 
3 76 77 42 
3 77 56 42 
3 74 43 73 
3 78 44 45 
3 73 44 78 
3 78 45 46 
3 78 46 79 
3 48 79 46 
3 72 49 47 
3 80 48 49 
3 81 79 48 
3 48 80 81 
3 82 49 72 
3 80 49 82 
3 50 58 83 
3 83 61 50 
3 84 55 51 
3 51 52 85 
3 85 84 51 
3 85 52 86 
3 52 87 86 
3 87 52 53 
3 88 53 54 
3 53 88 87 
3 89 54 56 
3 90 54 91 
3 54 89 91 
3 90 88 54 
3 84 57 55 
3 56 92 89 
3 93 92 56 
3 77 93 56 
3 58 57 94 
3 94 57 84 
3 83 58 94 
3 70 59 63 
3 66 60 61 
3 61 83 95 
3 95 96 61 
3 96 66 61 
3 67 65 62 
3 64 97 63 
3 63 98 70 
3 98 63 97 
3 99 64 65 
3 97 64 99 
3 100 65 67 
3 99 65 100 
3 67 66 96 
3 67 96 100 
3 72 68 69 
3 69 101 102 
3 103 69 71 
3 102 72 69 
3 101 69 103 
3 71 70 98 
3 71 104 105 
3 71 106 104 
3 71 105 103 
3 107 106 71 
3 71 98 108 
3 108 107 71 
3 82 72 109 
3 109 72 102 
3 73 110 75 
3 73 75 74 
3 111 73 78 
3 73 111 110 
3 75 112 76 
3 75 110 113 
3 112 75 113 
3 114 115 76 
3 76 112 114 
3 76 115 77 
3 77 115 93 
3 116 78 79 
3 111 78 116 
3 116 79 117 
3 117 79 81 
3 81 80 82 
3 118 81 119 
3 119 81 82 
3 117 81 118 
3 119 82 120 
3 121 120 82 
3 122 123 82 
3 109 122 82 
3 121 82 123 
3 124 83 94 
3 95 83 124 
3 125 84 85 
3 84 124 94 
3 84 125 126 
3 124 84 126 
3 85 86 127 
3 125 85 127 
3 87 128 86 
3 86 128 127 
3 129 128 87 
3 88 129 87 
3 130 129 88 
3 90 130 88 
3 91 89 92 
3 131 90 91 
3 131 132 90 
3 132 130 90 
3 91 133 131 
3 133 91 134 
3 92 134 91 
3 92 93 115 
3 92 115 114 
3 92 135 134 
3 135 92 114 
3 136 96 95 
3 137 136 95 
3 138 139 95 
3 95 124 138 
3 139 137 95 
3 140 100 96 
3 141 140 96 
3 141 96 136 
3 98 97 142 
3 142 97 99 
3 142 143 98 
3 108 98 144 
3 98 143 144 
3 145 99 140 
3 99 145 146 
3 99 100 140 
3 147 99 146 
3 99 147 142 
3 102 101 148 
3 149 148 101 
3 101 150 149 
3 103 151 101 
3 101 151 150 
3 102 152 109 
3 152 102 148 
3 151 103 105 
3 153 105 104 
3 154 104 106 
3 153 104 154 
3 151 105 153 
3 154 106 155 
3 107 155 106 
3 156 107 157 
3 107 156 155 
3 157 107 108 
3 158 108 144 
3 157 108 158 
3 122 109 152 
3 110 159 113 
3 110 111 159 
3 160 111 161 
3 162 159 111 
3 111 116 161 
3 162 111 160 
3 112 163 164 
3 113 165 112 
3 166 163 112 
3 166 112 165 
3 164 114 112 
3 113 159 165 
3 164 167 114 
3 135 114 167 
3 117 168 116 
3 169 161 116 
3 169 116 168 
3 118 168 117 
3 119 170 118 
3 170 171 118 
3 118 171 168 
3 172 170 119 
3 120 172 119 
3 171 172 120 
3 173 171 120 
3 120 174 173 
3 174 120 121 
3 121 123 175 
3 121 175 176 
3 121 176 174 
3 122 177 123 
3 122 152 177 
3 175 123 178 
3 123 177 179 
3 179 178 123 
3 180 124 181 
3 138 124 180 
3 126 181 124 
3 182 126 125 
3 127 182 125 
3 181 126 182 
3 127 183 184 
3 183 127 128 
3 127 184 182 
3 185 128 129 
3 183 128 185 
3 130 185 129 
3 186 187 130 
3 187 185 130 
3 130 132 186 
3 132 131 188 
3 188 131 133 
3 189 186 132 
3 189 132 188 
3 190 189 133 
3 189 188 133 
3 133 134 191 
3 190 133 191 
3 191 134 135 
3 135 192 191 
3 167 192 135 
3 193 141 136 
3 136 137 193 
3 194 137 139 
3 194 193 137 
3 195 139 138 
3 196 197 138 
3 195 138 197 
3 180 196 138 
3 139 195 198 
3 139 198 199 
3 139 199 194 
3 140 141 145 
3 200 145 141 
3 200 141 193 
3 143 142 147 
3 143 147 201 
3 202 144 143 
3 202 143 201 
3 144 203 158 
3 144 202 203 
3 204 146 145 
3 204 145 200 
3 146 204 147 
3 201 147 205 
3 205 147 206 
3 147 204 206 
3 148 207 152 
3 149 208 148 
3 148 208 207 
3 150 209 149 
3 149 209 208 
3 151 210 150 
3 150 210 211 
3 212 209 150 
3 212 150 211 
3 151 213 210 
3 153 213 151 
3 207 177 152 
3 153 214 213 
3 154 214 153 
3 154 215 214 
3 155 215 154 
3 155 156 215 
3 157 216 156 
3 156 216 217 
3 156 217 215 
3 218 157 219 
3 158 219 157 
3 157 218 216 
3 158 203 219 
3 159 162 165 
3 160 161 169 
3 220 162 160 
3 160 169 220 
3 221 165 162 
3 162 220 222 
3 222 221 162 
3 163 223 164 
3 224 223 163 
3 163 225 224 
3 225 163 166 
3 223 226 164 
3 226 167 164 
3 227 165 221 
3 165 227 166 
3 166 227 225 
3 228 167 226 
3 192 167 228 
3 229 168 230 
3 229 169 168 
3 171 231 168 
3 230 168 231 
3 169 229 220 
3 171 170 172 
3 231 171 173 
3 232 173 174 
3 173 233 231 
3 233 173 232 
3 234 232 174 
3 174 176 235 
3 174 235 236 
3 234 174 236 
3 178 237 175 
3 176 175 238 
3 175 237 238 
3 176 238 235 
3 177 207 239 
3 177 239 179 
3 179 239 178 
3 178 239 240 
3 237 178 241 
3 241 178 240 
3 181 242 180 
3 242 243 180 
3 244 180 243 
3 245 180 244 
3 245 196 180 
3 242 181 182 
3 246 182 184 
3 182 246 242 
3 247 184 183 
3 248 183 185 
3 183 248 247 
3 184 247 246 
3 248 185 187 
3 186 248 187 
3 249 250 186 
3 186 250 248 
3 249 186 189 
3 190 249 189 
3 251 249 190 
3 252 251 190 
3 253 252 190 
3 190 191 254 
3 254 253 190 
3 254 191 228 
3 191 192 228 
3 193 255 256 
3 256 200 193 
3 257 193 194 
3 193 257 258 
3 258 259 193 
3 255 193 259 
3 194 199 260 
3 194 260 257 
3 197 261 195 
3 198 195 261 
3 197 196 262 
3 245 262 196 
3 197 262 245 
3 245 263 197 
3 263 261 197 
3 263 264 198 
3 198 261 263 
3 199 198 265 
3 265 198 264 
3 265 266 199 
3 260 199 266 
3 200 206 204 
3 267 206 200 
3 267 200 256 
3 268 202 201 
3 269 268 201 
3 269 201 205 
3 202 268 203 
3 203 270 219 
3 203 271 270 
3 271 203 268 
3 272 273 205 
3 273 274 205 
3 205 274 275 
3 205 206 272 
3 205 275 269 
3 272 206 267 
3 207 208 276 
3 207 276 277 
3 239 207 277 
3 209 278 208 
3 276 208 278 
3 209 279 278 
3 212 279 209 
3 210 213 280 
3 280 211 210 
3 280 212 211 
3 280 279 212 
3 214 281 213 
3 280 213 282 
3 213 281 282 
3 281 214 215 
3 215 217 281 
3 218 283 216 
3 217 216 284 
3 284 216 283 
3 284 285 217 
3 281 217 285 
3 219 270 218 
3 270 286 218 
3 283 218 286 
3 220 287 288 
3 287 220 229 
3 222 220 288 
3 288 289 221 
3 227 221 290 
3 290 221 289 
3 288 221 222 
3 291 223 224 
3 292 226 223 
3 292 223 291 
3 291 224 293 
3 224 225 293 
3 294 225 227 
3 293 225 295 
3 295 225 294 
3 292 228 226 
3 227 290 296 
3 296 294 227 
3 254 228 292 
3 297 229 230 
3 229 297 287 
3 298 230 233 
3 297 230 298 
3 231 233 230 
3 299 300 232 
3 300 298 232 
3 298 233 232 
3 301 232 234 
3 301 299 232 
3 236 301 234 
3 235 238 302 
3 236 235 302 
3 236 303 301 
3 236 304 303 
3 236 302 304 
3 237 241 238 
3 238 241 305 
3 305 306 238 
3 302 238 306 
3 307 240 239 
3 277 307 239 
3 240 305 241 
3 240 307 305 
3 308 243 242 
3 309 242 246 
3 242 309 310 
3 310 308 242 
3 244 243 308 
3 311 244 312 
3 313 264 244 
3 312 244 308 
3 264 245 244 
3 313 244 314 
3 314 244 311 
3 264 263 245 
3 309 246 315 
3 247 315 246 
3 316 247 317 
3 250 247 248 
3 317 247 250 
3 316 318 247 
3 247 318 315 
3 251 250 249 
3 317 250 251 
3 252 317 251 
3 319 252 253 
3 252 316 317 
3 316 252 319 
3 253 320 321 
3 253 254 320 
3 322 253 321 
3 323 253 322 
3 323 319 253 
3 320 254 292 
3 324 256 255 
3 259 324 255 
3 324 267 256 
3 325 326 257 
3 326 258 257 
3 325 257 327 
3 266 327 257 
3 266 257 260 
3 258 326 259 
3 326 328 259 
3 259 272 324 
3 329 259 328 
3 329 272 259 
3 264 330 331 
3 330 264 313 
3 264 331 265 
3 332 266 265 
3 332 265 331 
3 333 327 266 
3 334 266 332 
3 334 335 266 
3 335 333 266 
3 272 267 324 
3 269 336 268 
3 268 336 337 
3 337 271 268 
3 338 336 269 
3 338 269 339 
3 339 269 275 
3 340 270 271 
3 286 270 340 
3 340 271 337 
3 341 273 272 
3 272 329 341 
3 341 342 273 
3 342 274 273 
3 343 344 274 
3 274 345 343 
3 344 275 274 
3 274 342 345 
3 346 339 275 
3 346 275 344 
3 278 347 276 
3 347 277 276 
3 277 347 348 
3 307 277 349 
3 349 277 348 
3 347 278 279 
3 350 347 279 
3 279 280 350 
3 280 282 350 
3 285 282 281 
3 282 285 351 
3 351 352 282 
3 352 350 282 
3 283 286 353 
3 283 354 355 
3 283 353 354 
3 283 356 284 
3 283 355 356 
3 285 284 357 
3 356 357 284 
3 358 285 357 
3 351 285 358 
3 340 353 286 
3 288 287 359 
3 297 360 287 
3 361 362 287 
3 359 287 362 
3 287 360 361 
3 289 288 359 
3 289 359 363 
3 290 289 364 
3 363 365 289 
3 364 289 365 
3 290 366 296 
3 366 290 364 
3 293 367 291 
3 291 368 292 
3 368 291 367 
3 292 369 320 
3 369 292 368 
3 367 293 295 
3 294 296 295 
3 370 371 295 
3 295 296 366 
3 366 372 295 
3 295 372 373 
3 295 373 374 
3 371 367 295 
3 370 295 374 
3 375 297 298 
3 360 297 375 
3 298 376 375 
3 298 300 376 
3 300 299 377 
3 299 301 378 
3 299 379 377 
3 379 299 378 
3 376 300 377 
3 378 301 303 
3 302 306 380 
3 380 381 302 
3 304 302 381 
3 378 303 382 
3 382 303 304 
3 382 304 383 
3 384 304 381 
3 383 304 384 
3 305 307 385 
3 306 305 386 
3 387 386 305 
3 305 385 387 
3 380 306 386 
3 385 307 349 
3 308 388 389 
3 388 308 310 
3 308 389 312 
3 309 315 310 
3 318 310 315 
3 310 318 390 
3 310 390 388 
3 311 312 391 
3 392 314 311 
3 311 391 392 
3 312 389 388 
3 393 312 388 
3 391 312 393 
3 394 330 313 
3 313 314 394 
3 392 394 314 
3 390 318 316 
3 319 390 316 
3 319 388 390 
3 323 395 319 
3 393 319 395 
3 388 319 393 
3 396 321 320 
3 396 320 369 
3 321 396 397 
3 397 398 321 
3 322 321 398 
3 322 399 323 
3 322 398 400 
3 401 322 400 
3 399 322 402 
3 402 322 401 
3 403 404 323 
3 399 403 323 
3 395 323 404 
3 328 326 325 
3 405 325 327 
3 325 341 328 
3 325 406 341 
3 325 405 406 
3 407 405 327 
3 327 333 407 
3 328 341 329 
3 408 331 330 
3 409 408 330 
3 409 330 394 
3 410 331 411 
3 410 332 331 
3 331 408 411 
3 332 412 334 
3 413 332 410 
3 412 332 413 
3 414 407 333 
3 414 333 335 
3 335 334 415 
3 416 415 334 
3 416 334 412 
3 335 417 414 
3 415 417 335 
3 336 338 418 
3 419 337 336 
3 336 418 419 
3 337 419 340 
3 338 339 420 
3 418 338 420 
3 346 421 339 
3 421 422 339 
3 422 420 339 
3 340 419 353 
3 342 341 423 
3 423 341 424 
3 424 341 406 
3 345 342 423 
3 344 343 346 
3 425 426 343 
3 343 427 425 
3 426 346 343 
3 427 343 345 
3 428 345 423 
3 345 428 427 
3 429 346 426 
3 421 346 429 
3 430 431 347 
3 347 350 430 
3 431 348 347 
3 348 431 432 
3 349 348 433 
3 432 433 348 
3 385 349 433 
3 352 430 350 
3 352 351 358 
3 358 430 352 
3 419 354 353 
3 355 354 434 
3 354 419 434 
3 355 435 356 
3 436 435 355 
3 434 418 355 
3 355 418 436 
3 435 437 356 
3 438 356 439 
3 439 356 440 
3 357 356 438 
3 440 356 437 
3 438 358 357 
3 430 358 438 
3 363 359 362 
3 361 360 375 
3 362 361 441 
3 375 376 361 
3 441 361 376 
3 362 365 363 
3 442 365 362 
3 362 443 442 
3 362 441 444 
3 445 443 362 
3 444 445 362 
3 372 366 364 
3 446 372 364 
3 364 447 448 
3 448 449 364 
3 364 449 446 
3 365 447 364 
3 447 365 450 
3 365 442 450 
3 371 368 367 
3 451 397 368 
3 368 371 452 
3 368 396 369 
3 397 396 368 
3 451 368 452 
3 453 371 370 
3 374 454 370 
3 370 454 453 
3 452 371 453 
3 373 372 446 
3 455 373 446 
3 456 373 455 
3 374 373 456 
3 374 456 457 
3 458 374 459 
3 457 459 374 
3 374 458 454 
3 460 461 376 
3 377 460 376 
3 376 461 441 
3 377 462 460 
3 462 377 379 
3 378 382 463 
3 379 378 464 
3 463 464 378 
3 464 462 379 
3 381 380 465 
3 466 380 386 
3 380 466 467 
3 465 380 468 
3 468 380 467 
3 381 465 384 
3 382 383 469 
3 470 382 469 
3 463 382 470 
3 383 384 471 
3 469 383 471 
3 472 384 473 
3 472 471 384 
3 384 465 473 
3 385 474 387 
3 433 474 385 
3 386 387 475 
3 475 476 386 
3 386 476 477 
3 386 477 466 
3 478 479 387 
3 479 475 387 
3 387 474 478 
3 393 480 391 
3 392 391 480 
3 481 392 482 
3 392 481 394 
3 482 392 483 
3 392 480 483 
3 484 393 404 
3 404 393 395 
3 484 485 393 
3 486 480 393 
3 486 393 485 
3 487 394 488 
3 394 487 409 
3 488 394 481 
3 397 451 398 
3 398 451 453 
3 489 400 398 
3 453 489 398 
3 403 399 402 
3 485 401 400 
3 400 490 485 
3 491 490 400 
3 400 489 491 
3 401 485 402 
3 403 402 484 
3 484 402 485 
3 404 403 484 
3 424 406 405 
3 405 407 424 
3 492 424 407 
3 414 492 407 
3 408 409 493 
3 493 411 408 
3 409 487 494 
3 493 409 494 
3 411 413 410 
3 495 413 411 
3 493 495 411 
3 496 412 413 
3 412 496 416 
3 495 497 413 
3 498 496 413 
3 499 413 497 
3 498 413 499 
3 500 501 414 
3 414 501 492 
3 500 414 417 
3 415 502 417 
3 415 503 504 
3 505 415 416 
3 504 502 415 
3 506 503 415 
3 415 505 506 
3 507 416 496 
3 416 508 509 
3 509 505 416 
3 508 416 507 
3 510 417 511 
3 510 512 417 
3 417 512 500 
3 417 502 511 
3 418 434 419 
3 418 420 436 
3 513 420 422 
3 420 513 436 
3 421 429 514 
3 513 422 421 
3 513 421 514 
3 423 501 428 
3 515 501 423 
3 515 423 424 
3 424 492 515 
3 425 516 426 
3 517 425 518 
3 517 516 425 
3 518 425 427 
3 429 426 516 
3 518 427 519 
3 519 427 428 
3 520 519 428 
3 500 428 501 
3 520 428 500 
3 521 514 429 
3 429 516 521 
3 431 430 438 
3 438 432 431 
3 432 438 439 
3 522 523 432 
3 439 522 432 
3 432 523 524 
3 525 433 432 
3 432 526 525 
3 526 432 524 
3 478 433 525 
3 478 474 433 
3 527 435 436 
3 435 527 437 
3 436 528 527 
3 529 436 513 
3 528 436 529 
3 440 437 530 
3 527 530 437 
3 522 439 440 
3 523 522 440 
3 523 440 531 
3 531 440 532 
3 440 530 533 
3 533 532 440 
3 444 441 461 
3 442 534 450 
3 534 442 443 
3 443 535 534 
3 535 443 445 
3 461 536 444 
3 537 538 444 
3 536 539 444 
3 444 538 445 
3 444 539 537 
3 535 445 538 
3 446 449 455 
3 540 448 447 
3 450 541 447 
3 447 541 540 
3 448 540 542 
3 449 448 542 
3 542 455 449 
3 541 450 542 
3 542 450 543 
3 450 534 544 
3 543 450 545 
3 450 544 545 
3 452 453 451 
3 454 546 453 
3 489 453 546 
3 458 546 454 
3 456 455 542 
3 456 542 547 
3 457 456 547 
3 459 457 548 
3 547 548 457 
3 459 549 458 
3 458 549 546 
3 550 459 551 
3 459 548 551 
3 549 459 550 
3 460 552 461 
3 460 462 553 
3 460 553 552 
3 552 536 461 
3 462 464 554 
3 462 554 555 
3 462 555 553 
3 464 463 556 
3 470 557 463 
3 556 463 557 
3 556 554 464 
3 558 473 465 
3 465 559 558 
3 465 468 559 
3 466 477 560 
3 467 466 560 
3 467 560 561 
3 468 467 561 
3 562 559 468 
3 561 563 468 
3 564 468 563 
3 564 565 468 
3 562 468 565 
3 469 566 470 
3 566 469 471 
3 567 568 470 
3 470 566 567 
3 569 470 568 
3 557 470 569 
3 471 472 570 
3 566 471 570 
3 472 473 558 
3 558 571 472 
3 472 571 572 
3 572 570 472 
3 475 479 573 
3 475 573 476 
3 476 573 574 
3 575 477 476 
3 476 574 575 
3 576 560 477 
3 477 575 576 
3 479 478 577 
3 478 525 577 
3 578 479 577 
3 479 578 573 
3 483 480 486 
3 579 481 482 
3 580 481 579 
3 488 481 580 
3 483 581 482 
3 482 582 579 
3 582 482 581 
3 583 483 486 
3 581 483 583 
3 486 485 584 
3 490 584 485 
3 486 585 583 
3 584 585 486 
3 494 487 488 
3 494 488 580 
3 546 586 489 
3 491 489 587 
3 489 586 588 
3 588 587 489 
3 589 490 491 
3 590 490 589 
3 590 584 490 
3 491 587 591 
3 589 491 592 
3 592 491 591 
3 501 515 492 
3 494 593 493 
3 594 493 595 
3 493 594 596 
3 493 593 595 
3 493 596 499 
3 493 499 497 
3 497 495 493 
3 580 593 494 
3 496 498 507 
3 507 498 597 
3 498 499 596 
3 596 597 498 
3 512 520 500 
3 504 511 502 
3 598 504 503 
3 506 599 503 
3 599 600 503 
3 601 598 503 
3 503 600 602 
3 601 503 603 
3 503 604 603 
3 605 503 602 
3 604 503 605 
3 606 511 504 
3 606 504 607 
3 607 504 598 
3 505 509 506 
3 599 506 509 
3 608 507 609 
3 597 609 507 
3 507 608 508 
3 599 509 508 
3 508 608 599 
3 511 606 510 
3 606 610 510 
3 610 512 510 
3 512 610 611 
3 611 520 512 
3 529 513 514 
3 514 521 529 
3 521 516 612 
3 516 517 612 
3 613 517 518 
3 517 613 612 
3 611 518 519 
3 518 611 614 
3 613 518 614 
3 611 519 520 
3 615 521 616 
3 612 616 521 
3 529 521 615 
3 523 531 617 
3 524 523 617 
3 524 618 526 
3 524 619 618 
3 619 524 617 
3 526 577 525 
3 620 577 526 
3 621 622 526 
3 526 618 623 
3 621 526 623 
3 620 526 622 
3 527 624 533 
3 533 530 527 
3 624 527 528 
3 528 625 624 
3 625 528 529 
3 615 626 529 
3 627 529 626 
3 625 529 627 
3 617 531 532 
3 624 628 532 
3 532 628 617 
3 532 533 624 
3 544 534 629 
3 535 629 534 
3 538 629 535 
3 536 552 553 
3 553 555 536 
3 555 539 536 
3 538 537 630 
3 537 539 556 
3 537 556 630 
3 631 538 632 
3 629 538 631 
3 632 538 630 
3 539 555 554 
3 556 539 554 
3 542 540 541 
3 543 633 542 
3 633 547 542 
3 634 635 543 
3 543 545 634 
3 635 633 543 
3 636 544 629 
3 545 544 636 
3 545 637 638 
3 636 639 545 
3 545 639 640 
3 638 634 545 
3 640 637 545 
3 546 549 641 
3 586 546 641 
3 547 642 548 
3 642 547 633 
3 551 548 642 
3 641 549 550 
3 643 550 551 
3 550 643 644 
3 645 641 550 
3 645 550 646 
3 646 550 644 
3 643 551 642 
3 556 647 630 
3 556 557 648 
3 647 556 648 
3 648 557 569 
3 558 559 562 
3 558 562 565 
3 558 565 571 
3 561 560 576 
3 563 561 576 
3 649 564 563 
3 563 576 649 
3 565 564 650 
3 564 649 651 
3 650 564 651 
3 652 653 565 
3 650 652 565 
3 571 565 653 
3 570 567 566 
3 568 567 654 
3 567 570 655 
3 567 655 654 
3 569 568 656 
3 654 657 568 
3 568 657 656 
3 658 569 656 
3 658 648 569 
3 570 572 655 
3 659 572 571 
3 659 571 660 
3 660 571 653 
3 655 572 659 
3 573 578 661 
3 661 662 573 
3 662 574 573 
3 663 575 574 
3 662 664 574 
3 574 664 663 
3 576 575 663 
3 649 576 665 
3 665 576 663 
3 577 620 578 
3 666 578 620 
3 661 578 666 
3 667 580 579 
3 667 579 582 
3 668 580 667 
3 580 668 593 
3 581 583 585 
3 669 581 585 
3 670 582 581 
3 670 581 669 
3 667 582 670 
3 590 671 584 
3 585 584 671 
3 585 672 669 
3 672 585 673 
3 671 673 585 
3 586 641 645 
3 674 586 645 
3 588 586 674 
3 591 587 675 
3 588 675 587 
3 676 677 588 
3 588 678 675 
3 678 588 679 
3 677 679 588 
3 676 588 674 
3 680 589 592 
3 671 590 589 
3 589 680 671 
3 592 591 681 
3 675 681 591 
3 592 681 682 
3 680 592 683 
3 683 592 682 
3 595 593 684 
3 684 593 668 
3 594 595 685 
3 686 596 594 
3 687 688 594 
3 594 685 687 
3 686 594 688 
3 685 595 689 
3 689 595 684 
3 686 597 596 
3 686 690 597 
3 691 597 690 
3 597 691 692 
3 692 609 597 
3 693 607 598 
3 598 694 693 
3 598 601 694 
3 599 695 696 
3 696 697 599 
3 698 695 599 
3 599 697 699 
3 599 608 698 
3 699 600 599 
3 602 600 699 
3 694 601 700 
3 601 701 700 
3 701 601 702 
3 603 702 601 
3 703 704 602 
3 602 705 703 
3 706 605 602 
3 707 708 602 
3 602 699 705 
3 602 709 707 
3 602 704 709 
3 602 708 710 
3 602 710 706 
3 603 711 702 
3 712 603 604 
3 711 603 712 
3 713 604 714 
3 605 714 604 
3 604 713 715 
3 604 715 712 
3 605 716 717 
3 717 714 605 
3 718 605 706 
3 716 605 719 
3 605 718 720 
3 720 719 605 
3 607 721 606 
3 610 606 721 
3 607 693 722 
3 607 722 721 
3 609 698 608 
3 723 698 609 
3 723 609 724 
3 724 609 692 
3 610 725 614 
3 614 611 610 
3 722 725 610 
3 722 610 721 
3 726 612 613 
3 727 616 612 
3 727 612 726 
3 728 613 614 
3 613 728 726 
3 614 725 729 
3 728 614 729 
3 615 616 727 
3 727 730 615 
3 626 615 730 
3 619 617 628 
3 618 731 732 
3 618 619 731 
3 623 618 733 
3 733 618 732 
3 731 619 628 
3 665 666 620 
3 665 620 622 
3 651 622 621 
3 623 734 621 
3 621 734 735 
3 735 651 621 
3 651 649 622 
3 649 665 622 
3 623 736 734 
3 733 736 623 
3 625 737 624 
3 628 624 738 
3 624 739 738 
3 737 739 624 
3 625 627 740 
3 625 740 737 
3 626 730 741 
3 741 742 626 
3 627 626 743 
3 744 626 742 
3 626 744 745 
3 745 743 626 
3 740 627 746 
3 746 627 743 
3 731 628 738 
3 631 747 629 
3 747 748 629 
3 629 748 636 
3 749 632 630 
3 749 630 647 
3 747 631 632 
3 750 751 632 
3 751 747 632 
3 749 750 632 
3 642 633 752 
3 753 752 633 
3 753 633 635 
3 635 634 638 
3 754 753 635 
3 755 754 635 
3 755 635 638 
3 639 636 756 
3 748 756 636 
3 757 638 637 
3 640 757 637 
3 638 757 755 
3 758 640 639 
3 759 758 639 
3 639 756 759 
3 758 760 640 
3 757 640 761 
3 640 762 761 
3 762 640 763 
3 640 760 764 
3 763 640 764 
3 642 752 644 
3 642 644 643 
3 644 765 766 
3 767 644 766 
3 644 752 765 
3 767 768 644 
3 768 646 644 
3 645 646 769 
3 769 770 645 
3 771 674 645 
3 770 771 645 
3 769 646 768 
3 772 749 647 
3 772 647 658 
3 658 647 648 
3 773 650 735 
3 651 735 650 
3 652 650 773 
3 653 652 774 
3 773 774 652 
3 774 775 653 
3 660 653 775 
3 654 655 659 
3 657 654 660 
3 654 659 660 
3 656 776 658 
3 656 657 777 
3 776 656 778 
3 778 656 777 
3 779 657 660 
3 780 777 657 
3 779 780 657 
3 658 781 772 
3 776 781 658 
3 775 779 660 
3 662 661 666 
3 666 664 662 
3 665 663 664 
3 666 665 664 
3 782 667 670 
3 667 782 783 
3 668 667 684 
3 783 684 667 
3 669 672 670 
3 670 672 673 
3 673 784 670 
3 670 784 782 
3 785 673 671 
3 785 671 786 
3 786 671 680 
3 784 673 787 
3 787 673 785 
3 674 771 788 
3 674 788 676 
3 681 675 682 
3 678 682 675 
3 676 789 677 
3 676 788 790 
3 791 789 676 
3 790 791 676 
3 679 677 792 
3 677 793 792 
3 789 793 677 
3 792 678 679 
3 792 682 678 
3 683 794 680 
3 786 680 794 
3 683 682 792 
3 795 683 796 
3 795 794 683 
3 793 796 683 
3 683 792 793 
3 689 684 783 
3 689 797 685 
3 687 685 797 
3 688 690 686 
3 688 687 798 
3 687 797 798 
3 798 799 688 
3 688 800 801 
3 801 690 688 
3 688 799 802 
3 800 688 802 
3 803 797 689 
3 783 803 689 
3 690 801 691 
3 804 692 691 
3 691 805 804 
3 691 801 805 
3 692 804 806 
3 724 692 806 
3 722 693 807 
3 694 807 693 
3 807 694 808 
3 700 808 694 
3 696 695 809 
3 698 723 695 
3 724 695 723 
3 810 809 695 
3 695 724 810 
3 697 696 809 
3 697 809 811 
3 811 812 697 
3 699 697 812 
3 699 812 705 
3 813 814 700 
3 814 808 700 
3 815 813 700 
3 815 700 701 
3 815 701 816 
3 702 816 701 
3 817 816 702 
3 817 702 711 
3 704 703 818 
3 809 818 703 
3 811 809 703 
3 703 705 811 
3 819 709 704 
3 819 704 818 
3 811 705 812 
3 820 706 710 
3 706 820 718 
3 708 707 821 
3 707 709 819 
3 707 819 821 
3 821 822 708 
3 708 820 710 
3 820 708 822 
3 712 823 711 
3 824 817 711 
3 824 711 825 
3 825 711 823 
3 826 823 712 
3 826 712 715 
3 713 714 827 
3 828 713 827 
3 715 713 828 
3 714 829 827 
3 714 717 829 
3 828 826 715 
3 716 830 717 
3 827 830 716 
3 831 827 716 
3 719 832 716 
3 716 832 831 
3 830 829 717 
3 720 718 822 
3 718 820 822 
3 833 719 720 
3 832 719 833 
3 834 720 822 
3 720 834 835 
3 720 835 833 
3 836 725 722 
3 836 722 837 
3 807 837 722 
3 810 724 806 
3 838 725 836 
3 729 725 838 
3 726 728 729 
3 729 839 726 
3 726 839 840 
3 727 726 840 
3 727 841 730 
3 842 841 727 
3 727 840 842 
3 838 839 729 
3 841 741 730 
3 738 732 731 
3 732 843 844 
3 732 738 845 
3 843 732 845 
3 732 844 733 
3 733 846 847 
3 844 846 733 
3 733 847 736 
3 734 736 848 
3 848 735 734 
3 735 849 773 
3 848 850 735 
3 851 849 735 
3 735 850 851 
3 736 847 848 
3 739 737 852 
3 737 740 853 
3 853 852 737 
3 845 738 739 
3 739 852 845 
3 740 746 853 
3 741 841 842 
3 854 741 842 
3 741 854 742 
3 855 742 854 
3 742 855 744 
3 745 746 743 
3 745 744 856 
3 857 744 855 
3 856 744 857 
3 745 858 859 
3 745 859 746 
3 856 858 745 
3 853 746 860 
3 746 859 860 
3 747 751 861 
3 861 862 747 
3 748 747 862 
3 756 748 759 
3 748 862 759 
3 772 750 749 
3 751 750 863 
3 864 750 865 
3 863 750 864 
3 865 750 772 
3 863 866 751 
3 861 751 866 
3 765 752 753 
3 765 753 766 
3 766 753 754 
3 867 766 754 
3 867 754 868 
3 868 754 755 
3 869 755 757 
3 869 868 755 
3 870 869 757 
3 761 870 757 
3 758 759 871 
3 871 872 758 
3 758 872 873 
3 758 873 874 
3 758 874 760 
3 759 862 871 
3 760 875 764 
3 875 760 874 
3 876 870 761 
3 876 761 762 
3 877 876 762 
3 878 762 763 
3 878 877 762 
3 879 763 764 
3 763 879 880 
3 878 763 880 
3 764 881 882 
3 764 875 883 
3 882 879 764 
3 781 884 764 
3 764 884 881 
3 764 883 781 
3 867 767 766 
3 767 885 768 
3 886 767 867 
3 885 767 886 
3 769 768 887 
3 887 768 885 
3 888 770 769 
3 888 769 887 
3 771 770 888 
3 888 889 771 
3 890 788 771 
3 890 771 889 
3 891 892 772 
3 892 865 772 
3 781 891 772 
3 893 773 849 
3 773 893 774 
3 775 774 894 
3 774 895 896 
3 895 774 893 
3 894 774 896 
3 894 779 775 
3 897 898 776 
3 776 778 897 
3 776 898 781 
3 778 777 780 
3 899 897 778 
3 780 900 778 
3 778 901 899 
3 901 778 900 
3 894 780 779 
3 894 902 780 
3 900 780 902 
3 883 891 781 
3 898 884 781 
3 903 782 784 
3 783 782 904 
3 782 903 905 
3 905 904 782 
3 783 906 803 
3 783 904 906 
3 787 907 784 
3 907 908 784 
3 784 908 903 
3 785 909 910 
3 909 785 786 
3 787 785 910 
3 786 794 911 
3 909 786 911 
3 907 787 910 
3 912 790 788 
3 890 912 788 
3 796 793 789 
3 913 914 789 
3 789 914 796 
3 789 791 913 
3 913 791 790 
3 913 790 915 
3 912 915 790 
3 794 795 916 
3 916 917 794 
3 911 794 917 
3 795 796 918 
3 795 918 919 
3 919 916 795 
3 796 914 918 
3 803 798 797 
3 920 798 803 
3 798 920 799 
3 921 799 920 
3 802 799 921 
3 805 801 800 
3 800 802 922 
3 800 922 805 
3 922 802 923 
3 923 802 921 
3 906 924 803 
3 920 803 924 
3 925 806 804 
3 804 805 926 
3 926 925 804 
3 926 805 922 
3 810 806 925 
3 927 837 807 
3 927 807 808 
3 814 927 808 
3 809 810 818 
3 928 929 810 
3 925 928 810 
3 818 810 929 
3 930 814 813 
3 813 815 931 
3 931 930 813 
3 927 814 932 
3 932 814 930 
3 815 816 933 
3 933 931 815 
3 816 934 933 
3 934 816 817 
3 935 934 817 
3 817 824 935 
3 819 818 936 
3 818 929 936 
3 819 936 937 
3 821 819 937 
3 822 821 938 
3 937 938 821 
3 939 940 822 
3 822 941 834 
3 939 822 938 
3 942 941 822 
3 822 940 942 
3 823 943 825 
3 823 944 943 
3 823 826 944 
3 824 945 933 
3 935 824 933 
3 945 824 825 
3 945 825 943 
3 946 944 826 
3 947 826 828 
3 826 947 946 
3 830 827 829 
3 831 828 827 
3 948 828 831 
3 947 828 949 
3 948 949 828 
3 950 951 831 
3 831 952 948 
3 950 831 832 
3 951 952 831 
3 832 953 954 
3 954 950 832 
3 955 832 833 
3 832 955 956 
3 956 953 832 
3 833 957 958 
3 833 835 959 
3 833 959 960 
3 960 957 833 
3 958 955 833 
3 835 834 959 
3 959 834 941 
3 961 838 836 
3 962 963 836 
3 836 963 961 
3 964 962 836 
3 964 836 965 
3 837 965 836 
3 927 965 837 
3 839 838 961 
3 961 840 839 
3 840 966 842 
3 966 840 961 
3 842 966 854 
3 843 967 844 
3 843 845 968 
3 843 969 970 
3 843 968 971 
3 971 969 843 
3 970 967 843 
3 967 846 844 
3 845 853 972 
3 845 852 853 
3 845 972 968 
3 846 973 847 
3 973 846 974 
3 846 967 974 
3 848 847 975 
3 975 847 973 
3 850 848 975 
3 976 893 849 
3 976 849 851 
3 850 975 977 
3 851 850 977 
3 978 979 851 
3 851 979 980 
3 980 976 851 
3 977 978 851 
3 860 981 853 
3 853 981 972 
3 854 966 961 
3 982 855 854 
3 854 961 963 
3 854 963 983 
3 983 982 854 
3 855 982 857 
3 984 858 856 
3 856 860 984 
3 981 860 856 
3 985 856 857 
3 986 981 856 
3 856 985 986 
3 987 985 857 
3 857 982 983 
3 987 857 983 
3 858 984 859 
3 984 860 859 
3 861 988 871 
3 862 861 871 
3 988 861 866 
3 864 866 863 
3 989 866 864 
3 864 865 990 
3 989 864 990 
3 990 865 892 
3 866 989 991 
3 866 991 988 
3 886 867 868 
3 992 886 868 
3 868 993 992 
3 868 994 993 
3 994 868 869 
3 869 870 995 
3 869 995 994 
3 870 876 996 
3 870 996 995 
3 871 988 872 
3 872 988 991 
3 872 997 873 
3 991 997 872 
3 997 874 873 
3 989 874 997 
3 990 874 989 
3 874 990 875 
3 875 990 883 
3 877 996 876 
3 998 999 877 
3 996 877 999 
3 877 878 1000 
3 998 877 1000 
3 878 1001 1002 
3 878 880 1001 
3 1002 1000 878 
3 879 1003 1001 
3 1003 879 882 
3 1001 880 879 
3 882 881 1004 
3 881 884 1005 
3 1005 1004 881 
3 882 1006 1003 
3 1006 882 1004 
3 883 892 891 
3 990 892 883 
3 884 1007 1005 
3 1008 1007 884 
3 884 898 1008 
3 1009 887 885 
3 1009 885 886 
3 886 1010 1009 
3 1011 1010 886 
3 1012 886 992 
3 1011 886 1012 
3 1013 888 887 
3 1014 1013 887 
3 1014 887 1009 
3 889 888 1013 
3 1015 890 889 
3 1016 889 1014 
3 1015 889 1016 
3 889 1013 1014 
3 1017 915 890 
3 915 912 890 
3 890 1018 1017 
3 1018 890 1015 
3 893 976 1019 
3 893 1019 895 
3 894 896 902 
3 895 1019 896 
3 896 1019 976 
3 896 976 1020 
3 1020 902 896 
3 898 897 1008 
3 897 1021 1022 
3 899 1021 897 
3 897 1022 1008 
3 899 901 1021 
3 901 900 902 
3 1021 901 1023 
3 1020 901 902 
3 1023 901 1020 
3 1024 903 908 
3 1024 1025 903 
3 905 903 1025 
3 904 1026 1027 
3 1027 906 904 
3 1028 904 905 
3 1029 904 1028 
3 1029 1026 904 
3 905 1030 1028 
3 905 1025 1030 
3 906 1031 924 
3 1031 906 1032 
3 1032 906 1027 
3 907 910 911 
3 911 1033 907 
3 908 907 1034 
3 1035 1034 907 
3 1033 1035 907 
3 1036 908 1037 
3 908 1034 1037 
3 1036 1024 908 
3 911 910 909 
3 1038 911 917 
3 911 1038 1033 
3 913 1039 914 
3 913 915 1017 
3 913 1018 1039 
3 1017 1018 913 
3 914 1039 1040 
3 914 1040 1041 
3 919 918 914 
3 914 1042 919 
3 1041 1042 914 
3 917 916 1043 
3 1042 1043 916 
3 1042 916 919 
3 1038 917 1044 
3 1044 917 1045 
3 1043 1045 917 
3 924 1046 920 
3 921 920 1046 
3 923 921 1046 
3 1047 922 923 
3 922 1047 926 
3 923 1048 1047 
3 1048 923 1049 
3 1046 1049 923 
3 1046 924 1050 
3 1050 924 1031 
3 928 925 926 
3 1048 926 1047 
3 1051 926 1048 
3 926 1051 928 
3 965 927 932 
3 936 929 928 
3 1052 936 928 
3 1052 928 1051 
3 1053 932 930 
3 930 1054 1053 
3 930 1055 1054 
3 1055 930 931 
3 933 1055 931 
3 932 1056 965 
3 1057 1058 932 
3 1058 1056 932 
3 1053 1057 932 
3 933 934 935 
3 1059 933 945 
3 933 1059 1060 
3 933 1060 1055 
3 1061 937 936 
3 936 1052 1061 
3 937 1062 938 
3 1061 1062 937 
3 1062 1063 938 
3 938 1063 1064 
3 938 1064 939 
3 940 939 1065 
3 939 1064 1065 
3 940 1065 1066 
3 1067 940 1066 
3 1068 942 940 
3 940 1067 1068 
3 942 1068 941 
3 1068 1069 941 
3 1070 959 941 
3 1071 941 1069 
3 1071 1070 941 
3 943 944 1072 
3 1073 945 943 
3 943 1072 1073 
3 946 1072 944 
3 945 1074 1059 
3 945 1073 1074 
3 1075 946 1076 
3 1077 1072 946 
3 946 1078 1077 
3 947 1076 946 
3 1078 946 1075 
3 947 949 1076 
3 1079 949 948 
3 1080 1079 948 
3 1080 948 952 
3 1081 1076 949 
3 1081 949 1079 
3 951 950 1082 
3 1082 950 954 
3 1083 1084 951 
3 951 1082 1083 
3 1084 952 951 
3 1080 952 1084 
3 1085 954 953 
3 956 1085 953 
3 1086 1082 954 
3 1087 1086 954 
3 1087 954 1088 
3 1088 954 1085 
3 958 956 955 
3 1089 956 1090 
3 1091 1085 956 
3 956 1089 1091 
3 1092 1090 956 
3 956 958 1092 
3 957 1093 958 
3 1093 957 960 
3 958 1093 1094 
3 958 1094 1092 
3 1070 1095 959 
3 959 1095 1096 
3 960 959 1096 
3 1093 960 1094 
3 1094 960 1096 
3 1097 963 962 
3 1098 962 964 
3 1099 962 1098 
3 1100 1097 962 
3 1099 1100 962 
3 983 963 1097 
3 965 1056 964 
3 1056 1098 964 
3 974 967 970 
3 972 971 968 
3 1101 970 969 
3 1102 969 971 
3 1101 969 1102 
3 970 1101 1103 
3 1103 974 970 
3 971 972 1104 
3 1104 1102 971 
3 972 981 1104 
3 1105 973 974 
3 975 973 1105 
3 977 974 1106 
3 977 1105 974 
3 974 1103 1106 
3 977 975 1105 
3 976 980 1020 
3 978 977 1107 
3 977 1106 1107 
3 979 978 1108 
3 1109 978 1110 
3 1110 978 1107 
3 978 1109 1108 
3 1111 979 1108 
3 980 979 1111 
3 1020 980 1111 
3 986 1104 981 
3 983 1097 1100 
3 987 983 1100 
3 1112 985 987 
3 1112 986 985 
3 986 1113 1114 
3 1113 986 1112 
3 1114 1104 986 
3 987 1100 1115 
3 1115 1116 987 
3 1117 1112 987 
3 1118 1117 987 
3 987 1116 1118 
3 991 989 997 
3 1119 992 993 
3 1119 1012 992 
3 1120 993 994 
3 993 1120 1119 
3 994 999 1120 
3 994 995 999 
3 995 996 999 
3 1121 999 998 
3 1121 998 1122 
3 998 1000 1123 
3 1123 1124 998 
3 1124 1122 998 
3 999 1121 1120 
3 1123 1000 1002 
3 1125 1002 1001 
3 1125 1001 1126 
3 1126 1001 1127 
3 1003 1127 1001 
3 1123 1002 1125 
3 1128 1127 1003 
3 1128 1003 1006 
3 1004 1129 1130 
3 1004 1131 1132 
3 1132 1006 1004 
3 1131 1004 1130 
3 1004 1005 1129 
3 1007 1133 1005 
3 1134 1129 1005 
3 1133 1135 1005 
3 1134 1005 1135 
3 1128 1006 1132 
3 1136 1133 1007 
3 1136 1007 1137 
3 1137 1007 1008 
3 1022 1137 1008 
3 1138 1014 1009 
3 1138 1009 1010 
3 1139 1010 1011 
3 1139 1138 1010 
3 1140 1011 1141 
3 1140 1139 1011 
3 1141 1011 1142 
3 1012 1142 1011 
3 1142 1012 1143 
3 1144 1012 1119 
3 1144 1143 1012 
3 1014 1138 1016 
3 1145 1015 1016 
3 1040 1018 1015 
3 1040 1015 1145 
3 1138 1139 1016 
3 1146 1147 1016 
3 1140 1146 1016 
3 1016 1148 1145 
3 1148 1016 1147 
3 1139 1140 1016 
3 1040 1039 1018 
3 1020 1111 1023 
3 1022 1021 1136 
3 1136 1021 1023 
3 1137 1022 1136 
3 1133 1023 1111 
3 1133 1136 1023 
3 1024 1036 1149 
3 1150 1151 1024 
3 1030 1025 1024 
3 1030 1024 1151 
3 1150 1024 1149 
3 1027 1026 1032 
3 1032 1026 1029 
3 1030 1152 1028 
3 1028 1152 1029 
3 1032 1029 1153 
3 1153 1029 1152 
3 1151 1154 1030 
3 1154 1155 1030 
3 1156 1152 1030 
3 1156 1030 1155 
3 1031 1032 1157 
3 1157 1050 1031 
3 1157 1032 1158 
3 1158 1032 1153 
3 1033 1038 1159 
3 1159 1035 1033 
3 1034 1035 1037 
3 1159 1037 1035 
3 1037 1160 1036 
3 1149 1036 1160 
3 1045 1037 1159 
3 1045 1161 1037 
3 1161 1160 1037 
3 1044 1159 1038 
3 1148 1040 1145 
3 1041 1040 1148 
3 1041 1147 1162 
3 1042 1041 1163 
3 1164 1165 1041 
3 1041 1148 1147 
3 1041 1162 1164 
3 1165 1163 1041 
3 1043 1042 1166 
3 1166 1042 1163 
3 1045 1043 1166 
3 1159 1044 1045 
3 1167 1161 1045 
3 1168 1045 1166 
3 1167 1045 1168 
3 1049 1046 1050 
3 1048 1049 1169 
3 1170 1048 1169 
3 1171 1048 1170 
3 1171 1051 1048 
3 1049 1050 1169 
3 1157 1169 1050 
3 1051 1171 1052 
3 1052 1171 1061 
3 1172 1057 1053 
3 1172 1053 1054 
3 1054 1173 1174 
3 1054 1175 1173 
3 1172 1054 1174 
3 1175 1054 1055 
3 1176 1175 1055 
3 1176 1055 1060 
3 1098 1056 1099 
3 1099 1056 1058 
3 1057 1177 1058 
3 1177 1057 1178 
3 1178 1057 1172 
3 1099 1058 1179 
3 1177 1179 1058 
3 1074 1060 1059 
3 1060 1180 1181 
3 1060 1182 1180 
3 1183 1176 1060 
3 1060 1181 1183 
3 1074 1184 1060 
3 1060 1184 1182 
3 1171 1185 1061 
3 1062 1061 1185 
3 1062 1185 1063 
3 1063 1185 1186 
3 1187 1063 1186 
3 1063 1187 1188 
3 1064 1063 1188 
3 1188 1189 1064 
3 1065 1064 1189 
3 1065 1189 1066 
3 1066 1189 1190 
3 1067 1066 1191 
3 1066 1190 1192 
3 1066 1192 1191 
3 1191 1193 1067 
3 1067 1194 1195 
3 1067 1193 1194 
3 1068 1067 1195 
3 1069 1068 1196 
3 1195 1196 1068 
3 1069 1196 1197 
3 1071 1069 1197 
3 1095 1070 1071 
3 1197 1096 1071 
3 1071 1096 1095 
3 1077 1073 1072 
3 1073 1077 1184 
3 1184 1074 1073 
3 1198 1075 1076 
3 1075 1198 1199 
3 1075 1199 1078 
3 1076 1081 1198 
3 1077 1078 1200 
3 1200 1184 1077 
3 1201 1078 1202 
3 1201 1200 1078 
3 1203 1204 1078 
3 1204 1202 1078 
3 1205 1203 1078 
3 1078 1199 1205 
3 1079 1080 1206 
3 1206 1081 1079 
3 1207 1206 1080 
3 1208 1080 1084 
3 1207 1080 1208 
3 1081 1209 1198 
3 1206 1209 1081 
3 1210 1083 1082 
3 1210 1082 1086 
3 1083 1208 1084 
3 1211 1208 1083 
3 1211 1083 1210 
3 1091 1088 1085 
3 1210 1086 1212 
3 1212 1086 1087 
3 1212 1087 1213 
3 1088 1214 1087 
3 1213 1087 1214 
3 1215 1216 1088 
3 1091 1215 1088 
3 1216 1214 1088 
3 1090 1217 1089 
3 1217 1218 1089 
3 1091 1089 1218 
3 1219 1090 1092 
3 1090 1219 1217 
3 1091 1218 1215 
3 1092 1094 1220 
3 1221 1092 1222 
3 1220 1223 1092 
3 1092 1224 1219 
3 1221 1224 1092 
3 1092 1223 1222 
3 1225 1094 1096 
3 1220 1094 1225 
3 1226 1225 1096 
3 1226 1096 1227 
3 1197 1228 1096 
3 1228 1229 1096 
3 1096 1229 1227 
3 1099 1230 1116 
3 1099 1179 1230 
3 1115 1100 1099 
3 1116 1115 1099 
3 1101 1231 1232 
3 1103 1101 1232 
3 1101 1102 1231 
3 1104 1233 1102 
3 1102 1234 1231 
3 1234 1102 1233 
3 1235 1103 1232 
3 1236 1237 1103 
3 1235 1236 1103 
3 1237 1106 1103 
3 1114 1233 1104 
3 1238 1106 1237 
3 1106 1238 1239 
3 1239 1107 1106 
3 1107 1239 1110 
3 1108 1240 1111 
3 1240 1108 1241 
3 1108 1109 1242 
3 1242 1241 1108 
3 1242 1109 1110 
3 1243 1242 1110 
3 1110 1239 1243 
3 1133 1111 1240 
3 1112 1117 1113 
3 1234 1114 1113 
3 1113 1244 1245 
3 1245 1234 1113 
3 1244 1113 1117 
3 1234 1233 1114 
3 1116 1246 1247 
3 1116 1247 1118 
3 1230 1246 1116 
3 1244 1117 1118 
3 1118 1248 1244 
3 1118 1247 1248 
3 1119 1249 1144 
3 1249 1119 1120 
3 1250 1120 1121 
3 1249 1120 1250 
3 1250 1121 1122 
3 1124 1251 1122 
3 1251 1250 1122 
3 1252 1124 1123 
3 1252 1123 1125 
3 1253 1251 1124 
3 1254 1253 1124 
3 1252 1254 1124 
3 1255 1125 1256 
3 1252 1125 1255 
3 1257 1125 1126 
3 1256 1125 1258 
3 1258 1125 1257 
3 1127 1259 1126 
3 1260 1257 1126 
3 1126 1259 1260 
3 1127 1261 1262 
3 1128 1261 1127 
3 1262 1259 1127 
3 1128 1131 1263 
3 1132 1131 1128 
3 1263 1261 1128 
3 1134 1130 1129 
3 1130 1264 1131 
3 1264 1130 1135 
3 1130 1134 1135 
3 1263 1131 1265 
3 1266 1265 1131 
3 1131 1264 1266 
3 1240 1267 1133 
3 1267 1135 1133 
3 1264 1135 1267 
3 1141 1268 1140 
3 1140 1269 1146 
3 1270 1269 1140 
3 1268 1270 1140 
3 1271 1268 1141 
3 1141 1272 1271 
3 1273 1272 1141 
3 1141 1142 1273 
3 1143 1273 1142 
3 1274 1143 1144 
3 1273 1143 1274 
3 1144 1249 1250 
3 1250 1251 1144 
3 1251 1274 1144 
3 1147 1146 1269 
3 1162 1147 1269 
3 1160 1275 1149 
3 1276 1150 1149 
3 1275 1276 1149 
3 1150 1276 1151 
3 1151 1276 1277 
3 1151 1277 1154 
3 1153 1152 1156 
3 1158 1153 1278 
3 1279 1153 1156 
3 1153 1279 1280 
3 1281 1278 1153 
3 1281 1153 1280 
3 1155 1154 1277 
3 1277 1282 1155 
3 1282 1279 1155 
3 1156 1155 1279 
3 1169 1157 1283 
3 1283 1157 1158 
3 1283 1158 1278 
3 1275 1160 1161 
3 1161 1284 1275 
3 1161 1167 1285 
3 1285 1284 1161 
3 1286 1164 1162 
3 1162 1269 1286 
3 1166 1163 1287 
3 1165 1288 1163 
3 1289 1287 1163 
3 1163 1288 1289 
3 1288 1165 1164 
3 1288 1164 1286 
3 1290 1168 1166 
3 1290 1166 1287 
3 1168 1285 1167 
3 1291 1285 1168 
3 1168 1290 1291 
3 1283 1170 1169 
3 1283 1292 1170 
3 1170 1292 1185 
3 1171 1170 1185 
3 1172 1293 1178 
3 1293 1172 1174 
3 1175 1174 1173 
3 1174 1294 1293 
3 1295 1296 1174 
3 1174 1297 1295 
3 1297 1174 1175 
3 1296 1294 1174 
3 1175 1298 1297 
3 1176 1298 1175 
3 1183 1298 1176 
3 1179 1177 1299 
3 1177 1300 1299 
3 1300 1177 1178 
3 1178 1301 1300 
3 1178 1293 1301 
3 1299 1230 1179 
3 1180 1302 1181 
3 1303 1304 1180 
3 1180 1304 1302 
3 1303 1180 1182 
3 1183 1181 1302 
3 1184 1200 1182 
3 1182 1200 1201 
3 1202 1182 1201 
3 1182 1305 1303 
3 1202 1305 1182 
3 1302 1306 1183 
3 1306 1298 1183 
3 1307 1185 1292 
3 1185 1307 1186 
3 1186 1307 1308 
3 1186 1309 1187 
3 1186 1308 1309 
3 1187 1309 1310 
3 1188 1187 1310 
3 1310 1190 1188 
3 1190 1189 1188 
3 1311 1190 1312 
3 1190 1310 1312 
3 1192 1190 1311 
3 1313 1191 1311 
3 1192 1311 1191 
3 1193 1191 1313 
3 1313 1194 1193 
3 1314 1195 1194 
3 1194 1313 1315 
3 1194 1315 1316 
3 1316 1317 1194 
3 1314 1194 1317 
3 1195 1318 1196 
3 1195 1314 1318 
3 1319 1196 1318 
3 1320 1321 1196 
3 1197 1196 1321 
3 1196 1319 1320 
3 1228 1197 1321 
3 1205 1199 1198 
3 1209 1322 1198 
3 1205 1198 1322 
3 1323 1202 1324 
3 1323 1305 1202 
3 1202 1325 1324 
3 1325 1202 1204 
3 1326 1204 1203 
3 1327 1326 1203 
3 1322 1203 1205 
3 1203 1322 1327 
3 1325 1204 1326 
3 1206 1207 1328 
3 1209 1206 1328 
3 1328 1207 1329 
3 1329 1207 1208 
