NORM_ASCII
1025 2046
   0.0304782   -0.0805935   -0.0433396    0.0621460    0.7722991    0.6322119
   0.0287638   -0.0809382   -0.0429948   -0.0783694    0.7772498    0.6242924
   0.0293705   -0.0817823   -0.0417079   -0.0599013    0.8676266    0.4935949
   0.0324962   -0.0804210   -0.0449218    0.5484126    0.8191373    0.1681001
   0.0324975   -0.0803265   -0.0456849    0.5826099    0.8077143   -0.0903516
   0.0326926   -0.0805710   -0.0457780    0.8852736    0.4441826   -0.1378135
   0.0327346   -0.0860681   -0.0369159    0.9151772   -0.3390960   -0.2178638
   0.0329995   -0.0863059   -0.0354124    0.9842510   -0.0510116   -0.1692567
   0.0297902   -0.0833058   -0.0385016    0.0166791    0.8971631    0.4413844
   0.0295659   -0.0835467   -0.0380341   -0.0801465    0.8955711    0.4376403
   0.0286012   -0.0838628   -0.0376508   -0.2098187    0.8857843    0.4139593
   0.0281447   -0.0842361   -0.0371054   -0.3214236    0.8763769    0.3586788
   0.0289669   -0.0850650   -0.0342299   -0.2344702    0.9191250    0.3165960
   0.0308359   -0.0843960   -0.0357226   -0.0452067    0.9753598    0.2159388
   0.0330609   -0.0857633   -0.0341725    0.8951552    0.4394742   -0.0745622
   0.0331220   -0.0862356   -0.0348634    0.9838172    0.0643594   -0.1672172
   0.0321890   -0.0846535   -0.0350149    0.5381259    0.8343817    0.1192801
   0.0326686   -0.0851811   -0.0339591    0.7287145    0.6846598   -0.0147013
   0.0316512   -0.0843289   -0.0357506    0.1383856    0.9809932    0.1360209
   0.0319132   -0.0844606   -0.0352763    0.3758884    0.9171097    0.1327320
   0.0327892   -0.0871590   -0.0351447    0.8748687   -0.4183684   -0.2440751
   0.0327368   -0.0863742   -0.0364829    0.8990731   -0.3548400   -0.2564296
   0.0326817   -0.0875609   -0.0347363    0.7821812   -0.5389906   -0.3125407
   0.0298482   -0.0867836   -0.0396389    0.1146139   -0.8821564   -0.4567973
   0.0299031   -0.0872619   -0.0387334    0.1190085   -0.8968712   -0.4259800
   0.0291019   -0.0868404   -0.0396122   -0.0591335   -0.8967533   -0.4385622
   0.0293776   -0.0870575   -0.0391673    0.0235856   -0.8987624   -0.4378011
   0.0282346   -0.0858735   -0.0413768   -0.0810004   -0.9020546   -0.4239533
   0.0277026   -0.0856285   -0.0417975   -0.2195297   -0.9069886   -0.3594140
   0.0314329   -0.0876550   -0.0368224    0.4401119   -0.8192999   -0.3674904
   0.0307098   -0.0877153   -0.0373312    0.2407589   -0.8888067   -0.3899459
   0.0319314   -0.0877630   -0.0358230    0.5603559   -0.7448152   -0.3622866
   0.0325555   -0.0879664   -0.0343272    0.6949597   -0.6252401   -0.3551138
   0.0327416   -0.0807799   -0.0458478    0.9484094    0.1513586   -0.2785861
   0.0325154   -0.0808685   -0.0463957    0.8449506    0.1635410   -0.5092277
   0.0319853   -0.0817245   -0.0469652    0.6683274   -0.2426750   -0.7031695
   0.0319081   -0.0812043   -0.0471119    0.5457583    0.0836695   -0.8337549
   0.0318394   -0.0807755   -0.0469915    0.4779730    0.4572970   -0.7499475
   0.0323086   -0.0806202   -0.0465168    0.5393242    0.5777506   -0.6126448
   0.0305036   -0.0837421   -0.0453634    0.2527260   -0.8350282   -0.4887304
   0.0309343   -0.0831812   -0.0460688    0.0821135   -0.7223212   -0.6866655
   0.0304883   -0.0836182   -0.0455732    0.0265000   -0.8192151   -0.5728737
   0.0314853   -0.0816966   -0.0472906    0.2743858   -0.2373868   -0.9318583
   0.0312821   -0.0820360   -0.0471080   -0.0555277   -0.5354953   -0.8427108
   0.0273644   -0.0846785   -0.0446630    0.1572707   -0.8951094   -0.4171870
   0.0274070   -0.0851476   -0.0432200   -0.0979468   -0.9646491   -0.2446602
   0.0274235   -0.0853874   -0.0422333   -0.2471303   -0.9285746   -0.2769041
   0.0302664   -0.0838711   -0.0451092    0.6182760   -0.6922009   -0.3722805
   0.0287352   -0.0836203   -0.0458855    0.2917066   -0.6281289   -0.7213608
   0.0294757   -0.0835546   -0.0457111    0.0860556   -0.7537083   -0.6515506
   0.0302664   -0.0838711   -0.0451092    0.9478203   -0.2901718   -0.1320494
   0.0302664   -0.0838711   -0.0451092    0.8223352   -0.5065111   -0.2592515
   0.0297144   -0.0826286   -0.0398744   -0.0496426    0.8993513    0.4343994
   0.0309118   -0.0800014   -0.0444186   -0.0399947    0.9633766    0.2651526
   0.0316669   -0.0799307   -0.0449740    0.2285026    0.9565320    0.1811989
   0.0304321   -0.0802152   -0.0439251   -0.0563937    0.9242885    0.3775057
   0.0301837   -0.0802387   -0.0439191   -0.0811091    0.9448322    0.3173537
   0.0289705   -0.0805961   -0.0433777   -0.0908615    0.8475869    0.5228198
   0.0281058   -0.0816785   -0.0421305   -0.1122523    0.8186288    0.5632463
   0.0284792   -0.0806666   -0.0434146   -0.1368739    0.8517909    0.5056855
   0.0282741   -0.0810223   -0.0429919   -0.0662121    0.7903927    0.6090118
   0.0286793   -0.0823186   -0.0407761   -0.1271553    0.8873151    0.4432870
   0.0316721   -0.0799038   -0.0454233    0.3519235    0.9359132   -0.0147077
   0.0316939   -0.0799833   -0.0458765    0.2541223    0.9270316   -0.2757430
   0.0322494   -0.0802909   -0.0461065    0.4311628    0.8095706   -0.3983642
   0.0325311   -0.0804901   -0.0460889    0.7455455    0.5419883   -0.3878280
   0.0329357   -0.0865336   -0.0354823    0.9460258   -0.2416210   -0.2159967
   0.0329399   -0.0869170   -0.0350738    0.9177361   -0.3130454   -0.2444646
   0.0294834   -0.0828005   -0.0395741   -0.1165784    0.8961528    0.4281584
   0.0292448   -0.0829088   -0.0394045   -0.1299570    0.8955233    0.4256162
   0.0289935   -0.0828884   -0.0395617   -0.2163958    0.8743753    0.4343279
   0.0283639   -0.0839655   -0.0375645   -0.3399628    0.8609956    0.3783014
   0.0278462   -0.0837391   -0.0385239   -0.3800155    0.8355408    0.3968120
   0.0278250   -0.0835403   -0.0389911   -0.3456572    0.8505949    0.3962442
   0.0276467   -0.0841500   -0.0379856   -0.4365758    0.8092549    0.3930752
   0.0272374   -0.0847307   -0.0372126   -0.5061201    0.8121663    0.2902211
   0.0277059   -0.0847773   -0.0361914   -0.3427061    0.8860128    0.3123040
   0.0306830   -0.0847762   -0.0342391   -0.1918851    0.9489242    0.2504454
   0.0284552   -0.0854727   -0.0337991   -0.2955295    0.8954112    0.3330183
   0.0292210   -0.0851466   -0.0337385   -0.2750795    0.9090972    0.3128476
   0.0314022   -0.0843763   -0.0355026   -0.0585790    0.9857639    0.1576010
   0.0311581   -0.0845308   -0.0347205   -0.1569179    0.9655534    0.2075654
   0.0331631   -0.0861647   -0.0343551    0.9695499    0.1927187   -0.1511043
   0.0329721   -0.0855121   -0.0335528    0.8521653    0.5092193   -0.1204578
   0.0333972   -0.0862558   -0.0332882    0.9357289    0.2852990   -0.2074027
   0.0332436   -0.0867185   -0.0341113    0.9598506   -0.0917804   -0.2650719
   0.0322475   -0.0848211   -0.0338151    0.4925534    0.8689813    0.0475679
   0.0316636   -0.0846667   -0.0338503    0.0037820    0.9876988    0.1563227
   0.0324585   -0.0849952   -0.0333527    0.5751432    0.8178042   -0.0201622
   0.0331963   -0.0855914   -0.0325260    0.7751789    0.6168087   -0.1365458
   0.0328443   -0.0873163   -0.0346664    0.9730544   -0.1963862   -0.1208204
   0.0328443   -0.0873163   -0.0346664    0.9621004   -0.2276739   -0.1500911
   0.0327861   -0.0877095   -0.0342591    0.8464268   -0.4456541   -0.2914689
   0.0297168   -0.0878732   -0.0373226    0.0470592   -0.9197319   -0.3897161
   0.0291456   -0.0872387   -0.0387697   -0.0396544   -0.9107517   -0.4110460
   0.0285977   -0.0868530   -0.0394526   -0.1665328   -0.8921868   -0.4198447
   0.0287573   -0.0876681   -0.0377297   -0.0796824   -0.9090413   -0.4090166
   0.0277554   -0.0861426   -0.0405167   -0.2651810   -0.8796849   -0.3947575
   0.0272456   -0.0861666   -0.0400055   -0.4874972   -0.7934611   -0.3643707
   0.0270555   -0.0855428   -0.0411961   -0.4912801   -0.8278464   -0.2707660
   0.0305164   -0.0883572   -0.0359314    0.2055083   -0.9008821   -0.3823322
   0.0315064   -0.0883692   -0.0350682    0.3877345   -0.8355065   -0.3893467
   0.0322557   -0.0884882   -0.0339475    0.5732908   -0.7295917   -0.3728721
   0.0327251   -0.0883420   -0.0333945    0.7362161   -0.5826055   -0.3443205
   0.0316245   -0.0809833   -0.0471924    0.2197427    0.3332679   -0.9168673
   0.0315603   -0.0806025   -0.0469329    0.1188481    0.7126767   -0.6913516
   0.0315006   -0.0802744   -0.0465187    0.0213147    0.8319088   -0.5545029
   0.0310396   -0.0821066   -0.0470233   -0.0336909   -0.5514501   -0.8335273
   0.0306462   -0.0828957   -0.0464112    0.0704392   -0.6857625   -0.7244088
   0.0303985   -0.0829238   -0.0463779   -0.0374491   -0.6844434   -0.7281036
   0.0312023   -0.0814895   -0.0473308   -0.1503434   -0.0897333   -0.9845531
   0.0277571   -0.0837848   -0.0459940    0.1819413   -0.7969350   -0.5760139
   0.0279951   -0.0836929   -0.0460381    0.1994045   -0.7900015   -0.5797719
   0.0270961   -0.0845070   -0.0451244    0.0169150   -0.8676478   -0.4968916
   0.0268861   -0.0849024   -0.0441740   -0.0792343   -0.9480363   -0.3081381
   0.0271463   -0.0850255   -0.0436985   -0.0482609   -0.9758695   -0.2129546
   0.0268869   -0.0851468   -0.0424125   -0.3432546   -0.9287364   -0.1400889
   0.0286112   -0.0827552   -0.0463512    0.1291055   -0.5385987   -0.8326123
   0.0276981   -0.0833294   -0.0465346    0.2568897   -0.6585515   -0.7073313
   0.0284057   -0.0830626   -0.0462624    0.4572084   -0.4003138   -0.7941721
   0.0279029   -0.0830116   -0.0466542    0.4361408   -0.4187721   -0.7964993
   0.0311585   -0.0798842   -0.0450402   -0.0338511    0.9943289    0.1008177
   0.0306665   -0.0799503   -0.0450905   -0.1999273    0.9785102   -0.0504656
   0.0299372   -0.0801363   -0.0449137   -0.2025429    0.9789909    0.0235208
   0.0314157   -0.0798638   -0.0454687   -0.0004556    0.9945300   -0.1044501
   0.0287014   -0.0804138   -0.0438857   -0.1271223    0.9636717    0.2348973
   0.0291932   -0.0802717   -0.0444019   -0.1689782    0.9855735    0.0095482
   0.0273131   -0.0813520   -0.0427116   -0.1012324    0.7611261    0.6406552
   0.0268763   -0.0818527   -0.0421814   -0.0890483    0.7913902    0.6047908
   0.0279940   -0.0807997   -0.0432708   -0.0215322    0.8425077    0.5382538
   0.0266704   -0.0822140   -0.0416850   -0.1213587    0.8309763    0.5429093
   0.0277067   -0.0804223   -0.0443614   -0.0622070    0.9843039    0.1651549
   0.0284561   -0.0825645   -0.0403096   -0.2955550    0.8128314    0.5019485
   0.0279464   -0.0824559   -0.0407756   -0.2697138    0.7857594    0.5566297
   0.0314457   -0.0799918   -0.0459731   -0.0084134    0.9347197   -0.3552861
   0.0330675   -0.0871906   -0.0342273    0.8839298   -0.3535941   -0.3060054
   0.0280205   -0.0830550   -0.0399112   -0.3174344    0.8168323    0.4816849
   0.0273256   -0.0834980   -0.0394804   -0.3246394    0.8424081    0.4300674
   0.0271463   -0.0840847   -0.0385957   -0.3522006    0.8181639    0.4544915
   0.0267055   -0.0845408   -0.0381836   -0.4465275    0.7552578    0.4797904
   0.0267968   -0.0855201   -0.0353118   -0.5064724    0.8211464    0.2630671
   0.0263981   -0.0854747   -0.0368724   -0.7647949    0.6065410    0.2172483
   0.0265560   -0.0854883   -0.0360648   -0.6525981    0.7341592    0.1874194
   0.0277588   -0.0853477   -0.0344976   -0.2902703    0.9017445    0.3203124
   0.0280667   -0.0853727   -0.0342757   -0.1815530    0.9222583    0.3412889
   0.0297178   -0.0851496   -0.0334175   -0.1796409    0.9254986    0.3334390
   0.0309340   -0.0848420   -0.0337435   -0.2399778    0.9398044    0.2432661
   0.0304635   -0.0851149   -0.0332713   -0.2393778    0.9416025    0.2368187
   0.0284417   -0.0858089   -0.0328422   -0.2630866    0.9153141    0.3049352
   0.0336319   -0.0865986   -0.0328819    0.9446251    0.1986003   -0.2612306
   0.0334773   -0.0867116   -0.0333249    0.9479089    0.0590361   -0.3130232
   0.0333067   -0.0871979   -0.0335893    0.8573662   -0.3863341   -0.3401017
   0.0336454   -0.0874133   -0.0326149    0.8997049   -0.2410981   -0.3638720
   0.0321561   -0.0848199   -0.0322117    0.2655222    0.9623053    0.0588770
   0.0316540   -0.0848264   -0.0321822   -0.2401598    0.9577555    0.1582017
   0.0309369   -0.0848796   -0.0335951   -0.2802025    0.9451834    0.1676753
   0.0314132   -0.0847586   -0.0332117   -0.3190699    0.9388378    0.1295296
   0.0324208   -0.0849296   -0.0320351    0.4508669    0.8919490    0.0338526
   0.0326114   -0.0850419   -0.0323117    0.5909836    0.8049421   -0.0529777
   0.0336817   -0.0860575   -0.0316427    0.8085832    0.5566891   -0.1905003
   0.0339444   -0.0866883   -0.0317809    0.9226551    0.2644584   -0.2806589
   0.0332242   -0.0855363   -0.0319777    0.8036694    0.5874500   -0.0949635
   0.0329826   -0.0853067   -0.0320630    0.6337559    0.7698534   -0.0753605
   0.0328443   -0.0873163   -0.0346664    0.9548958   -0.2335036   -0.1834393
   0.0330761   -0.0872599   -0.0341285    0.9153086   -0.2964088   -0.2726755
   0.0328767   -0.0875861   -0.0342235    0.8000890   -0.4974651   -0.3352405
   0.0290065   -0.0882922   -0.0363516   -0.0167171   -0.9146415   -0.4039202
   0.0278639   -0.0871070   -0.0385582   -0.4475878   -0.8165434   -0.3645847
   0.0278150   -0.0866658   -0.0394770   -0.4522904   -0.8047369   -0.3844892
   0.0284551   -0.0878565   -0.0372401   -0.2879886   -0.8782092   -0.3818523
   0.0272943   -0.0869363   -0.0384680   -0.4208202   -0.8190423   -0.3899746
   0.0270121   -0.0863717   -0.0393330   -0.5713266   -0.7285564   -0.3778775
   0.0265263   -0.0853673   -0.0405746   -0.6621323   -0.6989876   -0.2701799
   0.0261924   -0.0857085   -0.0390679   -0.7418401   -0.5985062   -0.3024294
   0.0263262   -0.0848997   -0.0414762   -0.6982670   -0.7013145   -0.1434616
   0.0298952   -0.0895322   -0.0336128    0.1434330   -0.8855842   -0.4417778
   0.0320863   -0.0888141   -0.0335097    0.4940630   -0.7704611   -0.4028542
   0.0313236   -0.0889526   -0.0340426    0.3226422   -0.8565563   -0.4027571
   0.0329697   -0.0874617   -0.0341886    0.8378717   -0.4400702   -0.3229695
   0.0325604   -0.0890215   -0.0325418    0.5942419   -0.6824971   -0.4255282
   0.0329019   -0.0884074   -0.0328940    0.7748618   -0.5235329   -0.3542633
   0.0313455   -0.0808150   -0.0471205   -0.2342587    0.4800420   -0.8453889
   0.0310707   -0.0806904   -0.0469207   -0.3140037    0.6634167   -0.6791759
   0.0310417   -0.0805316   -0.0466983   -0.3179139    0.6871908   -0.6532225
   0.0305236   -0.0804704   -0.0464350   -0.2910918    0.7108938   -0.6402308
   0.0309548   -0.0800658   -0.0460009   -0.1832629    0.9110195   -0.3694025
   0.0307564   -0.0818890   -0.0470945   -0.1802214   -0.3239185   -0.9287610
   0.0305956   -0.0825260   -0.0467299   -0.0735772   -0.5663286   -0.8208887
   0.0298270   -0.0824467   -0.0466417   -0.1511003   -0.4999781   -0.8527547
   0.0306825   -0.0814078   -0.0471267   -0.3473867    0.1323430   -0.9283360
   0.0274718   -0.0835103   -0.0464211    0.1553049   -0.7449654   -0.6487734
   0.0270143   -0.0838637   -0.0459749   -0.0056633   -0.7894802   -0.6137499
   0.0267767   -0.0839702   -0.0458396   -0.2720101   -0.7667685   -0.5814436
   0.0267248   -0.0844803   -0.0450934   -0.2742912   -0.8260735   -0.4923077
   0.0266087   -0.0846781   -0.0446184   -0.3210551   -0.8786643   -0.3533733
   0.0266320   -0.0849599   -0.0436459   -0.3016140   -0.9374903   -0.1736118
   0.0263609   -0.0849085   -0.0430796   -0.6416808   -0.7655394   -0.0468519
   0.0283281   -0.0825053   -0.0466775    0.3378470   -0.4274403   -0.8385429
   0.0297471   -0.0818956   -0.0468779   -0.0577617   -0.0487163   -0.9971411
   0.0274180   -0.0831073   -0.0468184    0.1821057   -0.5308286   -0.8276826
   0.0276129   -0.0827252   -0.0469253    0.3053400   -0.2087443   -0.9290820
   0.0304663   -0.0801654   -0.0459540   -0.2705658    0.9099382   -0.3143350
   0.0294552   -0.0802646   -0.0449475   -0.2390930    0.9633435   -0.1216707
   0.0280656   -0.0804518   -0.0449245   -0.0835982    0.9840533   -0.1570046
   0.0292259   -0.0803620   -0.0453062   -0.2292034    0.9352785   -0.2696663
   0.0262990   -0.0812651   -0.0429513   -0.2221738    0.7230850    0.6540542
   0.0274855   -0.0807492   -0.0433880   -0.0896222    0.8559517    0.5092294
   0.0277310   -0.0807097   -0.0433902   -0.0510172    0.8937442    0.4456665
   0.0263473   -0.0816348   -0.0425428   -0.2646653    0.7920642    0.5500787
   0.0261530   -0.0820996   -0.0418273   -0.0824925    0.8276366    0.5551691
   0.0270752   -0.0827733   -0.0408275   -0.1401527    0.8069749    0.5737149
   0.0274605   -0.0804567   -0.0443581   -0.0972361    0.9884212    0.1164843
   0.0277236   -0.0804591   -0.0449076   -0.0577158    0.9921802   -0.1106675
   0.0280681   -0.0827693   -0.0403539   -0.3462229    0.7580922    0.5526534
   0.0277491   -0.0828626   -0.0403636   -0.2692690    0.7874940    0.5543892
   0.0270527   -0.0832770   -0.0400869   -0.1971077    0.8328723    0.5171772
   0.0263901   -0.0840119   -0.0390590   -0.3474302    0.7764902    0.5256949
   0.0268746   -0.0838798   -0.0391379   -0.1778125    0.8498792    0.4960726
   0.0262683   -0.0843965   -0.0386436   -0.5503882    0.6382959    0.5381925
   0.0262873   -0.0851402   -0.0378213   -0.7769787    0.4716170    0.4169910
   0.0275270   -0.0855017   -0.0342841   -0.3121436    0.8996196    0.3053703
   0.0269338   -0.0857848   -0.0343405   -0.5236372    0.8205953    0.2289705
   0.0262220   -0.0861730   -0.0349572   -0.8601170    0.4919245    0.1349409
   0.0262105   -0.0858908   -0.0364631   -0.9698473    0.2340916    0.0678034
   0.0261219   -0.0857143   -0.0377033   -0.9861634    0.0935638    0.1368490
   0.0299726   -0.0852158   -0.0331031   -0.2271183    0.9374925    0.2636763
   0.0300093   -0.0858348   -0.0302817   -0.2523893    0.9524369    0.1707736
   0.0309451   -0.0850476   -0.0327455   -0.3945500    0.8959086    0.2041520
   0.0307285   -0.0854018   -0.0317813   -0.2885415    0.9285362    0.2335901
   0.0292853   -0.0859567   -0.0308087   -0.3248258    0.9223707    0.2090943
   0.0283190   -0.0860749   -0.0318560   -0.2836735    0.9287711    0.2385658
   0.0270954   -0.0862216   -0.0323610   -0.3584378    0.8997973    0.2487712
   0.0337450   -0.0869337   -0.0324653    0.9457616   -0.0172360   -0.3244039
   0.0334085   -0.0880229   -0.0323656    0.7653043   -0.5078849   -0.3954267
   0.0341040   -0.0878354   -0.0311815    0.8574814   -0.3206853   -0.4023514
   0.0340187   -0.0871734   -0.0317375    0.9417335    0.0682328   -0.3293665
   0.0347821   -0.0875019   -0.0297318    0.9277836    0.0015292   -0.3731155
   0.0321550   -0.0848987   -0.0315627    0.1823808    0.9722269    0.1466698
   0.0309769   -0.0854570   -0.0312294   -0.3934279    0.9004525    0.1854717
   0.0313123   -0.0848818   -0.0327139   -0.4153324    0.8875201    0.1995172
   0.0319061   -0.0849679   -0.0311789   -0.2214410    0.9438647    0.2451190
   0.0316556   -0.0849400   -0.0316881   -0.4424777    0.8707123    0.2146476
   0.0330407   -0.0853017   -0.0313573    0.6084175    0.7935515    0.0102041
   0.0340325   -0.0863816   -0.0312351    0.8466494    0.4754154   -0.2390920
   0.0332711   -0.0855721   -0.0318532    0.7678566    0.6267003   -0.1328267
   0.0335626   -0.0858800   -0.0315188    0.7917107    0.5794245   -0.1935496
   0.0345104   -0.0865832   -0.0297320    0.8703902    0.4140763   -0.2663863
   0.0343067   -0.0864515   -0.0302092    0.8688557    0.4512933   -0.2035294
   0.0330520   -0.0853497   -0.0319057    0.6711953    0.7366896   -0.0823731
   0.0332480   -0.0854828   -0.0314285    0.9479477    0.3167063   -0.0330486
   0.0332480   -0.0854828   -0.0314285    0.9551133    0.2928381   -0.0447706
   0.0284986   -0.0882640   -0.0363101   -0.2957648   -0.8733900   -0.3869277
   0.0291212   -0.0893457   -0.0340371   -0.0447278   -0.9020600   -0.4292868
   0.0278446   -0.0869367   -0.0388895   -0.6103575   -0.7246404   -0.3199374
   0.0273357   -0.0869554   -0.0384780   -0.3414486   -0.8515450   -0.3978492
   0.0279844   -0.0881983   -0.0362575   -0.2019926   -0.8995455   -0.3873202
   0.0284764   -0.0880628   -0.0367358   -0.4177344   -0.8379417   -0.3512147
   0.0277437   -0.0883363   -0.0357558   -0.3510781   -0.8546266   -0.3825671
   0.0272222   -0.0882647   -0.0353868   -0.5329585   -0.7653753   -0.3607712
   0.0267676   -0.0864270   -0.0388029   -0.6408292   -0.7056997   -0.3022017
   0.0265320   -0.0862502   -0.0387320   -0.6658101   -0.6782485   -0.3109276
   0.0263531   -0.0852178   -0.0403967   -0.7930310   -0.5635895   -0.2312330
   0.0259427   -0.0853187   -0.0389249   -0.9487451   -0.3116973   -0.0522247
   0.0263190   -0.0864040   -0.0377036   -0.8454622   -0.5078410   -0.1652004
   0.0260377   -0.0848151   -0.0403215   -0.9071174   -0.3995909   -0.1321556
   0.0258354   -0.0844037   -0.0402175   -0.9338345   -0.3571213    0.0204327
   0.0304405   -0.0899267   -0.0327082    0.2011609   -0.8330953   -0.5152538
   0.0299349   -0.0898890   -0.0328625    0.0465891   -0.8657265   -0.4983443
   0.0313026   -0.0891647   -0.0335781    0.3322106   -0.8310906   -0.4460096
   0.0289470   -0.0900333   -0.0326521   -0.0226238   -0.8872861   -0.4606642
   0.0311371   -0.0894929   -0.0331408    0.2932352   -0.8252213   -0.4827244
   0.0320783   -0.0890857   -0.0330655    0.4439009   -0.7809038   -0.4394783
   0.0321803   -0.0899424   -0.0316120    0.5415185   -0.6842319   -0.4884511
   0.0317307   -0.0903031   -0.0314902    0.3971989   -0.7173245   -0.5724322
   0.0314195   -0.0897945   -0.0324076    0.3682265   -0.7986910   -0.4759221
   0.0327449   -0.0897516   -0.0311921    0.6604852   -0.6169375   -0.4279572
   0.0301309   -0.0811390   -0.0467839   -0.3010931    0.5123056   -0.8042922
   0.0308276   -0.0807627   -0.0467926   -0.4131707    0.5632144   -0.7155973
   0.0307983   -0.0805939   -0.0466386   -0.3252008    0.5814769   -0.7457406
   0.0300086   -0.0804396   -0.0460839   -0.3350546    0.7628352   -0.5530108
   0.0302701   -0.0820097   -0.0469869   -0.2329036   -0.2070834   -0.9501960
   0.0272054   -0.0833843   -0.0466173   -0.0219997   -0.7028001   -0.7110471
   0.0266778   -0.0832181   -0.0466614   -0.2698644   -0.6114813   -0.7438170
   0.0264563   -0.0837601   -0.0459068   -0.5626655   -0.6460970   -0.5157191
   0.0263737   -0.0843247   -0.0450205   -0.5844337   -0.6972961   -0.4149884
   0.0262674   -0.0839995   -0.0453130   -0.6475305   -0.6336021   -0.4233823
   0.0263532   -0.0847234   -0.0440845   -0.5850721   -0.7775597   -0.2304162
   0.0260706   -0.0845994   -0.0434929   -0.7383744   -0.6684728   -0.0891481
   0.0256364   -0.0840365   -0.0427501   -0.8560641   -0.5149236   -0.0448113
   0.0257260   -0.0841875   -0.0422729   -0.7959936   -0.6051385   -0.0142016
   0.0257160   -0.0841702   -0.0417342   -0.7922521   -0.6100816   -0.0117057
   0.0275406   -0.0822609   -0.0469076    0.0811271    0.0452891   -0.9956743
   0.0271924   -0.0816542   -0.0467442   -0.0195905    0.2985566   -0.9541908
   0.0274049   -0.0814182   -0.0466253   -0.0082318    0.6142045   -0.7891039
   0.0283551   -0.0810865   -0.0464202   -0.1261468    0.6607956   -0.7398893
   0.0273665   -0.0827502   -0.0469744    0.0377701   -0.1815347   -0.9826589
   0.0269188   -0.0831367   -0.0467761   -0.1402207   -0.4588791   -0.8773643
   0.0282970   -0.0807666   -0.0459835   -0.1267301    0.8828014   -0.4523285
   0.0272495   -0.0805716   -0.0454475   -0.0374285    0.9342799   -0.3545704
   0.0289983   -0.0804872   -0.0455264   -0.1804528    0.9302682   -0.3194335
   0.0295207   -0.0805470   -0.0460143   -0.1854261    0.8482212   -0.4961230
   0.0297646   -0.0804959   -0.0460413   -0.2537960    0.8049351   -0.5363460
   0.0262523   -0.0809078   -0.0433652   -0.2900096    0.7813148    0.5526677
   0.0255796   -0.0814509   -0.0432743   -0.5941185    0.5722260    0.5653147
   0.0267184   -0.0806049   -0.0438268   -0.0932239    0.9518363    0.2920906
   0.0256363   -0.0819000   -0.0426521   -0.6503913    0.6470940    0.3978198
   0.0258912   -0.0819966   -0.0421001   -0.3492246    0.8119422    0.4677521
   0.0259627   -0.0825789   -0.0412293   -0.4477580    0.6825737    0.5775863
   0.0264900   -0.0827930   -0.0407974   -0.1333078    0.8049468    0.5781779
   0.0269873   -0.0805317   -0.0452227   -0.0992819    0.9749567   -0.1990037
   0.0260994   -0.0805726   -0.0448462   -0.1509920    0.9870953   -0.0533318
   0.0263542   -0.0837189   -0.0394932   -0.3858129    0.7642534    0.5167835
   0.0263360   -0.0834509   -0.0399381   -0.2354681    0.8098964    0.5372361
   0.0260161   -0.0842735   -0.0391202   -0.7569950    0.5182230    0.3979993
   0.0260168   -0.0846569   -0.0387125   -0.8757115    0.3160752    0.3650011
   0.0260510   -0.0851665   -0.0383483   -0.9485000    0.1043731    0.2990886
   0.0263704   -0.0862651   -0.0339301   -0.6961008    0.6994816    0.1617687
   0.0263910   -0.0864716   -0.0329343   -0.6187365    0.7631440    0.1864843
   0.0261791   -0.0863216   -0.0359357   -0.9943963   -0.0878353   -0.0588296
   0.0261705   -0.0865270   -0.0340047   -0.9279615    0.3714007    0.0308053
   0.0261719   -0.0868307   -0.0351700   -0.9912300   -0.0848271   -0.1013283
   0.0261851   -0.0861614   -0.0370825   -0.9889419   -0.1449431   -0.0313907
   0.0292999   -0.0861841   -0.0298182   -0.3423842    0.9235106    0.1729195
   0.0304918   -0.0857023   -0.0302664   -0.2824944    0.9547421    0.0930832
   0.0307362   -0.0855175   -0.0312862   -0.2326430    0.9579182    0.1681369
   0.0309602   -0.0856921   -0.0286937   -0.3303463    0.9400992    0.0841717
   0.0295385   -0.0863111   -0.0282766   -0.3577800    0.9269573    0.1128880
   0.0283390   -0.0864028   -0.0303650   -0.3187459    0.9316060    0.1746751
   0.0270404   -0.0863842   -0.0318781   -0.3734849    0.8795543    0.2947767
   0.0278603   -0.0865571   -0.0303859   -0.3208321    0.9246204    0.2052899
   0.0271392   -0.0867026   -0.0309238   -0.3563135    0.9079609    0.2205622
   0.0265254   -0.0865219   -0.0324258   -0.5490657    0.8080780    0.2133937
   0.0342211   -0.0887268   -0.0299508    0.7328179   -0.5053593   -0.4556203
   0.0340152   -0.0890183   -0.0299639    0.7408701   -0.4886730   -0.4607713
   0.0341398   -0.0882120   -0.0307746    0.8034560   -0.4375364   -0.4037578
   0.0338354   -0.0892484   -0.0300275    0.7845053   -0.4713025   -0.4030204
   0.0343973   -0.0881968   -0.0302516    0.8053704   -0.4130934   -0.4251264
   0.0347595   -0.0880063   -0.0296789    0.8844540   -0.2202379   -0.4113835
   0.0350410   -0.0872584   -0.0289195    0.9651108    0.1521740   -0.2130827
   0.0348209   -0.0877710   -0.0296057    0.9331791   -0.0561116   -0.3550047
   0.0324234   -0.0851905   -0.0302170    0.0979742    0.9887772    0.1127863
   0.0312133   -0.0854247   -0.0307525   -0.3361263    0.9256206    0.1739124
   0.0332480   -0.0854828   -0.0314285    0.8809362    0.4669836   -0.0766662
   0.0332260   -0.0853968   -0.0309947    0.4780074    0.8780661   -0.0225582
   0.0340881   -0.0861740   -0.0304194    0.7755292    0.6051010   -0.1800202
   0.0334281   -0.0856691   -0.0314989    0.8398514    0.5243272   -0.1404657
   0.0335349   -0.0857326   -0.0312643    0.7396889    0.6541126   -0.1581045
   0.0340555   -0.0857458   -0.0288980    0.6928422    0.6983320   -0.1797279
   0.0344787   -0.0860558   -0.0284933    0.7603314    0.6154356   -0.2076900
   0.0348274   -0.0866462   -0.0287053    0.8917632    0.4270394   -0.1496520
   0.0282560   -0.0883691   -0.0359647   -0.2013939   -0.8944808   -0.3991799
   0.0286700   -0.0898267   -0.0329674   -0.1247883   -0.8830412   -0.4524005
   0.0268529   -0.0890646   -0.0332747   -0.4988164   -0.7624479   -0.4121352
   0.0270911   -0.0893724   -0.0329672   -0.4096591   -0.8190875   -0.4015907
   0.0275092   -0.0895519   -0.0329402   -0.3112736   -0.8619609   -0.4001653
   0.0267765   -0.0876432   -0.0360035   -0.6880890   -0.6666548   -0.2865396
   0.0269296   -0.0879736   -0.0355888   -0.6711912   -0.6723838   -0.3120936
   0.0265299   -0.0890012   -0.0329221   -0.7049132   -0.5898871   -0.3938662
   0.0265675   -0.0883463   -0.0340895   -0.7506925   -0.5722057   -0.3302141
   0.0267038   -0.0879892   -0.0350467   -0.7760566   -0.5587606   -0.2924427
   0.0265335   -0.0868026   -0.0373134   -0.7524133   -0.6132651   -0.2403750
   0.0259054   -0.0851085   -0.0388542   -0.9929729   -0.0563581    0.1040602
   0.0263319   -0.0872367   -0.0353116   -0.8876433   -0.4271486   -0.1721439
   0.0258554   -0.0843503   -0.0396692   -0.9925615    0.0357512    0.1163763
   0.0255605   -0.0839505   -0.0416513   -0.9173591   -0.3924863    0.0663839
   0.0259144   -0.0841085   -0.0396422   -0.8697822    0.3555028    0.3421941
   0.0256219   -0.0836571   -0.0410282   -0.9684789   -0.0487296    0.2442827
   0.0302654   -0.0905394   -0.0318317    0.1278802   -0.8289188   -0.5445551
   0.0310319   -0.0906778   -0.0313913    0.1991702   -0.7723286   -0.6031912
   0.0285002   -0.0905171   -0.0317629   -0.1430212   -0.8271721   -0.5434439
   0.0300556   -0.0908742   -0.0313617    0.0528690   -0.7921239   -0.6080663
   0.0322388   -0.0904122   -0.0309285    0.5512155   -0.6361805   -0.5398480
   0.0329493   -0.0902132   -0.0302886    0.6773455   -0.5468604   -0.4920842
   0.0329319   -0.0898863   -0.0307145    0.6577188   -0.6049103   -0.4488758
   0.0320064   -0.0924477   -0.0288296    0.4089891   -0.7582563   -0.5077157
   0.0312178   -0.0921043   -0.0297352    0.2586093   -0.7413235   -0.6193227
   0.0326757   -0.0912967   -0.0295615    0.6441113   -0.5761104   -0.5032071
   0.0263975   -0.0830359   -0.0466293   -0.5882214   -0.4620572   -0.6637008
   0.0268411   -0.0826106   -0.0469400   -0.1707092   -0.0933371   -0.9808907
   0.0261129   -0.0837692   -0.0453571   -0.7685817   -0.5259234   -0.3642619
   0.0260626   -0.0833947   -0.0457640   -0.7750454   -0.4792005   -0.4119122
   0.0259090   -0.0843048   -0.0439213   -0.8217437   -0.5242527   -0.2233748
   0.0253786   -0.0835501   -0.0421959   -0.9380632   -0.3391522    0.0708038
   0.0252423   -0.0832383   -0.0424657   -0.9588090   -0.2821651    0.0326837
   0.0253621   -0.0832623   -0.0435471   -0.9274003   -0.3478231   -0.1376508
   0.0266672   -0.0815183   -0.0466980   -0.0948492    0.4388014   -0.8935642
   0.0262468   -0.0820357   -0.0468045   -0.4116244    0.1190541   -0.9035439
   0.0278287   -0.0809705   -0.0461457   -0.0635080    0.8049526   -0.5899306
   0.0263588   -0.0811841   -0.0464249   -0.1825352    0.6981039   -0.6923380
   0.0273131   -0.0808961   -0.0460919    0.0049573    0.8202880   -0.5719293
   0.0263012   -0.0808790   -0.0459438   -0.2111999    0.8597843   -0.4649361
   0.0252935   -0.0811387   -0.0439156   -0.6678123    0.6029383    0.4364540
   0.0264718   -0.0806388   -0.0438233   -0.1497841    0.9490321    0.2773133
   0.0257482   -0.0808347   -0.0438432   -0.4062720    0.8247055    0.3934513
   0.0251481   -0.0818873   -0.0436181   -0.9422935    0.1361813    0.3058393
   0.0251073   -0.0815692   -0.0438582   -0.8860042    0.2954253    0.3573800
   0.0251900   -0.0822632   -0.0432111   -0.9676685    0.2086227    0.1417541
   0.0254354   -0.0822591   -0.0424125   -0.8000851    0.5162883    0.3054672
   0.0256897   -0.0823786   -0.0416808   -0.6049377    0.6537498    0.4546005
   0.0256007   -0.0828606   -0.0412983   -0.8372446    0.3299556    0.4360628
   0.0260878   -0.0835596   -0.0399583   -0.4826313    0.6883844    0.5414738
   0.0255926   -0.0824785   -0.0417063   -0.7523385    0.4882860    0.4422256
   0.0257730   -0.0807832   -0.0454270   -0.2719824    0.8958204   -0.3514703
   0.0257402   -0.0806583   -0.0447767   -0.3246985    0.9447863   -0.0441557
   0.0259735   -0.0806010   -0.0443133   -0.2826204    0.9475665    0.1491425
   0.0255181   -0.0807948   -0.0451852   -0.4911875    0.8407809   -0.2276454
   0.0256537   -0.0876058   -0.0311279   -0.8222858    0.5663495    0.0556263
   0.0262867   -0.0871073   -0.0352658   -0.8938656   -0.3912598   -0.2189067
   0.0260677   -0.0869668   -0.0341408   -0.9978734    0.0034232   -0.0650926
   0.0256883   -0.0874830   -0.0321552   -0.9832526    0.0982653   -0.1534871
   0.0260460   -0.0874036   -0.0335907   -0.9875407   -0.0593949   -0.1457247
   0.0262178   -0.0872066   -0.0347620   -0.9185105   -0.3244606   -0.2259729
   0.0290657   -0.0864335   -0.0288207   -0.3150532    0.9386094    0.1405486
   0.0304383   -0.0860524   -0.0277131   -0.3791067    0.9096100    0.1699641
   0.0319318   -0.0854801   -0.0286233   -0.1691171    0.9841573    0.0532340
   0.0309523   -0.0858041   -0.0274820   -0.4680502    0.8789396    0.0916200
   0.0314204   -0.0855610   -0.0276127   -0.3180946    0.9463249    0.0573145
   0.0288193   -0.0866049   -0.0277964   -0.3275244    0.9404408    0.0910976
   0.0288265   -0.0865666   -0.0284096   -0.3110170    0.9459111    0.0923074
   0.0273929   -0.0872107   -0.0272621   -0.3317316    0.9329563    0.1398094
   0.0281055   -0.0867933   -0.0283469   -0.3219784    0.9379399    0.1288356
   0.0285851   -0.0866446   -0.0283277   -0.2948082    0.9482906    0.1176140
   0.0271567   -0.0870162   -0.0294277   -0.3220075    0.9299670    0.1774049
   0.0262064   -0.0872997   -0.0299949   -0.5003691    0.8590704    0.1078366
   0.0261998   -0.0873971   -0.0289613   -0.3942792    0.9024332    0.1736611
   0.0266739   -0.0871459   -0.0294411   -0.2816524    0.9396273    0.1943513
   0.0257561   -0.0875601   -0.0305855   -0.6712184    0.7368408    0.0808182
   0.0342751   -0.0891383   -0.0294864    0.7699633   -0.4390499   -0.4630245
   0.0344986   -0.0884842   -0.0298196    0.7487968   -0.4394942   -0.4961333
   0.0340619   -0.0893763   -0.0295503    0.9558980   -0.2036621   -0.2116148
   0.0338468   -0.0896040   -0.0296118    0.8018646   -0.4326692   -0.4120807
   0.0340619   -0.0893763   -0.0295503    0.9818828   -0.1414641   -0.1260716
   0.0347380   -0.0886099   -0.0293418    0.8624171   -0.3261842   -0.3870925
   0.0349755   -0.0879198   -0.0291304    0.9576756   -0.1358388   -0.2537820
   0.0350529   -0.0872076   -0.0283693    0.9821764    0.1769142    0.0634892
   0.0350854   -0.0876348   -0.0285113    0.9977308   -0.0642213    0.0202185
   0.0332877   -0.0854263   -0.0308795    0.5270185    0.8474302   -0.0641368
   0.0334381   -0.0853742   -0.0292722    0.3288251    0.9405332   -0.0852722
   0.0332062   -0.0853411   -0.0297812    0.4678612    0.8763535   -0.1145013
   0.0326727   -0.0852620   -0.0295776   -0.0287535    0.9988669    0.0379234
   0.0337527   -0.0857083   -0.0298438    0.6423291    0.7571039   -0.1191932
   0.0342232   -0.0857203   -0.0281968    0.6034360    0.7858342   -0.1353869
   0.0345563   -0.0859931   -0.0279443    0.7784849    0.6256049   -0.0507919
   0.0350028   -0.0869990   -0.0282993    0.9673169    0.2505340    0.0391249
   0.0280019   -0.0896831   -0.0330143   -0.2243648   -0.8665232   -0.4458677
   0.0267111   -0.0892553   -0.0327965   -0.5293039   -0.7301600   -0.4320924
   0.0263404   -0.0895527   -0.0318045   -0.5284323   -0.7109218   -0.4640576
   0.0261792   -0.0877638   -0.0338753   -0.8780265   -0.3824215   -0.2877905
   0.0259504   -0.0885837   -0.0323289   -0.8732047   -0.3517146   -0.3373579
   0.0260123   -0.0888936   -0.0321021   -0.7908101   -0.4816115   -0.3777166
   0.0263736   -0.0877796   -0.0344257   -0.8837893   -0.3777088   -0.2761386
   0.0263234   -0.0874052   -0.0348328   -0.3076510   -0.8450694   -0.4372740
   0.0254601   -0.0833182   -0.0414389   -0.9653634   -0.0771402    0.2492447
   0.0306475   -0.0915727   -0.0304531    0.1381315   -0.7390191   -0.6593713
   0.0282436   -0.0911261   -0.0308344   -0.1790951   -0.8046817   -0.5660497
   0.0277893   -0.0908991   -0.0310160   -0.2891640   -0.7603617   -0.5815791
   0.0298655   -0.0913487   -0.0307865   -0.0445860   -0.7645719   -0.6429944
   0.0293887   -0.0915534   -0.0305100   -0.1294598   -0.7880827   -0.6018022
   0.0302078   -0.0920373   -0.0300283    0.0045311   -0.7659021   -0.6429412
   0.0341067   -0.0897243   -0.0291345    0.7082907   -0.5432984   -0.4507228
   0.0310544   -0.0927914   -0.0288853    0.2028146   -0.8306900   -0.5184789
   0.0324712   -0.0922076   -0.0287792    0.5274636   -0.7033981   -0.4764591
   0.0324916   -0.0924025   -0.0283118    0.6024799   -0.7640032   -0.2309050
   0.0317924   -0.0927520   -0.0283837    0.3792685   -0.8818390   -0.2802060
   0.0307774   -0.0925639   -0.0293256    0.1036465   -0.8012611   -0.5892691
   0.0335747   -0.0908263   -0.0283965    0.7696370   -0.6019177   -0.2129648
   0.0330633   -0.0915641   -0.0286062    0.8210039   -0.5170483   -0.2421025
   0.0337013   -0.0903873   -0.0289020    0.7267754   -0.5888140   -0.3536886
   0.0326445   -0.0920694   -0.0287454    0.7051996   -0.6100255   -0.3613342
   0.0263176   -0.0824925   -0.0468425   -0.4858500   -0.1942261   -0.8521889
   0.0259807   -0.0824256   -0.0465077   -0.8370478   -0.2264756   -0.4980560
   0.0259403   -0.0828155   -0.0461009   -0.8598262   -0.3442230   -0.3771068
   0.0256513   -0.0833464   -0.0447207   -0.8842759   -0.3816976   -0.2690040
   0.0254262   -0.0831385   -0.0440434   -0.9536343   -0.2663550   -0.1401309
   0.0251658   -0.0828676   -0.0428734   -0.9948387   -0.1013762    0.0043300
   0.0261471   -0.0814300   -0.0465151   -0.4401871    0.4364067   -0.7847194
   0.0258919   -0.0822239   -0.0464376   -0.8334239   -0.1648019   -0.5274893
   0.0259727   -0.0819202   -0.0465778   -0.6827396    0.1791618   -0.7083557
   0.0258444   -0.0811623   -0.0460471   -0.5119689    0.5746981   -0.6384434
   0.0255730   -0.0810743   -0.0457405   -0.6069205    0.5943747   -0.5276042
   0.0251408   -0.0811212   -0.0444341   -0.8882622    0.4480975    0.1009895
   0.0253998   -0.0808608   -0.0443637   -0.5932883    0.7841791    0.1818577
   0.0250320   -0.0817403   -0.0440962   -0.9910994   -0.1317371   -0.0191629
   0.0252708   -0.0828593   -0.0421545   -0.9420326    0.2036839    0.2666222
   0.0255012   -0.0807626   -0.0445950   -0.5023464    0.8640469    0.0327270
   0.0252839   -0.0809463   -0.0448665   -0.7313307    0.6779086   -0.0748024
   0.0253069   -0.0810440   -0.0452659   -0.8022261    0.4948371   -0.3340202
   0.0252133   -0.0881829   -0.0296901   -0.9019066    0.4239181   -0.0828126
   0.0256006   -0.0880192   -0.0317922   -0.9653350   -0.0653684   -0.2526960
   0.0263234   -0.0874052   -0.0348328    0.9778804   -0.1870919   -0.0935233
   0.0260831   -0.0876486   -0.0335610   -0.9535704   -0.1887697   -0.2346689
   0.0263234   -0.0874052   -0.0348328    0.7817041   -0.5009301   -0.3714939
   0.0262397   -0.0875866   -0.0343539   -0.8932854   -0.3643894   -0.2631758
   0.0307215   -0.0859794   -0.0271746   -0.5059822    0.8505652    0.1432511
   0.0292985   -0.0865917   -0.0267551   -0.2655303    0.9417805    0.2062598
   0.0297810   -0.0864324   -0.0269447   -0.1944860    0.9487213    0.2492048
   0.0285812   -0.0868262   -0.0267872   -0.3398283    0.9245845    0.1722212
   0.0302681   -0.0863183   -0.0270335   -0.3172270    0.9255696    0.2066106
   0.0305051   -0.0864043   -0.0257013   -0.4338283    0.8566730    0.2791137
   0.0319008   -0.0854842   -0.0270829   -0.1284367    0.9896516    0.0639817
   0.0321621   -0.0854743   -0.0276289   -0.1004336    0.9935220    0.0531708
   0.0311821   -0.0857130   -0.0271158   -0.4636994    0.8769869    0.1260038
   0.0314189   -0.0856879   -0.0265874   -0.3247781    0.9158444    0.2361106
   0.0283417   -0.0868347   -0.0273091   -0.3482571    0.9278291    0.1336040
   0.0266850   -0.0873521   -0.0284435   -0.3275842    0.9342175    0.1411601
   0.0266725   -0.0874823   -0.0268869   -0.1078295    0.9805288    0.1641222
   0.0266743   -0.0875122   -0.0267497   -0.3232275    0.9302607    0.1736058
   0.0281111   -0.0870580   -0.0266582   -0.3504333    0.9215898    0.1669391
   0.0266756   -0.0875673   -0.0263808   -0.2336395    0.9444096    0.2313075
   0.0257507   -0.0875966   -0.0300651   -0.6458523    0.7631862    0.0205311
   0.0259670   -0.0874768   -0.0292705   -0.5495542    0.8312272    0.0839736
   0.0254889   -0.0879865   -0.0280442   -0.5177470    0.8328639    0.1956422
   0.0264477   -0.0874459   -0.0284333   -0.4151655    0.8969432    0.1520872
   0.0340619   -0.0893763   -0.0295503    0.9183728   -0.2786056   -0.2810165
   0.0343360   -0.0894957   -0.0290735    0.7221991   -0.5430541   -0.4283932
   0.0345703   -0.0892386   -0.0290045    0.7845380   -0.4828274   -0.3890731
   0.0348471   -0.0887582   -0.0288639    0.9555360   -0.2664461   -0.1263225
   0.0346608   -0.0871207   -0.0267353    0.9355301   -0.0014617    0.3532439
   0.0349715   -0.0873881   -0.0278911    0.9759495    0.0168746    0.2173427
   0.0349877   -0.0880349   -0.0281035    0.9704405   -0.1277792    0.2047381
   0.0329152   -0.0852559   -0.0292027    0.0481412    0.9985575    0.0237765
   0.0336701   -0.0853921   -0.0282275    0.2865805    0.9578443    0.0201455
   0.0341338   -0.0856333   -0.0277999    0.5828529    0.8099776    0.0649514
   0.0346497   -0.0863110   -0.0269875    0.7734831    0.5667109    0.2838358
   0.0347705   -0.0863400   -0.0275368    0.8926487    0.4444003    0.0754105
   0.0347643   -0.0865081   -0.0270584    0.9416402    0.2033560    0.2682536
   0.0260448   -0.0892874   -0.0316483   -0.7579443   -0.4825247   -0.4389651
   0.0261587   -0.0901226   -0.0309132   -0.5458011   -0.6311560   -0.5511290
   0.0263724   -0.0877774   -0.0344239   -0.7985474   -0.4845173   -0.3571625
   0.0256940   -0.0886548   -0.0315590   -0.8622947   -0.3488431   -0.3670919
   0.0273209   -0.0912133   -0.0303436   -0.3172377   -0.7686094   -0.5555176
   0.0284890   -0.0914666   -0.0304288   -0.1791332   -0.8074518   -0.5620791
   0.0276108   -0.0915010   -0.0300686   -0.2055735   -0.8065196   -0.5543156
   0.0287010   -0.0921106   -0.0295853   -0.1912880   -0.7866379   -0.5870347
   0.0289988   -0.0924656   -0.0291866   -0.1939636   -0.8462042   -0.4963028
   0.0292525   -0.0924697   -0.0292559   -0.1576551   -0.8468648   -0.5079025
   0.0281955   -0.0921191   -0.0293948   -0.2271708   -0.8280298   -0.5126012
   0.0299380   -0.0925845   -0.0292826   -0.0951932   -0.8474449   -0.5222791
   0.0341670   -0.0902342   -0.0282384    0.7487695   -0.6154344   -0.2461397
   0.0307719   -0.0928247   -0.0288782    0.0452794   -0.6966487   -0.7159821
   0.0305591   -0.0928407   -0.0288705   -0.0457882   -0.8419361   -0.5376310
   0.0313227   -0.0930288   -0.0279117    0.2694995   -0.9593399   -0.0838866
   0.0310786   -0.0930773   -0.0279133    0.1365616   -0.9848294   -0.1070602
   0.0306271   -0.0930164   -0.0283993    0.0571231   -0.9580951   -0.2806968
   0.0322650   -0.0926261   -0.0278373    0.5105644   -0.8576740   -0.0609870
   0.0329206   -0.0919402   -0.0281863    0.8338189   -0.5423074   -0.1031930
   0.0327929   -0.0921612   -0.0277183    0.7826375   -0.6080728    0.1331390
   0.0333065   -0.0911841   -0.0281937    0.8315865   -0.5497700   -0.0788475
   0.0339488   -0.0905228   -0.0277022    0.7745011   -0.6092056    0.1703423
   0.0337396   -0.0907936   -0.0277199    0.7609765   -0.6469718    0.0483976
   0.0255746   -0.0828371   -0.0448345   -0.9045041   -0.3119904   -0.2907478
   0.0255579   -0.0831653   -0.0445934   -0.9326922   -0.2390767   -0.2700512
   0.0256357   -0.0814380   -0.0460496   -0.7730653    0.1815941   -0.6077777
   0.0254389   -0.0818430   -0.0456763   -0.8687592   -0.2232168   -0.4420766
   0.0253356   -0.0814040   -0.0456031   -0.8729312    0.0988367   -0.4777264
   0.0253364   -0.0812048   -0.0454827   -0.8430417    0.3292497   -0.4252944
   0.0250159   -0.0815759   -0.0445746   -0.9957664    0.0371424   -0.0840821
   0.0251517   -0.0811694   -0.0449825   -0.9134276    0.3732819   -0.1622053
   0.0252011   -0.0818100   -0.0451954   -0.9233674   -0.2625510   -0.2801064
   0.0251063   -0.0814044   -0.0450225   -0.9436845    0.1291176   -0.3046115
   0.0252382   -0.0891707   -0.0300149   -0.9485733   -0.0676061   -0.3092540
   0.0252946   -0.0880278   -0.0291123   -0.7282041    0.6851362    0.0175264
   0.0250395   -0.0888125   -0.0293527   -0.9822044    0.1237088   -0.1413172
   0.0254890   -0.0898668   -0.0302579   -0.8108763   -0.3786469   -0.4462131
   0.0293030   -0.0866886   -0.0262543   -0.2942531    0.9183354    0.2647172
   0.0300277   -0.0864287   -0.0267456   -0.2885479    0.9383401    0.1904153
   0.0312122   -0.0860688   -0.0259044   -0.2773183    0.8287898    0.4860062
   0.0302784   -0.0865781   -0.0255928   -0.3633262    0.8476369    0.3866598
   0.0307798   -0.0866185   -0.0252311   -0.2199756    0.7212005    0.6568718
   0.0331523   -0.0854387   -0.0271445    0.0245256    0.9938650    0.1078468
   0.0321472   -0.0855196   -0.0265766   -0.0649304    0.9608184    0.2694663
   0.0329068   -0.0854076   -0.0276632   -0.0631858    0.9934214    0.0955061
   0.0316746   -0.0857803   -0.0261006   -0.1585156    0.8922272    0.4228516
   0.0264336   -0.0875601   -0.0268967   -0.4087770    0.9065925    0.1048400
   0.0264406   -0.0876732   -0.0264022    0.3855870    0.8856306    0.2588069
   0.0264406   -0.0876732   -0.0264022    0.7725662    0.6240809    0.1168952
   0.0281276   -0.0872743   -0.0258410   -0.1665598    0.8999020    0.4030313
   0.0264406   -0.0876732   -0.0264022    0.7627914    0.6086442    0.2184068
   0.0264559   -0.0878371   -0.0259232   -0.4256554    0.8119667    0.3994091
   0.0266903   -0.0877289   -0.0259024   -0.3532527    0.8259167    0.4394020
   0.0252876   -0.0881213   -0.0280759   -0.5456774    0.8271864    0.1341594
   0.0257484   -0.0879270   -0.0275090   -0.6094270    0.7882356    0.0853427
   0.0250750   -0.0884314   -0.0276621   -0.7567874    0.6365463    0.1485990
   0.0346912   -0.0895524   -0.0280471    0.8606759   -0.4842836   -0.1571825
   0.0347882   -0.0891515   -0.0284564    0.9635230   -0.2599758   -0.0635302
   0.0348789   -0.0883816   -0.0278544    0.9836518   -0.1301049    0.1245067
   0.0341240   -0.0870084   -0.0259371    0.7341673   -0.0285660    0.6783674
   0.0344615   -0.0875002   -0.0264365    0.8709270   -0.0702319    0.4863677
   0.0345782   -0.0867072   -0.0265788    0.8553547    0.1346936    0.5002260
   0.0346297   -0.0885333   -0.0268497    0.9127631   -0.0847547    0.3996001
   0.0331619   -0.0853208   -0.0284791    0.0315333    0.9962043    0.0811334
   0.0336656   -0.0855006   -0.0271968    0.3259008    0.9302172    0.1687737
   0.0342119   -0.0857623   -0.0273138    0.5973941    0.7837810    0.1697284
   0.0340040   -0.0857719   -0.0267734    0.5297020    0.7928120    0.3014382
   0.0342329   -0.0859712   -0.0267830    0.6460790    0.6611126    0.3814604
   0.0342825   -0.0863505   -0.0263624    0.6730061    0.4888904    0.5550215
   0.0343240   -0.0866362   -0.0262149    0.7545087    0.2694236    0.5984376
   0.0258130   -0.0902445   -0.0304006   -0.6219443   -0.5929470   -0.5114677
   0.0268873   -0.0910927   -0.0302093   -0.4418900   -0.7328127   -0.5174155
   0.0268284   -0.0913604   -0.0297605   -0.4977838   -0.7588239   -0.4199971
   0.0274049   -0.0918813   -0.0294323   -0.3283749   -0.8199170   -0.4689414
   0.0276703   -0.0919812   -0.0293545   -0.2128348   -0.8410738   -0.4972888
   0.0287235   -0.0922881   -0.0293435   -0.2279489   -0.8460026   -0.4819948
   0.0285034   -0.0925985   -0.0285610   -0.2489744   -0.9190254   -0.3056207
   0.0295353   -0.0927395   -0.0287762   -0.1599745   -0.9161677   -0.3674847
   0.0277141   -0.0923749   -0.0285470   -0.3384031   -0.8970749   -0.2841476
   0.0282402   -0.0925118   -0.0286218   -0.2559288   -0.9146760   -0.3128390
   0.0344541   -0.0899764   -0.0276386    0.8190919   -0.5712974    0.0520356
   0.0297964   -0.0928085   -0.0287107   -0.1531159   -0.9254888   -0.3464476
   0.0303240   -0.0930143   -0.0283809   -0.1423019   -0.9730380   -0.1815139
   0.0308119   -0.0930527   -0.0273556    0.0578095   -0.9857671    0.1578645
   0.0315517   -0.0929424   -0.0274688    0.2948370   -0.9499612    0.1031741
   0.0305799   -0.0931069   -0.0278922   -0.0388557   -0.9982855   -0.0437752
   0.0324889   -0.0924752   -0.0276583    0.6216981   -0.7759256    0.1069154
   0.0317722   -0.0927936   -0.0270963    0.4305751   -0.8535610    0.2933236
