NORM_ASCII
1884 3725
  -0.0049045   -0.0000807   -0.0033287   -0.7121706   -0.4505149   -0.5383766
  -0.0049709    0.0004370   -0.0034050   -0.7764775   -0.2090699   -0.5944514
  -0.0022894    0.0002179   -0.0051785   -0.5441251   -0.4775736   -0.6898198
  -0.0023084   -0.0001527   -0.0048371   -0.8138621   -0.5018733   -0.2928339
  -0.0022818    0.0002081   -0.0051800   -0.8038692   -0.3793066   -0.4581712
  -0.0026394    0.0007176   -0.0051209   -0.5167583   -0.1660503   -0.8398739
  -0.0024688    0.0004509   -0.0051640   -0.4913479   -0.3447167   -0.7998423
  -0.0037781    0.0013127   -0.0043781   -0.6124129    0.1483462   -0.7764946
  -0.0031260    0.0019990   -0.0046611   -0.5883081    0.1331428   -0.7976005
  -0.0026528    0.0018755   -0.0049933   -0.5718665    0.1026980   -0.8138930
  -0.0021450    0.0016218   -0.0053836   -0.5337387    0.0864347   -0.8412205
  -0.0044537    0.0009171   -0.0039246   -0.7252032    0.0589022   -0.6860108
  -0.0048484    0.0012304   -0.0034101   -0.7896777    0.0930556   -0.6064238
  -0.0041794    0.0013058   -0.0040752   -0.6777148    0.1608114   -0.7175252
  -0.0021442   -0.0001486   -0.0053062   -0.9453525   -0.0498089   -0.3222232
  -0.0021485   -0.0001263   -0.0052951   -0.8958060   -0.2174512   -0.3876165
  -0.0022317    0.0007221   -0.0054197   -0.6314272   -0.1969117   -0.7500170
  -0.0004900    0.0027828   -0.0058208   -0.3887795    0.2647918   -0.8824601
  -0.0003054    0.0021672   -0.0060794   -0.3528779    0.2120162   -0.9113322
   0.0003183    0.0027680   -0.0060573   -0.2318220    0.3746347   -0.8977234
   0.0017937    0.0025466   -0.0063070   -0.1796478    0.4054683   -0.8962824
   0.0015315    0.0027049   -0.0061711   -0.1685843    0.5271135   -0.8329050
   0.0014798    0.0043225   -0.0051636   -0.1133226    0.5557905   -0.8235623
   0.0007722    0.0029480   -0.0059787   -0.1606351    0.5174732   -0.8404867
   0.0031337    0.0000735   -0.0071153    0.3608514    0.1727441   -0.9164855
   0.0031633    0.0007569   -0.0069915    0.3272584    0.2250992   -0.9177321
   0.0026677    0.0024026   -0.0064427   -0.0150528    0.4594814   -0.8880598
   0.0031415    0.0013880   -0.0068008    0.2049550    0.3539220   -0.9125419
   0.0064382   -0.0036107   -0.0046996    0.9685645   -0.2281084   -0.0992440
   0.0064526   -0.0034604   -0.0048450    0.9484956   -0.0475516   -0.3132011
   0.0064351   -0.0023248   -0.0047411    0.8593028    0.2691000   -0.4349528
   0.0065866   -0.0030165   -0.0045285    0.9782662    0.0883817   -0.1875740
   0.0065229   -0.0027919   -0.0047171    0.9030933    0.2102967   -0.3744300
   0.0061323   -0.0020946   -0.0052476    0.7977443    0.3220724   -0.5097778
   0.0057718   -0.0011169   -0.0052750    0.7024631    0.3939966   -0.5927161
   0.0045534    0.0004082   -0.0063225    0.5092152    0.1680898   -0.8440650
   0.0054671   -0.0000826   -0.0053749    0.7568592    0.2482296   -0.6046042
   0.0049230   -0.0004063   -0.0060621    0.6330230    0.1566208   -0.7581239
   0.0048162    0.0004839   -0.0060888    0.6881478    0.2237050   -0.6902237
   0.0056302   -0.0006829   -0.0052519    0.7660781    0.3065487   -0.5649357
  -0.0058576   -0.0011390   -0.0005015   -0.6631929   -0.7254953    0.1839342
  -0.0056197   -0.0017015   -0.0012079   -0.6169790   -0.7531205    0.2283560
  -0.0054107   -0.0019876   -0.0013930   -0.6629175   -0.7446356    0.0778348
  -0.0047169   -0.0025338    0.0009778   -0.6959177   -0.7124114    0.0903803
  -0.0040661   -0.0030451    0.0026540   -0.6492938   -0.7412615    0.1701440
  -0.0049942   -0.0024924   -0.0016511   -0.6016447   -0.7003181   -0.3841591
  -0.0051788   -0.0022794   -0.0016528   -0.6555110   -0.6921166   -0.3021256
  -0.0048406   -0.0024032   -0.0019540   -0.5559233   -0.6569584   -0.5092691
  -0.0048507   -0.0023105   -0.0020358   -0.5052064   -0.5777971   -0.6410281
  -0.0046771   -0.0022353   -0.0021604   -0.3359274   -0.4756273   -0.8129769
  -0.0047469   -0.0019011   -0.0023027   -0.3307074   -0.4566398   -0.8259012
  -0.0022736   -0.0043873    0.0040781   -0.2761001   -0.9592757   -0.0596562
  -0.0017760   -0.0045524    0.0041251    0.0724743   -0.9713082   -0.2265124
  -0.0018494   -0.0044338    0.0036509    0.2639743   -0.9477815   -0.1789632
  -0.0002908   -0.0044930    0.0042913    0.3378288   -0.7999004   -0.4960152
   0.0001848   -0.0042245    0.0042151    0.4699670   -0.7079074   -0.5272553
   0.0009061   -0.0039310    0.0043414    0.4248330   -0.7087796   -0.5631593
   0.0000416   -0.0048022    0.0049545    0.3448115   -0.7655300   -0.5432024
   0.0011960   -0.0034053    0.0036791    0.4848582   -0.7564614   -0.4389518
  -0.0011803   -0.0047892    0.0046474    0.0447769   -0.9486355   -0.3131863
  -0.0016250   -0.0046579    0.0043947   -0.1696831   -0.9732374   -0.1549730
  -0.0036192   -0.0031677    0.0037885   -0.6882573   -0.6879148    0.2303805
  -0.0032029   -0.0037292    0.0037979   -0.6411333   -0.7448514    0.1847824
  -0.0023893   -0.0043347    0.0044964   -0.4183076   -0.9074928    0.0384142
  -0.0026134   -0.0041278    0.0045993   -0.6014806   -0.7788638    0.1777420
  -0.0029785   -0.0036862    0.0046077   -0.7053450   -0.6755904    0.2146300
   0.0022893   -0.0025445    0.0025384    0.4468852   -0.8909728   -0.0803812
   0.0015958   -0.0029215    0.0030733    0.4911254   -0.8268270   -0.2741403
   0.0022505   -0.0025443    0.0017769    0.4559011   -0.8899857   -0.0089189
   0.0033999   -0.0022310    0.0024441    0.4313701   -0.8945040   -0.1173990
   0.0027808   -0.0023871    0.0022399    0.4154188   -0.9068058   -0.0716273
   0.0037334   -0.0021041    0.0016802    0.4592880   -0.8842593    0.0844982
   0.0032542   -0.0022371    0.0011072    0.3419096   -0.9351514    0.0926804
   0.0041143   -0.0019651    0.0025470    0.5426161   -0.8282422   -0.1399379
   0.0046990   -0.0022266   -0.0004344    0.5369939   -0.7508821    0.3844655
   0.0036118   -0.0021883    0.0010246    0.3818650   -0.9118891    0.1504575
   0.0042303   -0.0020769    0.0007291    0.4660806   -0.8547958    0.2282391
   0.0046604   -0.0021627   -0.0002217    0.5511360   -0.7760144    0.3066769
   0.0045805   -0.0020415    0.0002025    0.5807213   -0.7577301    0.2976708
   0.0053361   -0.0019202   -0.0009180    0.8442297   -0.3480074    0.4076360
   0.0055666   -0.0012902   -0.0008038    0.9239374   -0.1461716    0.3535161
   0.0057181   -0.0010066   -0.0011161    0.9317896    0.0173910    0.3625820
   0.0052731   -0.0019681   -0.0008537    0.7892758   -0.4762783    0.3875599
   0.0065166   -0.0034191   -0.0045163    0.9890577   -0.1445869   -0.0293178
   0.0065827   -0.0029759   -0.0041790    0.9906197    0.0653567    0.1200048
   0.0065666   -0.0027302   -0.0040159    0.9699212    0.0109768    0.2431714
   0.0065668   -0.0032081   -0.0043419    0.9950676   -0.0747109    0.0652585
   0.0065535   -0.0024678   -0.0038723    0.9918668    0.1003331    0.0783174
   0.0065581   -0.0022246   -0.0037123    0.9928960    0.0586299    0.1035380
   0.0058578   -0.0007617   -0.0014635    0.9251740    0.1866785    0.3304607
   0.0063276   -0.0011659   -0.0025907    0.9397450    0.1118333    0.3230677
   0.0065575   -0.0019330   -0.0035989    0.9878062    0.1340602    0.0791631
   0.0064735   -0.0012131   -0.0030877    0.9679412    0.1870392    0.1676488
  -0.0051124   -0.0014613   -0.0022954   -0.4016990   -0.4628587   -0.7901896
  -0.0053218   -0.0000986   -0.0027958   -0.5951670   -0.3590703   -0.7189191
  -0.0049890   -0.0001420   -0.0031816   -0.7046001   -0.4275293   -0.5663545
  -0.0052899    0.0005109   -0.0029884   -0.7700860   -0.1442504   -0.6214172
  -0.0032184    0.0022622   -0.0044917   -0.6584274    0.2525940   -0.7089920
  -0.0042497    0.0019910   -0.0036855   -0.7178055    0.2700043   -0.6417578
  -0.0019851    0.0026322   -0.0052191   -0.5315237    0.1817033   -0.8273249
  -0.0045495    0.0014756   -0.0036355   -0.7550126    0.2024433   -0.6236768
  -0.0056574    0.0006165   -0.0025876   -0.6798253   -0.0314206   -0.7327007
  -0.0053988    0.0010719   -0.0027073   -0.7948255    0.1790324   -0.5798274
  -0.0050115    0.0016169   -0.0029484   -0.7867504    0.2650891   -0.5574510
  -0.0010988    0.0030514   -0.0054977   -0.4457178    0.3081862   -0.8404504
  -0.0004594    0.0033170   -0.0055574   -0.2729161    0.5001283   -0.8218202
  -0.0002177    0.0030650   -0.0057827   -0.2695082    0.4885825   -0.8298509
  -0.0007770    0.0033384   -0.0054787   -0.3363169    0.4950723   -0.8011207
   0.0001645    0.0032634   -0.0056999   -0.2157919    0.5425950   -0.8118032
   0.0023310    0.0033039   -0.0057870    0.0292035    0.5912037   -0.8059934
   0.0022904    0.0039174   -0.0054220    0.0649167    0.5730920   -0.8169157
   0.0007855    0.0044038   -0.0050260   -0.2192537    0.5572785   -0.8008548
   0.0012899    0.0047961   -0.0047765   -0.0780982    0.7290458   -0.6799948
   0.0026114    0.0042644   -0.0050743    0.0756664    0.6582007   -0.7490304
   0.0040959    0.0011406   -0.0064590    0.3979253    0.1871016   -0.8981361
   0.0035788    0.0011427   -0.0067075    0.3316445    0.2972728   -0.8953439
   0.0039573    0.0021445   -0.0062135    0.2808421    0.4491859   -0.8481508
   0.0030604    0.0027647   -0.0061300    0.1118576    0.6040243   -0.7890770
   0.0036975    0.0014516   -0.0065605    0.2793559    0.3244937   -0.9036947
   0.0036767    0.0013968   -0.0065879    0.3056832    0.2410953   -0.9211031
   0.0065419   -0.0025620   -0.0045520    0.9546752    0.2429755   -0.1719249
   0.0065349   -0.0023113   -0.0043970    0.9534505    0.2467362   -0.1733590
   0.0063904   -0.0017173   -0.0045216    0.8698571    0.3613605   -0.3358082
   0.0062206   -0.0016980   -0.0048735    0.8039642    0.3742984   -0.4621063
   0.0061476   -0.0011188   -0.0046177    0.8218968    0.3980069   -0.4075244
   0.0045592    0.0017206   -0.0060055    0.5514321    0.3533515   -0.7556887
   0.0057017    0.0001177   -0.0048616    0.8552703    0.3148016   -0.4115978
   0.0053811    0.0003290   -0.0053469    0.7877901    0.2742142   -0.5515372
   0.0053861    0.0009881   -0.0051903    0.8335693    0.3003876   -0.4636049
   0.0047284    0.0015478   -0.0058948    0.7076419    0.3792904   -0.5961390
   0.0050844    0.0013719   -0.0054565    0.7483087    0.3638031   -0.5546904
  -0.0064669   -0.0004173   -0.0002155   -0.6676583   -0.7186545    0.1943403
  -0.0061114   -0.0010107   -0.0009288   -0.5971889   -0.7417840    0.3051587
  -0.0058103   -0.0015504   -0.0012911   -0.6123895   -0.7563524    0.2300223
  -0.0058658   -0.0010754   -0.0001729   -0.6866790   -0.7181882    0.1125954
  -0.0055833   -0.0018175   -0.0014979   -0.5967965   -0.8023051    0.0118482
  -0.0055423   -0.0018319   -0.0016391   -0.6097887   -0.7419924   -0.2785768
  -0.0044488   -0.0024375    0.0029772   -0.6791760   -0.7095424    0.1878019
  -0.0056061   -0.0011967    0.0021759   -0.7104575   -0.6912609    0.1319415
  -0.0055940   -0.0012963    0.0011087   -0.7259498   -0.6835597    0.0757826
  -0.0049824   -0.0021662   -0.0020418   -0.4964484   -0.5675044   -0.6568696
  -0.0052870   -0.0020136   -0.0017921   -0.6082233   -0.6262928   -0.4876696
  -0.0051636   -0.0019409   -0.0020339   -0.5356144   -0.5424624   -0.6471876
  -0.0007313   -0.0049035    0.0049144    0.1265510   -0.8937719   -0.4302983
   0.0006077   -0.0052807    0.0056864    0.3327675   -0.7146814   -0.6152206
   0.0018529   -0.0036909    0.0046047    0.4427085   -0.6990843   -0.5615072
  -0.0004959   -0.0051986    0.0055132    0.0541698   -0.8805908   -0.4707711
   0.0018535   -0.0031306    0.0037441    0.4291341   -0.7638343   -0.4820799
  -0.0018578   -0.0046770    0.0050376   -0.2719808   -0.9550430   -0.1179802
  -0.0011535   -0.0049649    0.0051651   -0.1565729   -0.9621313   -0.2231329
  -0.0022698   -0.0044058    0.0049119   -0.5277510   -0.8484461    0.0402252
  -0.0044850   -0.0023213    0.0032665   -0.6671693   -0.6893237    0.2823437
  -0.0037856   -0.0028381    0.0039187   -0.6618562   -0.6604146    0.3546815
  -0.0036216   -0.0027106    0.0045204   -0.7351776   -0.6369486    0.2319705
  -0.0031306   -0.0032880    0.0056801   -0.6865207   -0.7042113    0.1810409
  -0.0032272   -0.0031933    0.0052357   -0.7152171   -0.6972972    0.0473400
   0.0025154   -0.0025052    0.0028178    0.1454545   -0.9482029   -0.2824081
   0.0026348   -0.0024438    0.0023371    0.3130513   -0.9455486   -0.0890883
   0.0022999   -0.0026955    0.0031423    0.3643720   -0.8373360   -0.4075556
   0.0029534   -0.0023859    0.0026162    0.3776333   -0.9178041   -0.1225917
   0.0035630   -0.0021954    0.0025908    0.5168625   -0.8544965   -0.0518543
   0.0032024   -0.0023487    0.0028290    0.5105406   -0.8595535    0.0227187
   0.0044143   -0.0017526    0.0023008    0.7326212   -0.6803757    0.0188433
   0.0042343   -0.0019786    0.0014076    0.5292505   -0.8420113    0.1044555
   0.0044075   -0.0018514    0.0016213    0.7316603   -0.6639048    0.1546080
   0.0044680   -0.0017377    0.0018841    0.6312586   -0.7654287    0.1250264
   0.0034456   -0.0023330    0.0030240    0.3844471   -0.8885519   -0.2503516
   0.0036884   -0.0023204    0.0032161    0.5005585   -0.8269268   -0.2561900
   0.0041164   -0.0020810    0.0030849    0.6650941   -0.7339067   -0.1379522
   0.0043229   -0.0018332    0.0027905    0.8411233   -0.5381565   -0.0538441
   0.0050445   -0.0019563   -0.0004080    0.7538248   -0.5715639    0.3241339
   0.0043912   -0.0019423    0.0009390    0.6341274   -0.7551121    0.1663974
   0.0048340   -0.0019553    0.0000433    0.7431040   -0.5721060    0.3471184
   0.0049847   -0.0015683    0.0004081    0.8452168   -0.4492426    0.2894646
   0.0053224   -0.0017566   -0.0006795    0.8697906   -0.3542994    0.3434185
   0.0053306   -0.0008587   -0.0000920    0.9545552    0.0479186    0.2941567
   0.0051646   -0.0015483   -0.0000532    0.9104481   -0.2648928    0.3176728
   0.0056177    0.0001761   -0.0010296    0.9227638    0.2091193    0.3236913
   0.0065699   -0.0027345   -0.0040327    0.9881548    0.1449385    0.0504277
   0.0065351   -0.0018234   -0.0040809    0.9588340    0.2468215   -0.1404155
   0.0063233   -0.0007134   -0.0027347    0.9144383    0.3415729    0.2170958
   0.0060538    0.0000706   -0.0026098    0.9077671    0.3957522    0.1390649
   0.0057982    0.0002181   -0.0014853    0.9088464    0.3371476    0.2456210
   0.0065261   -0.0014653   -0.0036402    0.9563225    0.2857613   -0.0615449
   0.0064080   -0.0007800   -0.0030855    0.9274851    0.3735504    0.0152178
  -0.0055356   -0.0015257   -0.0020470   -0.4465109   -0.5799092   -0.6814201
  -0.0053455   -0.0017172   -0.0020270   -0.5132090   -0.6208821   -0.5925554
  -0.0053001   -0.0012605   -0.0023080   -0.3742729   -0.4438842   -0.8141785
  -0.0057671   -0.0000067   -0.0024630   -0.5564830   -0.2583928   -0.7896580
  -0.0054832   -0.0010429   -0.0023066   -0.4490979   -0.4067306   -0.7955384
  -0.0056622   -0.0008083   -0.0022909   -0.5332169   -0.3636427   -0.7638349
  -0.0028296    0.0029192   -0.0044524   -0.6689588    0.3895375   -0.6330519
  -0.0042278    0.0030333   -0.0029694   -0.7504129    0.3399055   -0.5668727
  -0.0024485    0.0028030   -0.0048490   -0.6149837    0.2873242   -0.7343295
  -0.0020585    0.0029112   -0.0050701   -0.5695227    0.3207035   -0.7568310
  -0.0057135    0.0008992   -0.0024475   -0.6465602    0.2175995   -0.7311705
  -0.0059331    0.0002801   -0.0024026   -0.5166614   -0.2050065   -0.8312841
  -0.0060237    0.0004776   -0.0023445   -0.5993689    0.0433801   -0.7992966
  -0.0057319    0.0013778   -0.0021173   -0.6916989    0.2743181   -0.6680586
  -0.0055429    0.0023778   -0.0019517   -0.7212720    0.2433188   -0.6485080
  -0.0044040    0.0037594   -0.0020474   -0.7198766    0.4296816   -0.5451159
  -0.0015988    0.0030919   -0.0052400   -0.4574939    0.3580196   -0.8139541
  -0.0013370    0.0037646   -0.0049302   -0.4152641    0.5105505   -0.7529236
  -0.0004979    0.0037657   -0.0051911   -0.2734417    0.5685357   -0.7758845
  -0.0010335    0.0039851   -0.0048444   -0.3655602    0.5845609   -0.7243302
   0.0030988    0.0040705   -0.0050437    0.2454684    0.6047719   -0.7576254
   0.0035084    0.0036440   -0.0051579    0.3645969    0.6582424   -0.6586244
   0.0034359    0.0032628   -0.0055529    0.1496651    0.7024469   -0.6958223
   0.0002977    0.0046663   -0.0047341   -0.2839857    0.5915095   -0.7546314
   0.0006733    0.0048580   -0.0046420   -0.2389684    0.7096744   -0.6627642
   0.0009952    0.0049942   -0.0044838   -0.1942236    0.7986032   -0.5696579
   0.0013096    0.0049703   -0.0045574   -0.0354562    0.8612478   -0.5069468
   0.0029107    0.0045314   -0.0046425    0.1496850    0.8322461   -0.5338172
   0.0029053    0.0043721   -0.0048795    0.2076451    0.7596406   -0.6163033
   0.0038928    0.0012800   -0.0065237    0.3015389    0.1530694   -0.9410866
   0.0040048    0.0015393   -0.0064369    0.3618689    0.2856995   -0.8873706
   0.0038475    0.0026852   -0.0059121    0.2369629    0.6069124   -0.7586211
   0.0042326    0.0022330   -0.0059955    0.4536059    0.5197756   -0.7239302
   0.0064123   -0.0010076   -0.0036461    0.8935355    0.3962581   -0.2111252
   0.0057487    0.0002140   -0.0045814    0.8260395    0.3967274   -0.4003326
   0.0047432    0.0025221   -0.0052659    0.5929138    0.5421730   -0.5954004
   0.0057375    0.0004509   -0.0044368    0.8232067    0.3925771   -0.4101390
   0.0057403    0.0007093   -0.0042678    0.8638294    0.3786855   -0.3322591
   0.0055117    0.0015765   -0.0046202    0.8212598    0.3831565   -0.4227569
   0.0049722    0.0017571   -0.0053940    0.7462284    0.4107843   -0.5238315
   0.0049967    0.0027420   -0.0047769    0.6944337    0.4829390   -0.5334152
  -0.0063866   -0.0007944   -0.0010463   -0.6249641   -0.7378006    0.2550884
  -0.0064885   -0.0001181    0.0011962   -0.7800107   -0.6047578    0.1607835
  -0.0067201    0.0001298    0.0005112   -0.8120692   -0.5677820    0.1347857
  -0.0067545   -0.0003247   -0.0009850   -0.7517666   -0.6129154    0.2432727
  -0.0067789   -0.0000429   -0.0004667   -0.8320693   -0.5313445    0.1591658
  -0.0061869   -0.0010895   -0.0012183   -0.6481612   -0.7277412    0.2242316
  -0.0059867   -0.0013846   -0.0013915   -0.6679732   -0.7441811    0.0025092
  -0.0057489   -0.0016409   -0.0016122   -0.6318824   -0.7717887   -0.0711814
  -0.0062883   -0.0002019    0.0022317   -0.7550973   -0.6391884    0.1458296
  -0.0057327   -0.0016419   -0.0016610   -0.5755664   -0.7304002   -0.3677485
  -0.0060127   -0.0004601    0.0027729   -0.7431369   -0.6193870    0.2531942
  -0.0007142   -0.0051177    0.0053997   -0.0972890   -0.9446330   -0.3133741
   0.0008406   -0.0053063    0.0058459    0.4186694   -0.7307731   -0.5391536
   0.0003769   -0.0055273    0.0059626    0.1987879   -0.8367445   -0.5102372
   0.0014504   -0.0048331    0.0057058    0.4478979   -0.6612841   -0.6017398
   0.0026142   -0.0036798    0.0050419    0.4385766   -0.7111344   -0.5494893
  -0.0000410   -0.0058225    0.0067036   -0.0456186   -0.9732616   -0.2251240
  -0.0005445   -0.0054519    0.0061261   -0.2250774   -0.9196094   -0.3219608
   0.0030213   -0.0035210    0.0049896    0.4214970   -0.7333484   -0.5334233
   0.0032836   -0.0032085    0.0047798    0.4929000   -0.7091731   -0.5041063
   0.0030825   -0.0029293    0.0041962    0.4121217   -0.7832120   -0.4655476
  -0.0018271   -0.0047003    0.0054364   -0.4608851   -0.8874157   -0.0088466
  -0.0016433   -0.0048238    0.0054955   -0.4025944   -0.9104491   -0.0948687
  -0.0014907   -0.0049748    0.0061255   -0.3891060   -0.9087254   -0.1510456
  -0.0026538   -0.0038395    0.0060477   -0.7058626   -0.7054437    0.0640875
  -0.0024999   -0.0040289    0.0061763   -0.6335067   -0.7684258    0.0905043
  -0.0055174   -0.0009923    0.0031175   -0.7166445   -0.6431121    0.2698658
  -0.0039675   -0.0026004    0.0039479   -0.6286143   -0.7063072    0.3255367
  -0.0043363   -0.0022091    0.0038878   -0.6469895   -0.6676623    0.3682820
  -0.0050229   -0.0012201    0.0039478   -0.6757766   -0.6349748    0.3743435
  -0.0039463   -0.0018901    0.0050142   -0.8455127   -0.4989633    0.1901154
  -0.0038156   -0.0022970    0.0057383   -0.8543679   -0.5128116    0.0841416
  -0.0036490   -0.0026264    0.0056076   -0.7519602   -0.6528528    0.0913191
  -0.0041038   -0.0017047    0.0048893   -0.6760893   -0.5671160    0.4704069
  -0.0029897   -0.0033596    0.0060327   -0.7537451   -0.6464178    0.1183740
  -0.0031411   -0.0031457    0.0059363   -0.7299471   -0.5437118    0.4141916
  -0.0033018   -0.0031175    0.0055722   -0.6773425   -0.7212834    0.1447665
  -0.0033157   -0.0029778    0.0058337   -0.6198780   -0.6599314    0.4245490
   0.0025159   -0.0025055    0.0028182    0.1683739   -0.9399025   -0.2970413
   0.0025165   -0.0025053    0.0028168    0.0770617   -0.9839611   -0.1608792
   0.0037341   -0.0027010    0.0042274    0.5028785   -0.7806759   -0.3710234
   0.0028460   -0.0024852    0.0030820    0.4384395   -0.8859185   -0.1513911
   0.0032015   -0.0024806    0.0033546    0.3665323   -0.8700736   -0.3295847
   0.0045327   -0.0015898    0.0024969    0.8877717   -0.4486123    0.1029972
   0.0045403   -0.0016953    0.0018222    0.7823528   -0.6208823    0.0492880
   0.0046485   -0.0015240    0.0020152    0.9238845   -0.3676979    0.1059986
   0.0045518   -0.0018053    0.0011488    0.7410138   -0.6651256    0.0922303
   0.0045115   -0.0017219    0.0017834    0.7794564   -0.6242797    0.0521773
   0.0046645   -0.0016369    0.0013433    0.8853397   -0.4336641    0.1676577
   0.0047481   -0.0014505    0.0015279    0.9255000   -0.3448073    0.1567088
   0.0047420   -0.0014570    0.0015359    0.8867066   -0.4570639    0.0695981
   0.0038957   -0.0024609    0.0038939    0.6856527   -0.6877465   -0.2385062
   0.0041209   -0.0022268    0.0036054    0.7542440   -0.6210927   -0.2129787
   0.0041635   -0.0020533    0.0031387    0.7349459   -0.6642787   -0.1363389
   0.0044461   -0.0016734    0.0029880    0.9105281   -0.4032355   -0.0913223
   0.0044652   -0.0016278    0.0029408    0.9492728   -0.3140308   -0.0163061
   0.0046075   -0.0013959    0.0026790    0.9499730   -0.2932915    0.1073842
   0.0051148   -0.0017596   -0.0002274    0.8320361   -0.4297527    0.3507542
   0.0048050   -0.0015905    0.0008693    0.8564701   -0.4753827    0.2011723
   0.0052116   -0.0010913    0.0002781    0.9676481   -0.0900732    0.2356779
   0.0050375   -0.0013609    0.0005829    0.9286114   -0.2636939    0.2610486
   0.0051758   -0.0008106    0.0004325    0.9621164    0.1104211    0.2492772
   0.0052421    0.0003941    0.0000402    0.9363945    0.2227563    0.2711918
   0.0054098    0.0008107   -0.0007856    0.9034432    0.3579341    0.2359525
   0.0060547    0.0002046   -0.0031230    0.8998449    0.4353136    0.0279508
   0.0058752    0.0004803   -0.0021663    0.8321777    0.5398755    0.1265494
   0.0058461    0.0006441   -0.0026966    0.8553442    0.4958872    0.1499404
   0.0059892    0.0004845   -0.0033636    0.9100299    0.4134358   -0.0302724
   0.0057679    0.0012204   -0.0033043    0.9158219    0.4013666   -0.0132297
   0.0054869    0.0008683   -0.0013010    0.7926630    0.6019363    0.0967371
  -0.0057199   -0.0013127   -0.0020494   -0.5269095   -0.5357508   -0.6598011
  -0.0065869   -0.0000312   -0.0018778   -0.6060328   -0.4065225   -0.6837131
  -0.0061192   -0.0007198   -0.0019693   -0.6252366   -0.4259395   -0.6539532
  -0.0058288   -0.0011610   -0.0020342   -0.6094034   -0.4705976   -0.6380952
  -0.0058956   -0.0010643   -0.0020217   -0.6307609   -0.4911282   -0.6007777
  -0.0038381    0.0036623   -0.0029033   -0.7301445    0.3904657   -0.5607365
  -0.0023974    0.0039916   -0.0040418   -0.6221796    0.4778193   -0.6201462
  -0.0027209    0.0046518   -0.0030141   -0.6013982    0.5633192   -0.5665613
  -0.0034696    0.0040439   -0.0029877   -0.6775489    0.4725102   -0.5636148
  -0.0017882    0.0034952   -0.0049261   -0.5197716    0.4458546   -0.7287326
  -0.0060745    0.0006604   -0.0022639   -0.5689561    0.0782407   -0.8186375
  -0.0063115    0.0009767   -0.0019499   -0.6013143    0.4142335   -0.6832508
  -0.0064334    0.0006985   -0.0020383   -0.5727752    0.2174000   -0.7903581
  -0.0063516    0.0002326   -0.0021406   -0.5772692   -0.1450092   -0.8035749
  -0.0064908    0.0011386   -0.0016594   -0.7453201    0.3146541   -0.5877846
  -0.0062355    0.0020861   -0.0014639   -0.6870552    0.2430110   -0.6847633
  -0.0056328    0.0030927   -0.0014311   -0.6855442    0.3759888   -0.6234273
  -0.0057703    0.0038681   -0.0005688   -0.7264130    0.4304074   -0.5357925
  -0.0030735    0.0052416   -0.0019121   -0.6256270    0.6348537   -0.4533782
  -0.0031329    0.0047293   -0.0025730   -0.6598419    0.5606937   -0.5002312
  -0.0046669    0.0042825   -0.0012968   -0.6561610    0.5180319   -0.5487218
  -0.0015629    0.0039568   -0.0046535   -0.4670529    0.5747921   -0.6719194
  -0.0003892    0.0046686   -0.0045239   -0.3415291    0.6079960   -0.7167278
  -0.0008188    0.0050606   -0.0039849   -0.3873795    0.6791418   -0.6234609
   0.0036085    0.0042063   -0.0045548    0.4498549    0.6492381   -0.6132866
   0.0038830    0.0033340   -0.0049852    0.5467076    0.7014124   -0.4573089
   0.0036977    0.0033381   -0.0053167    0.4127241    0.7676781   -0.4902338
   0.0036897    0.0031766   -0.0055501    0.2304577    0.7303751   -0.6429941
   0.0000801    0.0052499   -0.0040522   -0.2145355    0.8140144   -0.5397732
   0.0009952    0.0051472   -0.0042409   -0.1063782    0.8842475   -0.4547417
   0.0012163    0.0053344   -0.0037097   -0.0416497    0.9463536   -0.3204374
   0.0018014    0.0052402   -0.0038042    0.0395674    0.9316627   -0.3611634
   0.0026371    0.0049041   -0.0041335    0.1654692    0.8992969   -0.4048271
   0.0036111    0.0045149   -0.0040733    0.3095215    0.8372929   -0.4507072
   0.0041215    0.0027719   -0.0056933    0.3894121    0.7123972   -0.5838223
   0.0059958    0.0000319   -0.0041008    0.8684563    0.3708432   -0.3290274
   0.0060454    0.0001159   -0.0038089    0.8850831    0.4181841   -0.2043280
   0.0045855    0.0028605   -0.0051472    0.4290291    0.6962219   -0.5755077
   0.0046106    0.0030393   -0.0049358    0.3224213    0.7545091   -0.5716297
   0.0048365    0.0030779   -0.0046542    0.4524963    0.7112867   -0.5378832
   0.0055183    0.0017388   -0.0043813    0.9273894    0.3432481   -0.1487606
   0.0050529    0.0031062   -0.0043619    0.6091769    0.6093283   -0.5075653
   0.0052228    0.0029338   -0.0042528    0.8176783    0.4726525   -0.3286363
  -0.0063526   -0.0009128   -0.0013328   -0.7190267   -0.6949825   -0.0002257
  -0.0065616   -0.0006267   -0.0011476   -0.6962156   -0.7142336    0.0717925
  -0.0069158    0.0007353    0.0011643   -0.8704666   -0.4582338    0.1797487
  -0.0068912    0.0012201    0.0018624   -0.9112433   -0.3133851    0.2672555
  -0.0066307    0.0004793    0.0020867   -0.8532884   -0.4698710    0.2260975
  -0.0070481    0.0008341   -0.0000445   -0.9327327   -0.3560851    0.0566847
  -0.0068987    0.0002552   -0.0007077   -0.9421732   -0.3143647    0.1161225
  -0.0068916    0.0000348   -0.0008914   -0.8787538   -0.3860518    0.2806345
  -0.0067121   -0.0004346   -0.0012817   -0.7466564   -0.6549271   -0.1165103
  -0.0068974   -0.0001246   -0.0011275   -0.8735320   -0.4846903    0.0449130
  -0.0061342   -0.0011887   -0.0015282   -0.7018506   -0.7072456   -0.0849089
  -0.0059161   -0.0014243   -0.0016588   -0.6825124   -0.6500889   -0.3340078
  -0.0060958   -0.0011928   -0.0016458   -0.6727422   -0.6687125   -0.3166095
  -0.0058398   -0.0013869   -0.0018202   -0.6402439   -0.6021160   -0.4770158
  -0.0061338    0.0002226    0.0033327   -0.8292028   -0.4053942    0.3848094
  -0.0058558   -0.0004925    0.0031414   -0.7335689   -0.5828289    0.3495528
   0.0006055   -0.0055699    0.0061081    0.2956882   -0.8679993   -0.3989306
   0.0014332   -0.0055413    0.0067560    0.3280197   -0.8948058   -0.3028625
   0.0020300   -0.0053337    0.0067311    0.4095561   -0.7714309   -0.4869889
   0.0025209   -0.0044450    0.0058459    0.5035411   -0.6553645   -0.5629776
   0.0022715   -0.0050441    0.0064913    0.4520024   -0.6725535   -0.5859740
   0.0032626   -0.0040732    0.0060375    0.6510637   -0.6063975   -0.4565064
   0.0031238   -0.0044022    0.0063305    0.6612675   -0.5788053   -0.4771894
   0.0032574   -0.0035329    0.0051613    0.5711008   -0.6724093   -0.4708605
  -0.0010585   -0.0054338    0.0067682   -0.3082311   -0.9425089   -0.1291145
  -0.0008435   -0.0055301    0.0068680   -0.2189874   -0.9756835   -0.0092869
   0.0001229   -0.0058482    0.0070626   -0.0295762   -0.9784003    0.2045927
   0.0001991   -0.0058484    0.0068421    0.1956834   -0.9697472   -0.1459396
  -0.0012614   -0.0052929    0.0067051   -0.4526054   -0.8778926   -0.1563744
   0.0035027   -0.0029508    0.0045013    0.5383626   -0.7400272   -0.4031443
   0.0037486   -0.0029037    0.0047389    0.6718369   -0.6365753   -0.3786912
   0.0037534   -0.0028954    0.0047281    0.6896357   -0.6587641   -0.3007199
  -0.0018801   -0.0046271    0.0060554   -0.5676126   -0.8232957    0.0003690
  -0.0023274   -0.0041989    0.0062811   -0.6076619   -0.7867954    0.1081665
  -0.0014536   -0.0051106    0.0066767   -0.6069653   -0.7891392   -0.0940875
  -0.0027160   -0.0037506    0.0063682   -0.7315749   -0.6241104    0.2743801
  -0.0028658   -0.0035572    0.0062353   -0.8076459   -0.5444412    0.2264771
  -0.0025439   -0.0039210    0.0064743   -0.6517954   -0.6758646    0.3440491
  -0.0056908   -0.0006472    0.0032927   -0.7438664   -0.6129942    0.2662722
  -0.0058476   -0.0003310    0.0033746   -0.7590465   -0.5692225    0.3159653
  -0.0053553   -0.0007137    0.0039639   -0.6947470   -0.5656850    0.4442152
  -0.0039667   -0.0017582    0.0052819   -0.9069390   -0.4048044    0.1165977
  -0.0042153   -0.0011660    0.0051925   -0.7616574   -0.4718371    0.4441258
  -0.0036730   -0.0024974    0.0058819   -0.7103178   -0.6294025    0.3151208
  -0.0038308   -0.0021591    0.0060007   -0.7858027   -0.5154997    0.3417223
  -0.0039508   -0.0019352    0.0058293   -0.9171277   -0.3856305    0.1008263
  -0.0034959   -0.0028160    0.0057375   -0.6710788   -0.6796040    0.2962965
  -0.0058221    0.0000011    0.0038276   -0.7241312   -0.4525207    0.5204412
  -0.0049403   -0.0006751    0.0045728   -0.6715241   -0.4452715    0.5922741
  -0.0044299   -0.0011922    0.0048984   -0.6694591   -0.4824790    0.5648349
  -0.0029964   -0.0033441    0.0060773   -0.8146279   -0.4899269    0.3104077
  -0.0030185   -0.0030601    0.0062046   -0.7617088   -0.2149242    0.6112342
  -0.0030944   -0.0029450    0.0061195   -0.6181128   -0.3379608    0.7097317
  -0.0032820   -0.0027903    0.0060340   -0.4946684   -0.5543186    0.6693535
  -0.0034906   -0.0026570    0.0059750   -0.5368649   -0.6447563    0.5441189
   0.0039321   -0.0026285    0.0044246    0.7841251   -0.5875410   -0.1998584
   0.0047470   -0.0011029    0.0023629    0.9896921   -0.0638544    0.1281879
   0.0048186   -0.0012247    0.0016828    0.9743680   -0.1548856    0.1631488
   0.0050675   -0.0011354    0.0007511    0.9575858   -0.1473393    0.2476297
   0.0049215   -0.0011804    0.0012228    0.9605479   -0.1892142    0.2038276
   0.0049391   -0.0009473    0.0013868    0.9751604   -0.0561356    0.2142683
   0.0042095   -0.0021539    0.0037200    0.8107421   -0.5525355   -0.1933956
   0.0042894   -0.0020968    0.0038176    0.8611815   -0.4854055   -0.1508241
   0.0043377   -0.0019528    0.0036679    0.9327356   -0.3374316   -0.1270601
   0.0045829   -0.0013540    0.0030345    0.9844204   -0.1710406    0.0407616
   0.0046533   -0.0011821    0.0028517    0.9877737   -0.1025661    0.1174027
   0.0050667   -0.0008909    0.0009087    0.9711126    0.0892686    0.2212951
   0.0050538    0.0002103    0.0006571    0.9321653    0.2789809    0.2307324
   0.0051298    0.0011350    0.0001555    0.9140496    0.3493966    0.2059985
   0.0049413    0.0009447    0.0007789    0.9302620    0.2423311    0.2754782
   0.0054516    0.0010103   -0.0018477    0.7346435    0.6430514    0.2162955
   0.0056811    0.0013223   -0.0028906    0.8784176    0.4119748    0.2421966
   0.0055374    0.0021838   -0.0028566    0.9644328    0.2346848    0.1216237
   0.0051446    0.0013440   -0.0004298    0.8146914    0.5784680    0.0406545
   0.0053532    0.0011339   -0.0018420    0.7592701    0.6244790    0.1831251
   0.0051029    0.0014053   -0.0012452    0.8203465    0.5677350    0.0686190
   0.0050725    0.0014642   -0.0009043    0.8223580    0.5689699   -0.0006808
  -0.0064700   -0.0006264   -0.0015634   -0.7043363   -0.5612313   -0.4346604
  -0.0067998   -0.0001588   -0.0015113   -0.7836533   -0.4494907   -0.4287721
  -0.0066921    0.0001558   -0.0018376   -0.6962545   -0.2709754   -0.6646819
  -0.0061943   -0.0010565   -0.0016326   -0.7261417   -0.5855508   -0.3603450
  -0.0013920    0.0049737   -0.0037267   -0.5239118    0.6288118   -0.5745539
  -0.0013578    0.0054689   -0.0030395   -0.4081755    0.7817010   -0.4715255
  -0.0027672    0.0051777   -0.0023324   -0.5597385    0.6504291   -0.5134538
  -0.0065007    0.0005837   -0.0020259   -0.6294963   -0.0101838   -0.7769368
  -0.0065267    0.0006748   -0.0019871   -0.6945589    0.2323629   -0.6808784
  -0.0065294    0.0009205   -0.0018300   -0.7431494    0.3801860   -0.5506248
  -0.0065939    0.0024303   -0.0009021   -0.7973555    0.2569465   -0.5460794
  -0.0067499    0.0011963   -0.0012074   -0.8974167    0.1054832   -0.4283883
  -0.0067666    0.0009377   -0.0013874   -0.9062455    0.2521017   -0.3393579
  -0.0058794    0.0032095   -0.0010781   -0.7453422    0.4118186   -0.5242809
  -0.0059550    0.0040951    0.0000490   -0.8017824    0.4909715   -0.3407227
  -0.0053970    0.0042469   -0.0006515   -0.7039937    0.5324072   -0.4700377
  -0.0027068    0.0057381   -0.0013312   -0.5476236    0.7748687   -0.3157324
  -0.0037509    0.0051695   -0.0012500   -0.6246812    0.6720995   -0.3975621
  -0.0017594    0.0055571   -0.0026116   -0.4439696    0.8015802   -0.4004499
  -0.0026590    0.0056345   -0.0016340   -0.4639282    0.7961510   -0.3884769
  -0.0047706    0.0049434   -0.0003368   -0.6165457    0.7040594   -0.3523802
  -0.0051753    0.0046339   -0.0003099   -0.6901070    0.6302086   -0.3557940
  -0.0006261    0.0052931   -0.0036881   -0.2826799    0.8664425   -0.4115453
   0.0040807    0.0031898   -0.0049119    0.3633667    0.7519548   -0.5500261
   0.0041681    0.0035863   -0.0045363    0.3802867    0.6220327   -0.6844395
   0.0041139    0.0033772   -0.0047108    0.2754808    0.6592832   -0.6996113
   0.0038381    0.0042477   -0.0042798    0.5084702    0.7378712   -0.4438514
   0.0044014    0.0036318   -0.0042653    0.4673959    0.7182030   -0.5154857
   0.0041052    0.0030625   -0.0051853    0.3468504    0.8448454   -0.4073464
   0.0003849    0.0053687   -0.0038717   -0.1629960    0.9043471   -0.3944472
   0.0006773    0.0053216   -0.0039188   -0.0174179    0.9119196   -0.4099991
   0.0008154    0.0055759   -0.0030409   -0.0133077    0.9655318   -0.2599446
   0.0016915    0.0054340   -0.0031787    0.0753347    0.9866702   -0.1442452
   0.0013302    0.0055632   -0.0028019    0.0216718    0.9928869   -0.1170720
   0.0023099    0.0052210   -0.0035576    0.1161266    0.9550603   -0.2727168
   0.0028400    0.0050010   -0.0036924    0.1658795    0.9324526   -0.3209612
   0.0035667    0.0047757   -0.0035311    0.3087206    0.9184062   -0.2474301
   0.0033209    0.0048704   -0.0035433    0.2257808    0.9456813   -0.2339017
   0.0038329    0.0043960   -0.0040293    0.5025638    0.7959819   -0.3374055
   0.0043493    0.0029656   -0.0051708    0.2191623    0.8244370   -0.5217965
   0.0043475    0.0031167   -0.0049260    0.1187234    0.8182252   -0.5625054
   0.0043658    0.0032889   -0.0047058    0.2472786    0.7624005   -0.5979957
   0.0048453    0.0033929   -0.0041802    0.3873917    0.8108493   -0.4386925
   0.0054997    0.0026366   -0.0029032    0.9428943    0.3122023   -0.1161036
   0.0054669    0.0020132   -0.0042427    0.9092275    0.3616405   -0.2062074
   0.0050593    0.0032657   -0.0041269    0.5535611    0.7669678   -0.3245466
   0.0053446    0.0027118   -0.0040833    0.8873981    0.4188994   -0.1924786
   0.0052077    0.0032246   -0.0037475    0.7664828    0.6161901   -0.1811461
  -0.0064602   -0.0006761   -0.0015197   -0.7370326   -0.6395691   -0.2184820
  -0.0070911    0.0014029    0.0009826   -0.9635493   -0.2222659    0.1488983
  -0.0066755    0.0007482    0.0022372   -0.8813606   -0.3458255    0.3218822
  -0.0068289    0.0020907    0.0021890   -0.9266768   -0.0386387    0.3738679
  -0.0063922    0.0013044    0.0031741   -0.8912146   -0.1321903    0.4338921
  -0.0069582    0.0022076    0.0017338   -0.9644182   -0.0237165    0.2633153
  -0.0071164    0.0017238    0.0006911   -0.9898702   -0.1341975    0.0463474
  -0.0071025    0.0013689   -0.0001411   -0.9853915   -0.1464252   -0.0869674
  -0.0069531    0.0004721   -0.0008940   -0.9771365   -0.1300887    0.1681700
  -0.0069195    0.0008990   -0.0009174   -0.9905036   -0.0211041   -0.1358573
  -0.0070527    0.0011766   -0.0003621   -0.9688777   -0.1610845   -0.1879571
  -0.0069785    0.0002931   -0.0011045   -0.9795745   -0.1854186    0.0778052
  -0.0067989   -0.0001763   -0.0014950   -0.7980415   -0.5373973   -0.2726424
  -0.0069507    0.0001682   -0.0013829   -0.9333001   -0.3261236   -0.1503145
  -0.0058665    0.0006089    0.0040460   -0.8204370   -0.2410033    0.5184597
  -0.0058952    0.0006754    0.0039939   -0.8350042   -0.1967207    0.5138763
  -0.0061218    0.0010415    0.0037227   -0.8682269   -0.1579832    0.4703439
  -0.0063476    0.0008499    0.0031980   -0.9361027   -0.1434361    0.3211508
  -0.0063859    0.0006578    0.0030042   -0.8892085   -0.2961800    0.3486915
   0.0006317   -0.0057472    0.0066249    0.3241249   -0.9232374   -0.2063388
   0.0018026   -0.0055452    0.0070332    0.3339294   -0.8977544   -0.2872772
   0.0013769   -0.0056430    0.0072558    0.0663893   -0.9760109   -0.2073529
   0.0013757   -0.0056428    0.0072569    0.0241171   -0.9690973   -0.2454972
   0.0010876   -0.0056931    0.0070062    0.3124083   -0.9483749    0.0546450
   0.0022624   -0.0053595    0.0068916    0.3622571   -0.7843739   -0.5035150
   0.0018083   -0.0055451    0.0070373    0.3011144   -0.9236966   -0.2368856
   0.0029971   -0.0047157    0.0066607    0.5375773   -0.6068996   -0.5853918
   0.0030242   -0.0051089    0.0070202    0.5391864   -0.5500637   -0.6377366
   0.0024937   -0.0053805    0.0070526    0.3361929   -0.7500253   -0.5695932
   0.0034530   -0.0039943    0.0062334    0.8317213   -0.4560699   -0.3166069
   0.0033434   -0.0037775    0.0056791    0.7351047   -0.5570420   -0.3864264
   0.0035644   -0.0036337    0.0058615    0.8500176   -0.4532783   -0.2683446
   0.0037252   -0.0038558    0.0067925    0.9191832   -0.2873459   -0.2693224
   0.0032459   -0.0046978    0.0068428    0.7252942   -0.4494511   -0.5214806
   0.0036847   -0.0033770    0.0055860    0.8568749   -0.4428669   -0.2638832
   0.0036056   -0.0031812    0.0050417    0.7745013   -0.5523262   -0.3083560
  -0.0011339   -0.0054029    0.0070359   -0.4291981   -0.8710067    0.2390320
  -0.0009024   -0.0055125    0.0070660   -0.2492732   -0.9237567    0.2907516
  -0.0004000   -0.0056660    0.0071171   -0.1458102   -0.8933856    0.4249724
  -0.0001435   -0.0056219    0.0073190   -0.0837636   -0.7345942    0.6733165
   0.0004452   -0.0058204    0.0070479    0.2878323   -0.9549634    0.0720931
   0.0003921   -0.0057661    0.0072881    0.1195592   -0.8666820    0.4843221
  -0.0013360   -0.0052631    0.0069686   -0.5718114   -0.8037125    0.1645536
   0.0037572   -0.0028921    0.0047320    0.8198843   -0.5391160   -0.1927268
  -0.0021525   -0.0043667    0.0063828   -0.6229232   -0.7628709    0.1731899
  -0.0018106   -0.0047094    0.0065981   -0.6422358   -0.7600388    0.0993691
  -0.0023614   -0.0040804    0.0065674   -0.6129464   -0.6860115    0.3920267
  -0.0015094   -0.0050947    0.0068634   -0.6637977   -0.7403353    0.1061900
  -0.0016575   -0.0048991    0.0067284   -0.6923715   -0.7209192   -0.0299550
  -0.0018203   -0.0046754    0.0066801   -0.6951553   -0.7183519    0.0270113
  -0.0026893   -0.0035698    0.0065781   -0.7088897   -0.4117648    0.5726475
  -0.0028344   -0.0033717    0.0064381   -0.7927501   -0.2561307    0.5531224
  -0.0029581   -0.0031520    0.0062711   -0.8058889   -0.2313719    0.5449864
  -0.0025192   -0.0037422    0.0066866   -0.6401195   -0.4520183    0.6212298
  -0.0041192   -0.0006078    0.0058002   -0.8947625   -0.2826760    0.3456795
  -0.0044829   -0.0005930    0.0051275   -0.7657394   -0.3234119    0.5559207
  -0.0036621   -0.0023334    0.0061103   -0.5781547   -0.5756675    0.5782249
  -0.0037981   -0.0019719    0.0062030   -0.6723142   -0.4039995    0.6203047
  -0.0039447   -0.0017757    0.0060648   -0.8776229   -0.2615479    0.4017097
  -0.0056536    0.0006343    0.0043447   -0.7072363   -0.2429645    0.6639165
  -0.0052202   -0.0001151    0.0045232   -0.6594980   -0.3559571    0.6620852
  -0.0043972    0.0011073    0.0058294   -0.7221896   -0.1999283    0.6621713
  -0.0029038   -0.0030250    0.0063149   -0.7257555   -0.0386840    0.6868643
  -0.0028448   -0.0028825    0.0063705   -0.6435814   -0.1200464    0.7559046
  -0.0030087   -0.0027038    0.0062541   -0.4657071   -0.3991893    0.7897878
  -0.0032236   -0.0025769    0.0062034   -0.3658401   -0.4986904    0.7857919
  -0.0034527   -0.0024650    0.0061698   -0.3632038   -0.5699165    0.7370741
   0.0040149   -0.0025395    0.0045455    0.8595365   -0.4887013   -0.1495598
   0.0042316   -0.0022003    0.0043180    0.9322893   -0.3609249    0.0238734
   0.0041410   -0.0023475    0.0044850    0.9311664   -0.3627449   -0.0366787
   0.0048974   -0.0005917    0.0015853    0.9719129    0.1349221    0.1928246
   0.0047327   -0.0008538    0.0025203    0.9785240    0.1439961    0.1474991
   0.0043896   -0.0019206    0.0040077    0.9737234   -0.2275296    0.0096414
   0.0046032   -0.0011796    0.0032523    0.9958656   -0.0139379    0.0897638
   0.0046633   -0.0009443    0.0030132    0.9879149    0.0604327    0.1427310
   0.0050000   -0.0001922    0.0010478    0.9576016    0.2039157    0.2035131
   0.0048706    0.0003289    0.0013751    0.9327720    0.2972578    0.2038972
   0.0049465    0.0003104    0.0009836    0.9205095    0.3319005    0.2061658
   0.0050261    0.0015291    0.0002070    0.9023677    0.4087329    0.1366380
   0.0048773    0.0006011    0.0011193    0.9405353    0.2479758    0.2321668
   0.0046082    0.0017590    0.0016649    0.9417619    0.2366580    0.2389089
   0.0053201    0.0012578   -0.0019482    0.8347043    0.4372248    0.3348181
   0.0054305    0.0022186   -0.0024918    0.9360544    0.1184220    0.3313282
   0.0054934    0.0026886   -0.0025634    0.9725582    0.1812581    0.1458633
   0.0050143    0.0015420   -0.0006129    0.8568392    0.5154508    0.0117060
   0.0051232    0.0015944   -0.0017189    0.8953831    0.3504469    0.2747290
   0.0049842    0.0017054   -0.0011408    0.9464719    0.3119003    0.0831216
   0.0049484    0.0018370   -0.0008279    0.9492066    0.3096006    0.0561622
  -0.0069430    0.0001654   -0.0014099   -0.8841539   -0.3186901   -0.3416263
  -0.0067476    0.0002741   -0.0018028   -0.8005992   -0.2172749   -0.5584196
  -0.0007094    0.0056191   -0.0029298   -0.2253506    0.9367543   -0.2677845
  -0.0007000    0.0056030   -0.0029824   -0.2249271    0.9084751   -0.3522511
  -0.0010643    0.0057298   -0.0026012   -0.2437172    0.9131387   -0.3267715
  -0.0068134    0.0004805   -0.0017185   -0.8676201    0.0063717   -0.4971869
  -0.0068111    0.0007231   -0.0015598   -0.9064728    0.2241950   -0.3578320
  -0.0068409    0.0019656   -0.0007788   -0.8997708    0.1185207   -0.4199588
  -0.0068033    0.0026723   -0.0002926   -0.9349248    0.2096517   -0.2862896
  -0.0065431    0.0028850   -0.0005696   -0.8152428    0.3559723   -0.4567962
  -0.0070223    0.0019464   -0.0003179   -0.9669537    0.0119455   -0.2546719
  -0.0069338    0.0006638   -0.0010802   -0.9936732    0.0683332   -0.0891297
  -0.0065069    0.0031045   -0.0003997   -0.8133150    0.4345598   -0.3868804
  -0.0063879    0.0038580    0.0007896   -0.8629983    0.5025297   -0.0519415
  -0.0060480    0.0042043    0.0006602   -0.7907059    0.6023677   -0.1092580
  -0.0055622    0.0044598   -0.0000277   -0.7248243    0.6431507   -0.2469552
  -0.0029535    0.0057505   -0.0008802   -0.5166422    0.8252568   -0.2281055
  -0.0023466    0.0059147   -0.0012195   -0.4021919    0.8781096   -0.2591626
  -0.0020075    0.0059652   -0.0012465   -0.3116084    0.9155233   -0.2543960
  -0.0014593    0.0057986   -0.0021596   -0.2913904    0.9170095   -0.2723697
  -0.0033801    0.0057011   -0.0003156   -0.5413113    0.8173331   -0.1973542
  -0.0048132    0.0051186    0.0002854   -0.5815993    0.7995379   -0.1499379
  -0.0050121    0.0049634    0.0001043   -0.6887718    0.6977641   -0.1967708
  -0.0053106    0.0048814    0.0010468   -0.7027138    0.7099632   -0.0463204
   0.0005906    0.0055391   -0.0033223   -0.1060235    0.9514072   -0.2891079
   0.0040965    0.0041608   -0.0038929    0.5640342    0.7620172   -0.3181118
   0.0045881    0.0036296   -0.0039346    0.4831018    0.8021083   -0.3510483
   0.0001168    0.0057068   -0.0025594   -0.0610694    0.9884847   -0.1384502
   0.0012204    0.0055632   -0.0016100    0.0721995    0.9973869    0.0025698
   0.0027180    0.0052123   -0.0021300    0.1107293    0.9931407   -0.0375563
   0.0027585    0.0051411   -0.0032343    0.1714291    0.9757308   -0.1362408
   0.0006066    0.0056683   -0.0022895    0.0039453    0.9990773   -0.0427672
   0.0031473    0.0051116   -0.0017840    0.1820916    0.9830080   -0.0231929
   0.0035968    0.0048739   -0.0025881    0.2684566    0.9515276   -0.1500878
   0.0039350    0.0046068   -0.0031164    0.4856824    0.8466255   -0.2175726
   0.0053094    0.0031346   -0.0033105    0.8417144    0.4908402   -0.2249282
   0.0053213    0.0033003   -0.0030822    0.8466407    0.4615928   -0.2648239
   0.0054199    0.0032078   -0.0026402    0.9183777    0.3955757    0.0101092
   0.0050033    0.0034584   -0.0036598    0.5322215    0.8076762   -0.2537705
   0.0052489    0.0031376   -0.0036803    0.8417241    0.5239247   -0.1303973
   0.0051657    0.0033347   -0.0034514    0.6766312    0.7030256   -0.2189184
  -0.0070344    0.0022673    0.0013154   -0.9879443   -0.0033765    0.1547730
  -0.0066130    0.0021897    0.0025954   -0.8678242   -0.0048799    0.4968473
  -0.0066422    0.0025886    0.0024384   -0.8934816    0.0924903    0.4394726
  -0.0066556    0.0029223    0.0021323   -0.9285748    0.1863630    0.3209635
  -0.0062072    0.0013004    0.0035062   -0.9317674   -0.0324687    0.3616011
  -0.0061240    0.0015392    0.0036448   -0.8771212   -0.0370959    0.4788344
  -0.0062569    0.0025971    0.0030852   -0.8721479    0.0521635    0.4864536
  -0.0067579    0.0029492    0.0017538   -0.9509954    0.2044961    0.2319247
  -0.0070915    0.0020940    0.0003367   -0.9949019    0.0347537   -0.0946700
  -0.0070863    0.0022543    0.0005711   -0.9965739    0.0710505   -0.0423362
  -0.0070758    0.0019590    0.0000721   -0.9910902    0.0485282   -0.1240376
  -0.0069671    0.0004423   -0.0012489   -0.9898205   -0.0170925   -0.1412916
  -0.0069489    0.0001872   -0.0014010   -0.9379545   -0.1708968   -0.3017212
  -0.0057856    0.0008457    0.0041872   -0.7964946   -0.1269218    0.5911744
  -0.0057856    0.0008457    0.0041872   -0.7840613   -0.1277324    0.6073980
  -0.0060373    0.0012809    0.0038579   -0.8137253   -0.0941471    0.5735742
  -0.0061911    0.0012631    0.0035378   -0.8882482   -0.0906744    0.4503257
  -0.0062717    0.0010960    0.0033688   -0.9628051    0.0044997    0.2701594
   0.0013761   -0.0056433    0.0072575    0.1608377   -0.9858755   -0.0466990
   0.0010158   -0.0056668    0.0073893    0.1268065   -0.9682972    0.2152224
   0.0008021   -0.0056420    0.0074334    0.1827355   -0.8077430    0.5604988
   0.0007160   -0.0056989    0.0073318    0.3052126   -0.8954676    0.3240108
