NORM_ASCII
2270 4536
   0.0131529   -0.0098521   -0.0056303   -0.6682674   -0.1777246    0.7223799
   0.0130927   -0.0094760   -0.0055886   -0.6440165   -0.0787471    0.7609478
   0.0136146   -0.0078500   -0.0052009   -0.5025701    0.1761400    0.8464029
   0.0137686   -0.0080526   -0.0050128   -0.6136735    0.1399373    0.7770601
   0.0135664   -0.0077931   -0.0052489   -0.6428542    0.1159915    0.7571555
   0.0137950   -0.0059082   -0.0052788   -0.6669924    0.1222529    0.7349662
   0.0156237   -0.0051320   -0.0039139   -0.3738012    0.2110040    0.9031888
   0.0156774   -0.0052026   -0.0038481   -0.6525877    0.2124666    0.7273151
   0.0154717   -0.0049667   -0.0040397   -0.5990243    0.1364166    0.7890249
   0.0131161   -0.0101248   -0.0057511   -0.6549888   -0.2453539    0.7146965
   0.0129746   -0.0103187   -0.0058922   -0.5767128   -0.1410064    0.8046860
   0.0133959   -0.0112791   -0.0059508   -0.5028490   -0.3670022    0.7825933
   0.0152700   -0.0143289   -0.0071765   -0.3015918   -0.7741806    0.5564950
   0.0144850   -0.0137032   -0.0067487   -0.4598240   -0.7559643    0.4659183
   0.0145845   -0.0135641   -0.0064574   -0.3453390   -0.6475332    0.6792950
   0.0158198   -0.0143739   -0.0070706   -0.0373963   -0.6751760    0.7367082
   0.0154917   -0.0144477   -0.0072161   -0.2585648   -0.7608484    0.5951924
   0.0146914   -0.0133703   -0.0062760   -0.2264533   -0.4915643    0.8408825
   0.0148026   -0.0131432   -0.0061608   -0.1239963   -0.3657575    0.9224133
   0.0129679   -0.0120629   -0.0066582   -0.5314370   -0.5117935    0.6750127
   0.0143646   -0.0128704   -0.0061482   -0.4103959   -0.3575288    0.8388971
   0.0140424   -0.0128983   -0.0063842   -0.5877028   -0.4481273    0.6736374
   0.0133998   -0.0123813   -0.0065809   -0.5793189   -0.5590541    0.5931678
   0.0145820   -0.0130167   -0.0061371   -0.2474973   -0.3769143    0.8925697
   0.0172294   -0.0044096   -0.0030502   -0.0654036    0.5120811    0.8564434
   0.0176579   -0.0028278   -0.0046712    0.5909366    0.5793521    0.5613779
   0.0171051   -0.0021014   -0.0048497    0.6292322    0.5553772    0.5437122
   0.0177125   -0.0023821   -0.0054071    0.6913437    0.5656335    0.4495583
   0.0181998   -0.0020204   -0.0066236    0.6986423    0.6064058    0.3796984
   0.0172212   -0.0035712   -0.0036182    0.2651789    0.5330003    0.8034867
   0.0171399   -0.0038307   -0.0034286    0.0414377    0.5073066    0.8607688
   0.0173256   -0.0032159   -0.0039247    0.4461969    0.5585466    0.6992382
   0.0170857   -0.0039906   -0.0033416   -0.1016467    0.5229345    0.8462904
   0.0171748   -0.0044198   -0.0030576   -0.2816537    0.4394320    0.8529775
   0.0164710   -0.0040699   -0.0035388   -0.4993298    0.3120151    0.8082798
   0.0202287   -0.0050544   -0.0092398    0.9288722    0.2802070    0.2422404
   0.0190299   -0.0024790   -0.0077133    0.7755237    0.5021164    0.3826777
   0.0186876   -0.0023663   -0.0072157    0.7517333    0.5617120    0.3455094
   0.0191048   -0.0021848   -0.0080478    0.8522162    0.2086121    0.4798004
   0.0192543   -0.0020491   -0.0084474    0.9459175    0.0286510    0.3231396
   0.0197121   -0.0032545   -0.0094151    0.9379366    0.1099899    0.3289030
   0.0199679   -0.0043007   -0.0093912    0.9017829    0.3346885    0.2734431
   0.0200691   -0.0037977   -0.0101531    0.8869046    0.2592995    0.3823139
   0.0194398   -0.0023683   -0.0090434    0.8979072    0.0666818    0.4351047
   0.0194237   -0.0019316   -0.0088540    0.8886479   -0.2160969    0.4044837
   0.0193960   -0.0022084   -0.0089759    0.8732182   -0.1433372    0.4657729
   0.0160444   -0.0144689   -0.0071604    0.1127429   -0.7189648    0.6858416
   0.0166569   -0.0143574   -0.0074120    0.5073541   -0.8523104    0.1271170
   0.0166155   -0.0143583   -0.0073603    0.4630162   -0.8122018    0.3548862
   0.0162739   -0.0145320   -0.0073073    0.3716297   -0.7998315    0.4713396
   0.0165256   -0.0144278   -0.0077876    0.5851444   -0.7974136   -0.1474369
   0.0162891   -0.0145357   -0.0079750    0.4885190   -0.7906727   -0.3690338
   0.0162429   -0.0142585   -0.0083232    0.2686970   -0.6598941   -0.7016706
   0.0160706   -0.0138993   -0.0086419    0.1713978   -0.5660761   -0.8063378
   0.0153947   -0.0134144   -0.0089762   -0.0725433   -0.6111198   -0.7882069
   0.0159517   -0.0134051   -0.0089790    0.1006713   -0.5578670   -0.8238020
   0.0202522   -0.0051257   -0.0092696    0.9736718    0.0980957    0.2057679
   0.0204750   -0.0052064   -0.0106923    0.9100653   -0.4084520    0.0703422
   0.0205610   -0.0049609   -0.0105810    0.9628322   -0.2227843    0.1527131
   0.0203314   -0.0049609   -0.0096600    0.9586574    0.1005677    0.2661995
   0.0204488   -0.0048983   -0.0100932    0.9595712    0.0008652    0.2814646
   0.0199850   -0.0060836   -0.0118170    0.7617425   -0.6378209   -0.1137226
   0.0185907   -0.0070360   -0.0129854    0.4967090   -0.7789141   -0.3828486
   0.0193814   -0.0065534   -0.0127345    0.6760055   -0.7141512   -0.1816719
   0.0186225   -0.0067206   -0.0136844    0.4684620   -0.8349410   -0.2888199
   0.0179828   -0.0071275   -0.0135228    0.4233613   -0.8223463   -0.3801470
   0.0193510   -0.0061995   -0.0139810    0.5103109   -0.8226131   -0.2507798
   0.0194543   -0.0062488   -0.0135308    0.6078774   -0.7672059   -0.2046464
   0.0203000   -0.0055421   -0.0111934    0.8582319   -0.5105918    0.0522875
   0.0203091   -0.0056616   -0.0122983    0.7773591   -0.6288572   -0.0158542
   0.0147530   -0.0128895   -0.0091896   -0.3096821   -0.5329446   -0.7874434
   0.0142399   -0.0120107   -0.0095346   -0.3169515   -0.5056666   -0.8023983
   0.0148809   -0.0108196   -0.0104647   -0.1477683   -0.5615289   -0.8141559
   0.0153636   -0.0107145   -0.0105561   -0.0061172   -0.5667110   -0.8238939
   0.0155430   -0.0103124   -0.0108380    0.0762291   -0.6040754   -0.7932730
   0.0152245   -0.0099345   -0.0111561    0.0541896   -0.6652532   -0.7446487
   0.0158290   -0.0095466   -0.0114225    0.1704188   -0.6719579   -0.7207149
   0.0150459   -0.0092967   -0.0118204    0.0659060   -0.7079229   -0.7032080
   0.0159584   -0.0086223   -0.0124124    0.2699133   -0.7352355   -0.6217521
   0.0159281   -0.0092023   -0.0117339    0.1735795   -0.7336852   -0.6569446
   0.0168664   -0.0077195   -0.0133717    0.3052402   -0.8254629   -0.4748047
   0.0159374   -0.0079112   -0.0135030    0.2044403   -0.8394328   -0.5035443
   0.0158556   -0.0083582   -0.0127692    0.4460883   -0.7203748   -0.5310983
   0.0158979   -0.0081316   -0.0131346    0.1846315   -0.8483535   -0.4961931
   0.0159359   -0.0047163   -0.0037168   -0.4699750    0.2111925    0.8570422
   0.0157949   -0.0049317   -0.0038178    0.7455477    0.1827896    0.6408951
   0.0157949   -0.0049317   -0.0038178    0.9566912    0.0647910    0.2838030
   0.0133360   -0.0083068   -0.0053616   -0.6733855    0.0813077    0.7348068
   0.0134508   -0.0080535   -0.0052980    0.9518451    0.0720666    0.2979889
   0.0134508   -0.0080535   -0.0052980    0.7458355    0.1272695    0.6538592
   0.0122388   -0.0092402   -0.0063437   -0.6427581   -0.1015833    0.7593042
   0.0131544   -0.0084781   -0.0054982   -0.6240998    0.0446106    0.7800701
   0.0124870   -0.0081219   -0.0060333   -0.6439506    0.0303457    0.7644650
   0.0134508   -0.0080535   -0.0052980    0.4373805    0.1156195    0.8918130
   0.0126686   -0.0062485   -0.0063578   -0.6833668    0.1136637    0.7211729
   0.0131303   -0.0080721   -0.0055495   -0.6042567    0.1339721    0.7854459
   0.0135831   -0.0054593   -0.0055606   -0.6677988    0.1116515    0.7359203
   0.0157949   -0.0049317   -0.0038178    0.4485737    0.0736863    0.8907031
   0.0163887   -0.0035195   -0.0037841   -0.3995723    0.3149251    0.8609089
   0.0159730   -0.0030813   -0.0040997   -0.3318062    0.2704548    0.9037471
   0.0159086   -0.0046837   -0.0037447   -0.6245030    0.1912937    0.7572335
   0.0156473   -0.0031388   -0.0042749   -0.4817775    0.1819921    0.8571869
   0.0140126   -0.0040278   -0.0053721   -0.6828192   -0.0224373    0.7302428
   0.0132501   -0.0043105   -0.0060101   -0.6517235    0.0534258    0.7565726
   0.0143278   -0.0040473   -0.0050460   -0.6418458    0.0361267    0.7659823
   0.0134654   -0.0045301   -0.0057982   -0.6494339    0.1012238    0.7536507
   0.0152016   -0.0034844   -0.0044481   -0.5308681    0.1544319    0.8332646
   0.0116463   -0.0090077   -0.0067391   -0.6375697   -0.1116767    0.7622554
   0.0118069   -0.0101433   -0.0068302   -0.7337494   -0.1129060    0.6699732
   0.0122002   -0.0105940   -0.0064689   -0.6686281   -0.1509458    0.7281152
   0.0124275   -0.0108201   -0.0063212   -0.5740495   -0.2748382    0.7713178
   0.0127523   -0.0107706   -0.0061289   -0.4572603   -0.3138515    0.8321119
   0.0124284   -0.0113793   -0.0066188   -0.6031046   -0.4398162    0.6654522
   0.0125371   -0.0117342   -0.0067587   -0.6365149   -0.5215870    0.5681513
   0.0149504   -0.0143420   -0.0074381   -0.4520700   -0.8299107    0.3269264
   0.0151712   -0.0144655   -0.0074699   -0.3952719   -0.8602421    0.3220926
   0.0143111   -0.0139175   -0.0073412   -0.5901551   -0.7646617    0.2588618
   0.0146307   -0.0141456   -0.0074242   -0.4851963   -0.8157697    0.3148085
   0.0143665   -0.0134170   -0.0064754   -0.5256959   -0.5894660    0.6133299
   0.0142686   -0.0135467   -0.0067825   -0.6148195   -0.6497814    0.4469687
   0.0157141   -0.0145610   -0.0072655   -0.1837531   -0.8025965    0.5675153
   0.0153938   -0.0145749   -0.0075299   -0.3426078   -0.8982698    0.2751931
   0.0144724   -0.0132331   -0.0062720   -0.3824939   -0.4713347    0.7946962
   0.0128674   -0.0122122   -0.0069266   -0.6484249   -0.6518214    0.3932862
   0.0142562   -0.0130765   -0.0063058   -0.4947081   -0.4471795    0.7451808
   0.0141537   -0.0132375   -0.0065523   -0.6179372   -0.5367504    0.5745020
   0.0134114   -0.0128610   -0.0070365   -0.6668713   -0.5875401    0.4583441
   0.0129848   -0.0124833   -0.0072513   -0.7048287   -0.6244615    0.3365477
   0.0170331   -0.0023892   -0.0045124    0.4707639    0.5869371    0.6587004
   0.0171011   -0.0031037   -0.0038873    0.3205246    0.5996960    0.7332317
   0.0169039   -0.0019405   -0.0047901    0.5208731    0.4972244    0.6938725
   0.0169925   -0.0016183   -0.0051115    0.6349935    0.5214585    0.5699687
   0.0174652   -0.0014635   -0.0061308    0.7234878    0.4998454    0.4761512
   0.0182782   -0.0018647   -0.0070182    0.7965979    0.4363573    0.4183589
   0.0175887   -0.0009830   -0.0066698    0.7241312    0.4720164    0.5028265
   0.0169282   -0.0036395   -0.0035328   -0.0996783    0.4758240    0.8738740
   0.0170667   -0.0032123   -0.0038106    0.1537165    0.5174176    0.8418137
   0.0168002   -0.0039889   -0.0034080   -0.2847115    0.3630176    0.8872190
   0.0168462   -0.0040373   -0.0033742   -0.2825509    0.4193592    0.8627299
   0.0202764   -0.0048168   -0.0096001    0.8944479    0.3064693    0.3256371
   0.0188454   -0.0022837   -0.0076377    0.7667720    0.3812386    0.5164472
   0.0184297   -0.0017298   -0.0074181    0.7505372    0.3636990    0.5517400
   0.0189673   -0.0018923   -0.0079276    0.7695476    0.2166611    0.6007117
   0.0192526   -0.0017096   -0.0084020    0.8392194    0.0428372    0.5421031
   0.0199752   -0.0027687   -0.0099397    0.8356667   -0.1934907    0.5140258
   0.0198430   -0.0031469   -0.0097613    0.9266917   -0.0307757    0.3745602
   0.0201326   -0.0044868   -0.0096327    0.8347605    0.3876234    0.3910537
   0.0204620   -0.0040161   -0.0106411    0.8396691    0.3119177    0.4445933
   0.0201451   -0.0035172   -0.0104401    0.8847369    0.0448199    0.4639307
   0.0204867   -0.0036296   -0.0109379    0.8258437    0.2273313    0.5160452
   0.0195000   -0.0022017   -0.0091084    0.7884771   -0.1698616    0.5911437
   0.0196208   -0.0019055   -0.0091274    0.7626648   -0.2876309    0.5793194
   0.0159384   -0.0146580   -0.0073495   -0.0034623   -0.8718318    0.4897932
   0.0164401   -0.0145318   -0.0074993    0.5491180   -0.8260628    0.1268455
   0.0161697   -0.0147026   -0.0075372    0.2350984   -0.9181610    0.3189187
   0.0162074   -0.0146993   -0.0075841    0.4718238   -0.8770118    0.0907339
   0.0161551   -0.0147181   -0.0075950    0.2494713   -0.9633887   -0.0982152
   0.0161528   -0.0145840   -0.0080030    0.1814221   -0.8455346   -0.5021527
   0.0156684   -0.0143036   -0.0083377   -0.0610857   -0.6709702   -0.7389638
   0.0148191   -0.0135589   -0.0087085   -0.2735946   -0.6178667   -0.7371477
   0.0206367   -0.0047946   -0.0109710    0.9571116   -0.2780550    0.0813800
   0.0206173   -0.0048488   -0.0109957    0.9501496   -0.2912145    0.1113996
   0.0205938   -0.0051464   -0.0115928    0.8393019   -0.5354835    0.0939672
   0.0207987   -0.0048059   -0.0117898    0.9070841   -0.3810240    0.1789387
   0.0205693   -0.0046737   -0.0104555    0.9508832    0.0504089    0.3054179
   0.0203361   -0.0045541   -0.0099490    0.8894148    0.2629256    0.3739137
   0.0198235   -0.0060712   -0.0129680    0.6585027   -0.7429301   -0.1201209
   0.0186338   -0.0062523   -0.0149736    0.4044825   -0.8578609   -0.3169678
   0.0169550   -0.0072584   -0.0140992    0.3023220   -0.8559304   -0.4195051
   0.0197265   -0.0058609   -0.0142806    0.4865154   -0.8513874   -0.1960670
   0.0193245   -0.0059765   -0.0148181    0.4540557   -0.8501173   -0.2667095
   0.0197916   -0.0060038   -0.0134068    0.5510460   -0.8193065   -0.1583829
   0.0200413   -0.0058952   -0.0128802    0.7047221   -0.7026611   -0.0981535
   0.0204714   -0.0054370   -0.0122382    0.7853201   -0.6190253   -0.0089393
   0.0136239   -0.0123367   -0.0090200   -0.3926850   -0.5669876   -0.7241019
   0.0129923   -0.0118562   -0.0090310   -0.4618106   -0.5688509   -0.6805436
   0.0143232   -0.0134758   -0.0085472   -0.4893447   -0.6172533   -0.6160683
   0.0137146   -0.0129453   -0.0085448   -0.4775617   -0.5885358   -0.6523500
   0.0135760   -0.0116519   -0.0094181   -0.3485185   -0.5040188   -0.7902531
   0.0139254   -0.0104404   -0.0105108   -0.3069719   -0.6107296   -0.7299162
   0.0134116   -0.0113438   -0.0095313   -0.3480176   -0.5336757   -0.7707620
   0.0144597   -0.0104191   -0.0107070   -0.1287214   -0.6370781   -0.7599752
   0.0150413   -0.0103006   -0.0108587    0.0041727   -0.6391271   -0.7690898
   0.0147725   -0.0093019   -0.0117823   -0.0702110   -0.7248981   -0.6852687
   0.0154061   -0.0089894   -0.0121343    0.0730527   -0.7358127   -0.6732332
   0.0158549   -0.0083606   -0.0127680    0.3776491   -0.7184276   -0.5841601
   0.0166379   -0.0073375   -0.0141498    0.1900674   -0.8669027   -0.4608190
   0.0162040   -0.0076331   -0.0138344    0.2249124   -0.8454368   -0.4844079
   0.0157720   -0.0074846   -0.0142585    0.1593089   -0.8560350   -0.4917569
   0.0158306   -0.0081399   -0.0131417    0.3315571   -0.8080065   -0.4870271
   0.0152973   -0.0082207   -0.0132043    0.0829782   -0.8422906   -0.5325984
   0.0133069   -0.0082677   -0.0053987   -0.4713848    0.1213728    0.8735359
   0.0122049   -0.0080464   -0.0062918   -0.6450289    0.0273452    0.7636687
   0.0121496   -0.0073186   -0.0064441   -0.6814787    0.1182430    0.7222225
   0.0129770   -0.0047207   -0.0062028   -0.6792715    0.0761576    0.7299249
   0.0120613   -0.0054727   -0.0070635   -0.6180181    0.1436380    0.7729307
   0.0121054   -0.0068701   -0.0065478   -0.5897250    0.1934061    0.7841036
   0.0167216   -0.0034117   -0.0037069   -0.1854470    0.4432947    0.8769830
   0.0162243   -0.0031872   -0.0039688   -0.2719664    0.3888694    0.8802357
   0.0164198   -0.0026020   -0.0041703    0.0012009    0.4006211    0.9162430
   0.0162210   -0.0024377   -0.0042426    0.1058244    0.3133654    0.9437178
   0.0164347   -0.0026171   -0.0041611   -0.0956473    0.4672617    0.8789301
   0.0158855   -0.0025684   -0.0042723   -0.3577871    0.2211647    0.9072346
   0.0154397   -0.0029144   -0.0044444   -0.4806286    0.1799671    0.8582587
   0.0142890   -0.0034525   -0.0051167   -0.6120091    0.0298026    0.7902890
   0.0127371   -0.0040506   -0.0064843   -0.6420214   -0.0162192    0.7665151
   0.0149066   -0.0027495   -0.0047840   -0.5166933    0.1146823    0.8484551
   0.0115343   -0.0095306   -0.0069727   -0.8193641   -0.2178141    0.5302825
   0.0115083   -0.0088664   -0.0068362   -0.7325254   -0.0209833    0.6804162
   0.0114005   -0.0090710   -0.0069931   -0.8428768   -0.1157754    0.5255044
   0.0119030   -0.0105921   -0.0067833   -0.8190259   -0.1909888    0.5410359
   0.0115499   -0.0101231   -0.0072298   -0.9141743   -0.2313305    0.3328235
   0.0120047   -0.0110000   -0.0068183   -0.7570680   -0.3922017    0.5225187
   0.0122078   -0.0111811   -0.0067241   -0.6736478   -0.3901979    0.6276498
   0.0121170   -0.0113302   -0.0070060   -0.7782076   -0.5047283    0.3736875
   0.0122129   -0.0111947   -0.0067298   -0.7243859   -0.4960350    0.4787633
   0.0124428   -0.0118393   -0.0071135   -0.7587839   -0.6060420    0.2386632
   0.0147278   -0.0142093   -0.0074469   -0.5286705   -0.8447216    0.0833845
   0.0149396   -0.0143482   -0.0074966   -0.5022153   -0.8641853    0.0310421
   0.0151589   -0.0144715   -0.0075388   -0.4481261   -0.8939003   -0.0111897
   0.0145116   -0.0140729   -0.0074206   -0.5327567   -0.8409619    0.0946225
   0.0142529   -0.0138993   -0.0078028   -0.5632372   -0.8101196   -0.1626966
   0.0139557   -0.0134985   -0.0071770   -0.6709111   -0.6682952    0.3213407
   0.0138528   -0.0135728   -0.0076812   -0.7116866   -0.7006006    0.0515859
   0.0140470   -0.0137478   -0.0077473   -0.6375363   -0.7620675   -0.1131401
   0.0156195   -0.0146724   -0.0076027   -0.2687116   -0.9581736    0.0984753
   0.0153864   -0.0145774   -0.0075732   -0.3998135   -0.9122414   -0.0892459
   0.0155922   -0.0146623   -0.0075996   -0.3730180   -0.9256923   -0.0628602
   0.0127314   -0.0122918   -0.0076473   -0.7724984   -0.6304618    0.0759223
   0.0131502   -0.0127178   -0.0073448   -0.7324986   -0.6521100    0.1954438
   0.0167026   -0.0026353   -0.0041702    0.2116127    0.5834621    0.7840868
   0.0168454   -0.0030558   -0.0038795   -0.0138206    0.5110966    0.8594121
   0.0165723   -0.0021945   -0.0044313    0.2907747    0.4806658    0.8272910
   0.0167081   -0.0017687   -0.0047253    0.4955083    0.4742088    0.7277346
   0.0163572   -0.0012016   -0.0049626    0.4113042    0.5685209    0.7124695
   0.0166819   -0.0010383   -0.0053414    0.6075404    0.5352416    0.5868655
   0.0167310   -0.0007272   -0.0056696    0.6607614    0.4387003    0.6090455
   0.0171295   -0.0009178   -0.0061986    0.7582465    0.4335945    0.4868861
   0.0183320   -0.0011772   -0.0076487    0.6984084    0.3946896    0.5970308
   0.0179519   -0.0003918   -0.0077926    0.6392408    0.4467608    0.6259201
   0.0175933    0.0000421   -0.0076948    0.7025586    0.4564569    0.5459474
   0.0189134   -0.0012978   -0.0081031    0.6848670    0.3133182    0.6578670
   0.0193048   -0.0012841   -0.0085781    0.7068605    0.2270668    0.6699171
   0.0188995   -0.0007747   -0.0083772    0.6752939    0.3393916    0.6548218
   0.0197201   -0.0015905   -0.0091566    0.7826490   -0.1027356    0.6139266
   0.0193904   -0.0012851   -0.0086776    0.7934374    0.1239988    0.5958871
   0.0206002   -0.0019399   -0.0101962    0.7494418   -0.3038845    0.5882102
   0.0200989   -0.0030152   -0.0102917    0.8477333   -0.2422335    0.4718806
   0.0206055   -0.0042960   -0.0107555    0.8957224    0.1895210    0.4021979
   0.0207274   -0.0040512   -0.0111089    0.8619913    0.1928420    0.4688102
   0.0203237   -0.0030083   -0.0106757    0.8537257   -0.1897229    0.4849305
   0.0203413   -0.0032614   -0.0107849    0.8516084   -0.0328168    0.5231503
   0.0205697   -0.0036108   -0.0110693    0.8226310    0.1620298    0.5449996
   0.0158660   -0.0147392   -0.0076191   -0.0357958   -0.9993267   -0.0080563
   0.0158669   -0.0145914   -0.0080441   -0.0421470   -0.8124138   -0.5815561
   0.0158626   -0.0146220   -0.0079854   -0.1045558   -0.9353703   -0.3378616
   0.0156111   -0.0145507   -0.0080164   -0.2948345   -0.8599986   -0.4165033
   0.0154222   -0.0142260   -0.0083511   -0.2674058   -0.7095448   -0.6519512
   0.0149464   -0.0140564   -0.0083017   -0.3965607   -0.7355727   -0.5492471
   0.0144881   -0.0138507   -0.0082357   -0.4437959   -0.7353732   -0.5121244
   0.0207748   -0.0044148   -0.0111616    0.9498176   -0.1256887    0.2864417
   0.0207374   -0.0051010   -0.0124985    0.8492557   -0.5231925    0.0709531
   0.0209882   -0.0042761   -0.0116600    0.9430957   -0.1703645    0.2855632
   0.0210729   -0.0044046   -0.0121780    0.9144599   -0.3611653    0.1825451
   0.0185768   -0.0061168   -0.0153839    0.3560771   -0.8790512   -0.3169827
   0.0166631   -0.0071468   -0.0145320    0.1607489   -0.8748372   -0.4569679
   0.0167001   -0.0069311   -0.0149026    0.2250584   -0.8696207   -0.4394412
   0.0170640   -0.0063382   -0.0160248    0.2037063   -0.8983083   -0.3892890
   0.0197916   -0.0059295   -0.0138410    0.4790008   -0.8608311   -0.1718374
   0.0198838   -0.0057723   -0.0142339    0.5762097   -0.7989574   -0.1721899
   0.0198325   -0.0056222   -0.0151040    0.4900311   -0.8478914   -0.2023602
   0.0201744   -0.0056495   -0.0136992    0.6656839   -0.7388401   -0.1047861
   0.0206660   -0.0051639   -0.0136135    0.7619646   -0.6475940   -0.0056571
   0.0133099   -0.0125483   -0.0086621   -0.5745718   -0.6209335   -0.5332062
   0.0125749   -0.0119242   -0.0084280   -0.7239350   -0.6192607   -0.3040300
   0.0123517   -0.0115064   -0.0087239   -0.7153569   -0.6140718   -0.3334372
   0.0123942   -0.0112798   -0.0090895   -0.5254566   -0.6076631   -0.5955174
   0.0130515   -0.0116510   -0.0092173   -0.3550980   -0.5475913   -0.7576603
   0.0140486   -0.0136058   -0.0081516   -0.5634335   -0.7159429   -0.4122724
   0.0133414   -0.0128343   -0.0083183   -0.6103861   -0.6687083   -0.4245680
   0.0138415   -0.0134575   -0.0080979   -0.6641110   -0.6584527   -0.3541138
   0.0134620   -0.0130538   -0.0080580   -0.6596639   -0.6507150   -0.3760499
   0.0132660   -0.0127781   -0.0082981   -0.6706642   -0.6433555   -0.3691927
   0.0130046   -0.0100445   -0.0103616   -0.3621980   -0.6083650   -0.7061902
   0.0133060   -0.0098520   -0.0107526   -0.3070138   -0.7204441   -0.6218543
   0.0123338   -0.0105496   -0.0097072   -0.4388556   -0.5412612   -0.7172461
   0.0140051   -0.0091138   -0.0118905   -0.1313975   -0.8005644   -0.5846635
   0.0144017   -0.0085364   -0.0127393   -0.0521605   -0.8224012   -0.5665117
   0.0166238   -0.0069432   -0.0149117    0.1408236   -0.8830829   -0.4475860
   0.0163248   -0.0074087   -0.0141968    0.2194644   -0.8611172   -0.4585985
   0.0155850   -0.0066529   -0.0157712   -0.0066201   -0.7750745   -0.6318352
   0.0157449   -0.0066415   -0.0157582    0.0281537   -0.8221749   -0.5685383
   0.0161547   -0.0066280   -0.0157313    0.1105453   -0.8708768   -0.4789085
   0.0144576   -0.0082273   -0.0132505   -0.0500410   -0.8455015   -0.5316231
   0.0138225   -0.0072551   -0.0147252   -0.0098646   -0.8689785   -0.4947515
   0.0144178   -0.0070381   -0.0150665   -0.0021449   -0.7963103   -0.6048846
   0.0151812   -0.0068382   -0.0154066   -0.0976573   -0.8198462   -0.5641943
   0.0114191   -0.0083686   -0.0069777   -0.8094553    0.1100506    0.5767763
   0.0113826   -0.0078667   -0.0071885   -0.8546715    0.1287168    0.5029599
   0.0117860   -0.0068790   -0.0068209   -0.6659874    0.0483920    0.7443917
   0.0114533   -0.0075516   -0.0071859   -0.7961880    0.0026891    0.6050433
   0.0118740   -0.0045396   -0.0072250   -0.5972436   -0.0346289    0.8013120
   0.0116995   -0.0063577   -0.0070117   -0.5987563    0.2187752    0.7704728
   0.0114906   -0.0053663   -0.0074933   -0.5610874    0.1407020    0.8157107
   0.0163525   -0.0020665   -0.0044070    0.7345153    0.2982772    0.6095228
   0.0160082   -0.0022589   -0.0043175   -0.1132852    0.3068117    0.9450043
   0.0163525   -0.0020665   -0.0044070    0.7320727    0.2337855    0.6398546
   0.0155399   -0.0022163   -0.0045139   -0.4166953    0.1658335    0.8937921
   0.0158114   -0.0020697   -0.0044361   -0.2666880    0.3010341    0.9155632
   0.0133317   -0.0015084   -0.0058718   -0.4797142    0.1489305    0.8646930
   0.0139805   -0.0014154   -0.0054764   -0.4945909    0.1603302    0.8542096
   0.0130104   -0.0015295   -0.0061217   -0.5963055    0.0998996    0.7965173
   0.0120412   -0.0016418   -0.0067665   -0.5039410   -0.0625465    0.8614705
   0.0120142   -0.0029674   -0.0069599   -0.6192513   -0.0889295    0.7801406
   0.0150121   -0.0018165   -0.0048334   -0.4495164    0.2061087    0.8691687
   0.0113188   -0.0095003   -0.0074370   -0.9456355   -0.2337523    0.2261270
   0.0113000   -0.0092179   -0.0072681   -0.9454542   -0.1685457    0.2787628
   0.0113105   -0.0085743   -0.0071362   -0.9017496    0.0381018    0.4305762
   0.0111824   -0.0086359   -0.0075340   -0.9777745   -0.0063645    0.2095626
   0.0118016   -0.0107446   -0.0070478   -0.8781437   -0.3191714    0.3563611
   0.0115771   -0.0104277   -0.0073614   -0.9324092   -0.2803415    0.2280828
   0.0113188   -0.0096453   -0.0078272   -0.9625388   -0.2553344    0.0912331
   0.0113627   -0.0098997   -0.0080751   -0.9735078   -0.2285813   -0.0057568
   0.0119170   -0.0110910   -0.0071661   -0.8331851   -0.5018475    0.2322748
   0.0120712   -0.0113490   -0.0072706   -0.8246823   -0.5612475    0.0700026
   0.0146907   -0.0141472   -0.0078882   -0.5079105   -0.8297921   -0.2312403
   0.0149123   -0.0142658   -0.0079282   -0.4774815   -0.8329306   -0.2797107
   0.0151392   -0.0143733   -0.0079635   -0.4002210   -0.8405332   -0.3651398
   0.0132698   -0.0129092   -0.0078885   -0.7288759   -0.6741625   -0.1193520
   0.0156190   -0.0146697   -0.0076151   -0.2783038   -0.9322832   -0.2310737
   0.0129058   -0.0124923   -0.0077792   -0.7587233   -0.6436138   -0.1004993
   0.0126913   -0.0121923   -0.0080725   -0.7603558   -0.6194793   -0.1952034
   0.0123669   -0.0118043   -0.0077463   -0.8102330   -0.5830682   -0.0596148
   0.0164902   -0.0016441   -0.0046765    0.4817216    0.4641102    0.7433344
   0.0162505   -0.0015615   -0.0046585    0.1875220    0.5204755    0.8330310
   0.0162302   -0.0007482   -0.0052381    0.3845205    0.5623521    0.7320547
   0.0160585   -0.0013220   -0.0047641    0.1433885    0.5167690    0.8440317
   0.0163819    0.0005598   -0.0060598    0.6901659    0.3953604    0.6061032
   0.0163552   -0.0003234   -0.0056048    0.4348198    0.3993826    0.8071092
   0.0163221    0.0001526   -0.0057739    0.5788525    0.3537992    0.7346809
   0.0169925    0.0012248   -0.0076044    0.8538708    0.3073801    0.4200262
   0.0172744    0.0006014   -0.0076846    0.7834901    0.3945592    0.4800691
   0.0183659   -0.0006751   -0.0079420    0.5621609    0.3817357    0.7336573
   0.0178309    0.0000443   -0.0079754    0.6406995    0.4654103    0.6106533
   0.0185692    0.0000095   -0.0085189    0.5841991    0.4749442    0.6581332
   0.0185930   -0.0007503   -0.0080708    0.6193255    0.3724142    0.6911900
   0.0194880   -0.0009749   -0.0089004    0.6962055    0.2312126    0.6795871
   0.0194404   -0.0003546   -0.0091064    0.5421095    0.3876054    0.7455732
   0.0192332   -0.0002086   -0.0090461    0.5426265    0.4800878    0.6892548
   0.0187456   -0.0002187   -0.0085543    0.6534221    0.3940635    0.6463385
   0.0196331   -0.0012487   -0.0090220    0.7120905    0.0494725    0.7003425
   0.0200866   -0.0012879   -0.0094723    0.6724006   -0.1461858    0.7256081
   0.0205426   -0.0010343   -0.0098047    0.6823946   -0.2177974    0.6977836
   0.0205883   -0.0029094   -0.0110510    0.8221844   -0.3341373    0.4608308
   0.0211872   -0.0018409   -0.0110554    0.8650085   -0.3620195    0.3474222
   0.0212161   -0.0015646   -0.0109336    0.8980799   -0.2324659    0.3733793
   0.0210477   -0.0013321   -0.0105022    0.8492114   -0.2314352    0.4746344
   0.0209560   -0.0009824   -0.0102272    0.7764962   -0.1745035    0.6054768
   0.0209152   -0.0039742   -0.0114661    0.9004204    0.0886105    0.4259005
   0.0206152   -0.0031993   -0.0112102    0.8581295   -0.0375205    0.5120606
   0.0210925   -0.0045007   -0.0126852    0.8569458   -0.5043478    0.1061941
   0.0213158   -0.0035381   -0.0127207    0.9728714    0.0190799    0.2305585
   0.0213260   -0.0038566   -0.0128100    0.9762908   -0.0868514    0.1982754
   0.0213339   -0.0041296   -0.0129776    0.9513765   -0.2776820    0.1333246
   0.0193068   -0.0057746   -0.0155325    0.4096960   -0.8721285   -0.2674714
   0.0187253   -0.0057809   -0.0161629    0.3024513   -0.8615321   -0.4077814
   0.0167691   -0.0063719   -0.0160545    0.0951993   -0.8668137   -0.4894601
   0.0176897   -0.0060586   -0.0163370    0.2020949   -0.8652595   -0.4587849
   0.0180120   -0.0059685   -0.0162813    0.3121588   -0.8512601   -0.4217976
   0.0170898   -0.0061461   -0.0164060    0.0706661   -0.8103432   -0.5816788
   0.0168093   -0.0061499   -0.0164223   -0.0386945   -0.7723635   -0.6340010
   0.0203552   -0.0054419   -0.0140658    0.6396351   -0.7620372   -0.1008279
   0.0204846   -0.0051812   -0.0153447    0.5518741   -0.8142691   -0.1800023
   0.0208732   -0.0049285   -0.0142820    0.7376538   -0.6749917   -0.0159113
   0.0212458   -0.0043760   -0.0130894    0.8713945   -0.4841708    0.0790582
   0.0121075   -0.0113820   -0.0082158   -0.8174338   -0.5592141   -0.1381358
   0.0121846   -0.0111362   -0.0090376   -0.6933490   -0.5503683   -0.4651471
   0.0117069   -0.0106674   -0.0083916   -0.8524870   -0.4947519   -0.1687794
   0.0119998   -0.0110071   -0.0087705   -0.8036164   -0.5590735   -0.2040528
   0.0122342   -0.0100399   -0.0099568   -0.4680038   -0.5552703   -0.6874935
   0.0123620   -0.0095275   -0.0105584   -0.4586154   -0.6966792   -0.5516430
   0.0131568   -0.0092025   -0.0114102   -0.2679966   -0.7935560   -0.5463027
   0.0121738   -0.0091708   -0.0109805   -0.3904094   -0.8196184   -0.4192923
   0.0134869   -0.0090606   -0.0117978   -0.2562014   -0.7850638   -0.5639465
   0.0121258   -0.0104029   -0.0096540   -0.6757423   -0.4450768   -0.5876044
   0.0136194   -0.0083697   -0.0128892   -0.1326016   -0.8443813   -0.5190733
   0.0155510   -0.0063297   -0.0160988   -0.1650638   -0.6248639   -0.7630852
   0.0150668   -0.0065740   -0.0157541   -0.1413317   -0.7260759   -0.6729332
   0.0148119   -0.0065215   -0.0157540   -0.1651298   -0.6352599   -0.7544382
   0.0159149   -0.0064082   -0.0161143   -0.1038530   -0.7111526   -0.6953247
   0.0161896   -0.0064170   -0.0161041   -0.0006142   -0.7733807   -0.6339415
   0.0128623   -0.0075929   -0.0139890    0.0567521   -0.9034395   -0.4249427
   0.0123449   -0.0079831   -0.0132528   -0.0118252   -0.8899904   -0.4558258
   0.0129789   -0.0074085   -0.0143690    0.1466562   -0.9063778   -0.3961960
   0.0130010   -0.0071651   -0.0149259    0.0998182   -0.8870520   -0.4507495
   0.0133628   -0.0068423   -0.0152725    0.0861071   -0.6188089   -0.7808080
   0.0139200   -0.0068331   -0.0152753   -0.0769880   -0.6457118   -0.7596901
   0.0127308   -0.0070670   -0.0151660    0.0856044   -0.6946346   -0.7142511
   0.0112399   -0.0079387   -0.0075502   -0.9549105    0.0698364    0.2885635
   0.0112435   -0.0075847   -0.0075395   -0.9491318   -0.0212631    0.3141604
   0.0113570   -0.0071043   -0.0072287   -0.7597719   -0.1119125    0.6404860
   0.0113705   -0.0067775   -0.0071814   -0.6893447    0.0278286    0.7238988
   0.0112812   -0.0073142   -0.0074196   -0.8743989   -0.1674338    0.4554037
   0.0110362   -0.0037080   -0.0077684   -0.4661413   -0.0911877    0.8799983
   0.0109223   -0.0039535   -0.0078483   -0.4171580   -0.0808704    0.9052288
   0.0112604   -0.0032400   -0.0075657   -0.5072145   -0.1757177    0.8437160
   0.0111491   -0.0034681   -0.0076779   -0.4722951   -0.1486809    0.8688103
   0.0110785   -0.0049262   -0.0077892   -0.4911604    0.0402916    0.8701368
   0.0112548   -0.0062170   -0.0074095   -0.5718679    0.2155169    0.7915299
   0.0110650   -0.0064072   -0.0075020   -0.6809378    0.0486622    0.7307228
   0.0112087   -0.0053186   -0.0076707   -0.4291133    0.1701904    0.8870722
   0.0163525   -0.0020665   -0.0044070    0.9565983    0.1419896    0.2544772
   0.0160982   -0.0020155   -0.0043976   -0.0497610    0.3608411    0.9312988
   0.0161353   -0.0019123   -0.0044397    0.1584663    0.4137320    0.8965011
   0.0157981   -0.0020561   -0.0044434   -0.2465945    0.2672445    0.9315425
   0.0155870   -0.0018564   -0.0045653   -0.3009587    0.2541131    0.9191575
   0.0140250   -0.0005753   -0.0057427   -0.5508424    0.4265389    0.7173822
   0.0133045   -0.0010642   -0.0059928   -0.3952734    0.3757837    0.8381799
   0.0142197   -0.0008351   -0.0054960   -0.4946471    0.3111790    0.8114751
   0.0131277   -0.0012601   -0.0060872    0.9490316    0.0690323    0.3075282
   0.0131277   -0.0012601   -0.0060872    0.7464575    0.1455631    0.6493170
   0.0155014   -0.0013326   -0.0047580   -0.2697514    0.3453581    0.8988671
   0.0144254   -0.0010720   -0.0053022   -0.4248773    0.2613778    0.8666954
   0.0129557   -0.0014600   -0.0061830   -0.3697571    0.1822054    0.9110878
   0.0128047   -0.0012964   -0.0063054   -0.5522114    0.2259600    0.8024990
   0.0121558   -0.0013896   -0.0066999   -0.4463754    0.0788711    0.8913632
   0.0117120   -0.0017197   -0.0069058   -0.4684982   -0.0086366    0.8834222
   0.0113785   -0.0024001   -0.0072542   -0.3939781   -0.2630401    0.8806765
   0.0154123   -0.0015650   -0.0047032   -0.3279154    0.2961168    0.8970988
   0.0112292   -0.0092116   -0.0077822   -0.9848709   -0.1704118    0.0314500
   0.0111871   -0.0089288   -0.0076614   -0.9962351   -0.0847049    0.0184558
   0.0111948   -0.0081431   -0.0077851   -0.9999786    0.0059201   -0.0027840
   0.0117108   -0.0108223   -0.0074573   -0.8982584   -0.4269859    0.1039943
   0.0114976   -0.0102633   -0.0082264   -0.9279097   -0.3568758   -0.1078114
   0.0112451   -0.0090398   -0.0081730   -0.9863466   -0.0658373   -0.1509501
   0.0113770   -0.0096987   -0.0084533   -0.9497335   -0.1914614   -0.2476869
   0.0117836   -0.0109160   -0.0080296   -0.8579375   -0.5111098   -0.0520586
   0.0159234   -0.0017240   -0.0045354   -0.0693585    0.4127060    0.9082198
   0.0159913   -0.0006658   -0.0052145    0.1737963    0.5950965    0.7846368
   0.0160874   -0.0003278   -0.0055287    0.2830994    0.4214376    0.8615364
   0.0156471   -0.0009839   -0.0049043   -0.0179339    0.5214136    0.8531156
   0.0157125   -0.0015266   -0.0046515   -0.1248989    0.3863909    0.9138393
   0.0160702    0.0003529   -0.0056996    0.4472934    0.3639521    0.8169868
   0.0162651    0.0001686   -0.0057352    0.4584359    0.3228322    0.8280192
   0.0161905    0.0007411   -0.0059908    0.5507564    0.4944002    0.6724848
   0.0164546    0.0008493   -0.0063965    0.7368204    0.4414672    0.5120570
   0.0165422    0.0014477   -0.0070641    0.7364280    0.3511783    0.5782280
   0.0168551    0.0014868   -0.0074973    0.8486342    0.2251979    0.4786501
   0.0163306    0.0013089   -0.0066692    0.5342520    0.6439020    0.5476906
   0.0170079    0.0016135   -0.0079006    0.8970509    0.3073961    0.3175016
   0.0174802    0.0015236   -0.0089380    0.6979020    0.5598048    0.4467117
   0.0171295    0.0019252   -0.0086913    0.7614238    0.5808342    0.2878638
   0.0170544    0.0017946   -0.0082856    0.8692572    0.4230838    0.2557185
   0.0186838    0.0004803   -0.0090918    0.5961644    0.5730919    0.5622755
   0.0196649   -0.0004500   -0.0091949    0.5239401    0.3086952    0.7938476
   0.0194679    0.0005551   -0.0096343    0.3381640    0.5704978    0.7484499
   0.0189169    0.0004462   -0.0092981    0.4846116    0.5935843    0.6425023
   0.0192282    0.0006359   -0.0096114    0.2994702    0.6373297    0.7100201
   0.0199743   -0.0009836   -0.0093456    0.6319943   -0.0167993    0.7747910
   0.0198910   -0.0005341   -0.0093047    0.5199120    0.2057924    0.8290603
   0.0205787   -0.0007205   -0.0097584    0.6507600   -0.0678658    0.7562445
   0.0209221   -0.0025739   -0.0113884    0.8558481   -0.3974528    0.3309915
   0.0208365   -0.0028311   -0.0114801    0.8667694   -0.2908546    0.4051103
   0.0214669   -0.0015760   -0.0118585    0.9684621   -0.2015827    0.1464432
   0.0213335   -0.0021064   -0.0120554    0.9338197   -0.2940847    0.2037031
   0.0214089   -0.0005848   -0.0109633    0.9392204   -0.0803248    0.3337857
   0.0215237   -0.0007303   -0.0114874    0.9875796   -0.0413960    0.1515680
   0.0213012   -0.0006489   -0.0107238    0.8789345   -0.0749280    0.4710202
   0.0209409   -0.0003952   -0.0101120    0.7780745    0.0214434    0.6278059
   0.0212956   -0.0027363   -0.0128390    0.9945200   -0.0160138    0.1033126
   0.0210554   -0.0030224   -0.0120431    0.9224845   -0.1154566    0.3683642
   0.0214455   -0.0037756   -0.0137504    0.9959188   -0.0737527    0.0520221
   0.0213694   -0.0041004   -0.0137316    0.9626836   -0.2669920    0.0442219
   0.0193299   -0.0054101   -0.0164367    0.3728045   -0.7850613   -0.4946671
   0.0200008   -0.0053472   -0.0157980    0.4510479   -0.8464393   -0.2830129
   0.0190485   -0.0053347   -0.0166900    0.2981611   -0.7707351   -0.5630873
   0.0186499   -0.0053254   -0.0169011    0.2809919   -0.6996126   -0.6569519
   0.0166595   -0.0061333   -0.0164227   -0.0031267   -0.7157242   -0.6983760
   0.0177275   -0.0058413   -0.0167069    0.1900072   -0.7341550   -0.6518540
   0.0171346   -0.0059677   -0.0166142    0.0270727   -0.7626287   -0.6462697
   0.0176096   -0.0058521   -0.0167176    0.1137492   -0.7205768   -0.6839811
   0.0182751   -0.0054170   -0.0169603    0.2530381   -0.6637135   -0.7038864
   0.0169000   -0.0058229   -0.0167413   -0.1477335   -0.6019331   -0.7847620
   0.0166632   -0.0057358   -0.0167155   -0.2330707   -0.4373752   -0.8685511
   0.0207877   -0.0048431   -0.0156483    0.7418589   -0.6175488   -0.2613022
   0.0209364   -0.0048383   -0.0151723    0.7484657   -0.6543725   -0.1076834
   0.0205694   -0.0050188   -0.0157360    0.6143041   -0.7365368   -0.2830970
   0.0203741   -0.0051191   -0.0157897    0.5157966   -0.8024399   -0.3000734
   0.0200725   -0.0051289   -0.0162759    0.4805880   -0.7773684   -0.4058739
   0.0213333   -0.0042984   -0.0139840    0.9029055   -0.4287250    0.0309285
   0.0118316   -0.0107126   -0.0088713   -0.8705633   -0.4041562   -0.2806729
   0.0117756   -0.0102887   -0.0091561   -0.8395792   -0.3602670   -0.4065888
   0.0120328   -0.0098790   -0.0098970   -0.6891864   -0.4618615   -0.5583063
   0.0121481   -0.0093630   -0.0105990   -0.6316084   -0.6384256   -0.4398678
   0.0119302   -0.0089588   -0.0113672   -0.2176207   -0.8979550   -0.3825155
   0.0127465   -0.0088620   -0.0117494   -0.1893227   -0.8318555   -0.5217024
   0.0119391   -0.0091422   -0.0107690   -0.5489757   -0.8178555   -0.1724472
   0.0119393   -0.0092177   -0.0105467   -0.6378816   -0.7034507   -0.3134711
   0.0117946   -0.0099338   -0.0094669   -0.8740464   -0.2654364   -0.4069232
   0.0120513   -0.0081525   -0.0128752    0.0827446   -0.9149165   -0.3950709
   0.0122133   -0.0083665   -0.0124937   -0.1086930   -0.8753312   -0.4711488
   0.0157829   -0.0059840   -0.0163401   -0.2671154   -0.3631666   -0.8926138
   0.0149490   -0.0060988   -0.0160292   -0.2758377   -0.4107731   -0.8690103
   0.0154306   -0.0062375   -0.0161283   -0.2851381   -0.3772057   -0.8811425
   0.0140828   -0.0062992   -0.0156946   -0.1726726   -0.4122219   -0.8945710
   0.0146386   -0.0062276   -0.0158881   -0.2414203   -0.3717863   -0.8963767
   0.0160019   -0.0061228   -0.0163397   -0.2031623   -0.5473114   -0.8118961
   0.0162758   -0.0060994   -0.0164277   -0.1812839   -0.5386239   -0.8228125
   0.0123668   -0.0077414   -0.0138052    0.1899212   -0.9194684   -0.3442497
   0.0123547   -0.0075462   -0.0144611    0.2510794   -0.8920770   -0.3757097
   0.0122770   -0.0079856   -0.0132574    0.1766911   -0.9249420   -0.3365451
   0.0125914   -0.0073252   -0.0148191    0.2186463   -0.8655244   -0.4506232
   0.0135624   -0.0062221   -0.0156878    0.0512191   -0.4862884   -0.8722959
   0.0131642   -0.0065584   -0.0155555    0.1044329   -0.5693917   -0.8154059
   0.0127023   -0.0062710   -0.0157536    0.0380188   -0.5281986   -0.8482693
   0.0120734   -0.0074126   -0.0148840    0.1315474   -0.7981718   -0.5878921
   0.0119124   -0.0069962   -0.0152891    0.0790140   -0.6445770   -0.7604454
   0.0117209   -0.0067097   -0.0155286   -0.0652401   -0.5539568   -0.8299853
   0.0118462   -0.0063277   -0.0157680    0.0179658   -0.5202439   -0.8538287
   0.0111798   -0.0076345   -0.0080309   -0.9856995   -0.1668906   -0.0233227
   0.0111567   -0.0073942   -0.0077843   -0.9302672   -0.2428798    0.2749770
   0.0111531   -0.0068565   -0.0074424   -0.7976703   -0.1485674    0.5845082
   0.0110517   -0.0070108   -0.0077023   -0.8557255   -0.3156771    0.4099778
   0.0100633   -0.0032797   -0.0080797   -0.3196197   -0.1742938    0.9313780
   0.0103645   -0.0045331   -0.0081231   -0.3200989    0.1171334    0.9401151
   0.0101491   -0.0043698   -0.0081703   -0.2806537   -0.0785492    0.9565895
   0.0101640   -0.0036964   -0.0080951   -0.3239584   -0.0938092    0.9414089
   0.0105132   -0.0023381   -0.0076791   -0.3730843   -0.2345194    0.8976685
   0.0110578   -0.0063989   -0.0075090   -0.6072406    0.0530237    0.7927467
   0.0109801   -0.0066530   -0.0076135   -0.7834689   -0.2072635    0.5858484
   0.0109474   -0.0066175   -0.0076423   -0.7494613   -0.1780347    0.6376609
   0.0107575   -0.0057021   -0.0077700   -0.3827024    0.1125910    0.9169854
   0.0107063   -0.0051197   -0.0078926   -0.3031060    0.1831860    0.9351843
   0.0137567   -0.0003962   -0.0061450   -0.5014013    0.6490772    0.5720975
   0.0144694   -0.0001849   -0.0056471   -0.5090565    0.5101690    0.6932453
   0.0143895    0.0000209   -0.0059308   -0.5698038    0.6435280    0.5110727
   0.0132461   -0.0009779   -0.0060829   -0.5506945    0.4096395    0.7272764
   0.0131277   -0.0012601   -0.0060872    0.4510683    0.2198676    0.8649830
   0.0147999   -0.0001068   -0.0054988   -0.4037204    0.4755697    0.7815646
   0.0150865   -0.0008893   -0.0050826   -0.2359859    0.3692172    0.8988823
   0.0153224   -0.0010349   -0.0049432   -0.2075227    0.4602747    0.8631811
   0.0149111   -0.0005931   -0.0052385   -0.3234049    0.3437134    0.8816294
   0.0125543   -0.0011539   -0.0065366   -0.4539456    0.3153705    0.8333516
   0.0127860   -0.0005352   -0.0067219   -0.4659268    0.5010778    0.7292690
   0.0122733   -0.0011169   -0.0066747   -0.4139538    0.2960308    0.8608182
   0.0119441   -0.0011993   -0.0068014   -0.4753039    0.2173662    0.8525480
   0.0104099   -0.0019405   -0.0076260   -0.4304416   -0.1107154    0.8958025
   0.0117418   -0.0009366   -0.0070461   -0.4891047    0.4053919    0.7722914
   0.0112943   -0.0012955   -0.0071928   -0.4983715    0.2153210    0.8397992
   0.0111728   -0.0015491   -0.0072465   -0.4740548    0.0726083    0.8774965
   0.0112667   -0.0083053   -0.0082306   -0.9799813   -0.0147183   -0.1985446
   0.0113170   -0.0087521   -0.0085103   -0.9692371   -0.0186664   -0.2454200
   0.0115900   -0.0099602   -0.0088837   -0.9215082   -0.2296385   -0.3131912
   0.0114651   -0.0088836   -0.0090266   -0.9550344   -0.0874473   -0.2833060
   0.0154262   -0.0007303   -0.0051055    0.0371321    0.5122270    0.8580470
   0.0157812   -0.0004564   -0.0053582    0.1584520    0.5008591    0.8509014
   0.0158575   -0.0002266   -0.0054964    0.2717583    0.3215856    0.9070447
   0.0159120   -0.0000855   -0.0055268    0.3269495    0.1958838    0.9245180
   0.0158493    0.0004730   -0.0056587    0.2555532    0.4194861    0.8710476
   0.0159578    0.0008165   -0.0059026    0.2909764    0.6029379    0.7428315
   0.0160470    0.0011599   -0.0062821    0.1993618    0.7725069    0.6028996
   0.0162738    0.0010525   -0.0063174    0.5323269    0.6135850    0.5832165
   0.0168481    0.0015033   -0.0074906    0.7776146    0.3715017    0.5072495
   0.0166695    0.0017111   -0.0074091    0.5089486    0.6800632    0.5277171
   0.0163630    0.0014587   -0.0068791    0.2928799    0.7614076    0.5783423
   0.0169132    0.0017769   -0.0078344    0.7508086    0.5233066    0.4030343
   0.0160909    0.0013897   -0.0066461    0.1635352    0.8378761    0.5207877
   0.0161174    0.0015835   -0.0070268   -0.1012731    0.8967994    0.4306908
   0.0169397    0.0019707   -0.0082150    0.7350472    0.6111992    0.2934982
   0.0181368    0.0012630   -0.0093944    0.5530113    0.6631440    0.5043992
   0.0177291    0.0017126   -0.0096859    0.5402685    0.7855720    0.3016398
   0.0173231    0.0018876   -0.0091643    0.7556953    0.6061181    0.2480833
   0.0175104    0.0017468   -0.0093791    0.6638201    0.6892074    0.2904067
   0.0170107    0.0020270   -0.0086532    0.7030782    0.6586914    0.2679676
   0.0171347    0.0022139   -0.0094982    0.6629827    0.7383311    0.1237781
   0.0169359    0.0022406   -0.0090305    0.4287696    0.8632222    0.2664657
   0.0169329    0.0021513   -0.0087906    0.5361376    0.7997898    0.2699865
   0.0169358    0.0021018   -0.0086246    0.5166171    0.8276023    0.2195022
   0.0200354    0.0007140   -0.0100021    0.4013467    0.5741980    0.7135947
   0.0192993    0.0009223   -0.0099493    0.7248225    0.5202746    0.4516046
   0.0195077    0.0007083   -0.0098032    0.4694883    0.6231846    0.6254772
   0.0198024    0.0008090   -0.0099726    0.2490078    0.6974330    0.6719987
   0.0190543    0.0009922   -0.0099316    0.3640045    0.7664762    0.5291644
   0.0203854    0.0001696   -0.0098372    0.4436784    0.3797931    0.8117306
   0.0207469   -0.0002610   -0.0099237    0.6252509    0.1838121    0.7584685
   0.0213105   -0.0023664   -0.0122109    0.9317326   -0.2675856    0.2455044
   0.0214180   -0.0019251   -0.0124795    0.9878348   -0.1549943    0.0126192
   0.0215278   -0.0011085   -0.0121183    0.9986578   -0.0464417   -0.0229292
   0.0212785    0.0000698   -0.0106853    0.8973401    0.1043883    0.4288167
   0.0214094    0.0002061   -0.0110854    0.9704349    0.1333744    0.2011648
   0.0215238   -0.0002322   -0.0117366    0.9960943    0.0873046    0.0131918
   0.0214742    0.0000283   -0.0114915    0.9865543    0.1477751    0.0698080
   0.0210775    0.0000170   -0.0103584    0.7771770    0.1771249    0.6038400
   0.0209847    0.0000184   -0.0102561    0.7062252    0.2605913    0.6582842
   0.0214353   -0.0035638   -0.0141250    0.9890955    0.1378185   -0.0519250
   0.0212746   -0.0029776   -0.0143444    0.9615564    0.1970188   -0.1912928
   0.0212995   -0.0023253   -0.0135925    0.9937963   -0.0547739   -0.0967923
   0.0214017   -0.0041289   -0.0143729    0.9720434   -0.2344585   -0.0126799
   0.0214199   -0.0037326   -0.0144542    0.9979157    0.0327777   -0.0555868
   0.0194110   -0.0051036   -0.0167653    0.3731122   -0.6242763   -0.6863428
   0.0196817   -0.0050041   -0.0167080    0.3765782   -0.5989113   -0.7067490
   0.0200031   -0.0048832   -0.0166390    0.4373696   -0.5902679   -0.6784480
   0.0193591   -0.0051225   -0.0167762    0.3427114   -0.5897077   -0.7312959
   0.0190171   -0.0052304   -0.0168409    0.3087886   -0.6277286   -0.7145673
   0.0185179   -0.0051488   -0.0170717    0.2126182   -0.4199395   -0.8822949
   0.0188542   -0.0050143   -0.0170475    0.2400231   -0.4138886   -0.8781146
   0.0165712   -0.0060238   -0.0165178   -0.0625684   -0.5710105   -0.8185549
   0.0178350   -0.0054798   -0.0170103    0.0677622   -0.5047654   -0.8605929
   0.0175695   -0.0054522   -0.0170120   -0.0547895   -0.4177985   -0.9068862
   0.0178438   -0.0054779   -0.0170091    0.1858792   -0.5703135   -0.8001197
   0.0170366   -0.0058355   -0.0167400   -0.0374715   -0.6100874   -0.7914476
   0.0174904   -0.0056881   -0.0168775    0.0277936   -0.5597540   -0.8281926
   0.0181798   -0.0052981   -0.0170656    0.1122877   -0.4195511   -0.9007599
   0.0167082   -0.0056054   -0.0167818   -0.3186336   -0.2497610   -0.9143807
   0.0169280   -0.0057368   -0.0167967   -0.1771788   -0.4001878   -0.8991426
