NORM_ASCII
1122 2240
  -0.0221331   -0.1093781    0.0057817   -0.8491990    0.0543739    0.5252662
  -0.0221418   -0.1102621    0.0056759   -0.8676437   -0.0433997    0.4952886
  -0.0226827   -0.1114679    0.0048367   -0.8458746   -0.0424215    0.5316922
  -0.0184808   -0.1150568    0.0031811    0.3096390   -0.2114737   -0.9270397
  -0.0193236   -0.1151702    0.0031080    0.1660162   -0.1834642   -0.9689063
  -0.0195319   -0.1152458    0.0030664    0.1887553   -0.1449213   -0.9712720
  -0.0207696   -0.1151101    0.0028377    0.3001752   -0.1105927   -0.9474514
  -0.0215667   -0.1148094    0.0025454   -0.2890871   -0.1315546   -0.9482204
  -0.0211715   -0.1152942    0.0026517    0.2365691   -0.1458945   -0.9605987
  -0.0225094   -0.1131651    0.0034259   -0.9656753   -0.1314974   -0.2240080
  -0.0222420   -0.1139295    0.0029367   -0.8801304   -0.1380425   -0.4542188
  -0.0218932   -0.1152800    0.0028359   -0.7329971   -0.1673031   -0.6593367
  -0.0225347   -0.1121287    0.0030220   -0.9249251   -0.1254781   -0.3588438
  -0.0226193   -0.1126557    0.0036351   -0.9699097   -0.1482773   -0.1931036
  -0.0184423   -0.1090544    0.0086081    0.0177447    0.2319172    0.9725737
  -0.0174843   -0.1095633    0.0086796    0.1124174    0.1528254    0.9818385
  -0.0159365   -0.1104704    0.0081467    0.3921312   -0.1114382    0.9131345
  -0.0174966   -0.1100112    0.0086777    0.0955565   -0.1137749    0.9889005
  -0.0174940   -0.1107769    0.0085219    0.0811799   -0.1712387    0.9818794
  -0.0172817   -0.1113363    0.0084242    0.1856200   -0.1557555    0.9701987
  -0.0145541   -0.1113288    0.0073211    0.6320606   -0.0233652    0.7745666
  -0.0145622   -0.1117737    0.0072921    0.6000083   -0.1083220    0.7926263
  -0.0159885   -0.1117836    0.0079164    0.3720061   -0.1316075    0.9188530
  -0.0140415   -0.1112826    0.0067719    0.7854794   -0.0288782    0.6182137
  -0.0136223   -0.1106915    0.0055634    0.9970232   -0.0120576    0.0761540
  -0.0136709   -0.1111213    0.0057941    0.9933323   -0.0859609    0.0768223
  -0.0138073   -0.1112452    0.0064091    0.9194356   -0.0582031    0.3889094
  -0.0137068   -0.1112644    0.0059979    0.9840502   -0.1204432    0.1309150
  -0.0154607   -0.1118627    0.0035018    0.4434742   -0.3900209   -0.8069786
  -0.0157132   -0.1124300    0.0036525    0.4301397   -0.3513118   -0.8316008
  -0.0172331   -0.1141740    0.0035305    0.4836034   -0.3323428   -0.8097382
  -0.0168988   -0.1147594    0.0040063    0.4166301   -0.2793902   -0.8650783
  -0.0156651   -0.1144612    0.0043373    0.3413042   -0.1781294   -0.9229200
  -0.0169049   -0.1143240    0.0038029    0.4875984   -0.3763797   -0.7877729
  -0.0156401   -0.1139780    0.0042658    0.3777037   -0.2397357   -0.8943527
  -0.0139936   -0.1118945    0.0046365    0.8429419   -0.2713389   -0.4645688
  -0.0143988   -0.1122816    0.0043342    0.6680540   -0.3009539   -0.6805370
  -0.0149028   -0.1122040    0.0039543    0.4789421   -0.3265907   -0.8148331
  -0.0136759   -0.1110530    0.0049356    0.9675538   -0.1679269   -0.1887861
  -0.0136090   -0.1106408    0.0051753    0.9948158   -0.0396532   -0.0936435
  -0.0205171   -0.1087979    0.0077955   -0.4343869    0.2420588    0.8675918
  -0.0203336   -0.1088702    0.0079711   -0.5937166    0.1449017    0.7915201
  -0.0199670   -0.1093767    0.0082582   -0.5582927    0.0019217    0.8296418
  -0.0212663   -0.1100270    0.0069241   -0.7549658   -0.1457699    0.6393573
  -0.0210784   -0.1109340    0.0069205   -0.6989497   -0.1349707    0.7023191
  -0.0205202   -0.1103647    0.0075345   -0.7300756   -0.1866415    0.6573846
  -0.0205263   -0.1101583    0.0076118   -0.7318198   -0.2199911    0.6450145
  -0.0207026   -0.1107293    0.0072746   -0.6688678   -0.1408860    0.7299089
  -0.0201634   -0.1099904    0.0080420   -0.6591126   -0.1751254    0.7313697
  -0.0199769   -0.1098236    0.0082393   -0.5184056   -0.0815910    0.8512336
  -0.0199244   -0.1085737    0.0081285   -0.3890780    0.2723818    0.8800150
  -0.0201119   -0.1084358    0.0079916   -0.3002244    0.3197827    0.8986681
  -0.0203013   -0.1084064    0.0078476    0.9455173    0.1458904    0.2910550
  -0.0193445   -0.1089244    0.0084420   -0.2834661    0.2103894    0.9356192
  -0.0197679   -0.1093445    0.0083502   -0.3676604    0.1018993    0.9243605
  -0.0189285   -0.1088161    0.0085234   -0.1838201    0.2499587    0.9506476
  -0.0203013   -0.1084064    0.0078476    0.7483232    0.2020587    0.6318106
  -0.0187556   -0.1094936    0.0086555   -0.1213450    0.0508802    0.9913055
  -0.0226643   -0.1127977    0.0046969   -0.9771025   -0.1398518    0.1603500
  -0.0225975   -0.1123832    0.0049361   -0.8797133   -0.0773270    0.4691748
  -0.0221637   -0.1122904    0.0054502   -0.8050468   -0.0160909    0.5929930
  -0.0214188   -0.1117535    0.0064654   -0.7387520   -0.0489048    0.6722007
  -0.0211913   -0.1113535    0.0067350   -0.7101884   -0.1060261    0.6959820
  -0.0213360   -0.1104466    0.0067338   -0.7473404   -0.1372521    0.6501109
  -0.0224098   -0.1124280    0.0051853   -0.7909256   -0.0552215    0.6094155
  -0.0185318   -0.1159730    0.0033461    0.2608036   -0.1548545   -0.9528912
  -0.0174938   -0.1150876    0.0036697    0.5371117   -0.2403607   -0.8085405
  -0.0179226   -0.1157544    0.0035696    0.5024849   -0.1930913   -0.8427483
  -0.0191961   -0.1168381    0.0033525    0.1446961   -0.1420550   -0.9792259
  -0.0209351   -0.1153261    0.0028004    0.3539462   -0.1220633   -0.9272662
  -0.0208908   -0.1176217    0.0031617    0.1890022   -0.2054524   -0.9602435
  -0.0200817   -0.1176979    0.0034177    0.1485782   -0.1866496   -0.9711264
  -0.0216625   -0.1152697    0.0026649   -0.3247355   -0.1628781   -0.9316746
  -0.0214560   -0.1165806    0.0028802   -0.1453951   -0.2582039   -0.9550869
  -0.0214469   -0.1157338    0.0026922   -0.1238313   -0.1780721   -0.9761947
  -0.0223618   -0.1142983    0.0036359   -0.9768059   -0.1468743   -0.1558142
  -0.0224909   -0.1140942    0.0042617   -0.9769987   -0.1939134   -0.0887193
  -0.0222945   -0.1142386    0.0032203   -0.9567328   -0.1427111   -0.2535665
  -0.0225811   -0.1136687    0.0044719   -0.9824086   -0.1842158   -0.0306248
  -0.0222082   -0.1143911    0.0030176   -0.8961516   -0.1659264   -0.4115589
  -0.0216561   -0.1161951    0.0028676   -0.5067106   -0.2025220   -0.8379912
  -0.0218884   -0.1159782    0.0030312   -0.7864583   -0.1603977   -0.5964528
  -0.0221492   -0.1154820    0.0034263   -0.9440442   -0.1310898   -0.3026485
  -0.0177040   -0.1109135    0.0084783   -0.0618260   -0.1737369    0.9828494
  -0.0189702   -0.1107997    0.0084305   -0.0731502   -0.1669670    0.9832452
  -0.0168396   -0.1121492    0.0081751    0.3069095   -0.1328715    0.9424180
  -0.0177173   -0.1130752    0.0081768    0.0514493   -0.1200406    0.9914349
  -0.0140424   -0.1117209    0.0067016    0.8324067   -0.1864475    0.5218586
  -0.0153335   -0.1122245    0.0075973    0.3981501   -0.1425509    0.9061765
  -0.0145605   -0.1122115    0.0072005    0.6647870   -0.2157275    0.7152062
  -0.0143019   -0.1120538    0.0069372    0.7994007   -0.2369446    0.5521013
  -0.0137919   -0.1116765    0.0051104    0.9635751   -0.2481160   -0.0998072
  -0.0137927   -0.1116653    0.0061851    0.9583553   -0.2134131    0.1897631
  -0.0149768   -0.1131394    0.0042568    0.4425547   -0.3026514   -0.8441253
  -0.0171113   -0.1150123    0.0039588    0.5589951   -0.2767750   -0.7816138
  -0.0171616   -0.1158017    0.0041410    0.4084418   -0.1756328   -0.8957279
  -0.0165655   -0.1162102    0.0043359    0.2836871   -0.2073054   -0.9362404
  -0.0152726   -0.1145692    0.0045324    0.5824803   -0.2321480   -0.7789891
  -0.0141966   -0.1127157    0.0047892    0.8556378   -0.3112905   -0.4134999
  -0.0145868   -0.1131335    0.0044887    0.6168775   -0.3053057   -0.7254313
  -0.0201372   -0.1088471    0.0080804   -0.4630121    0.1771683    0.8684649
  -0.0202673   -0.1119583    0.0075356   -0.6439378   -0.1135719    0.7566013
  -0.0201605   -0.1106665    0.0078996   -0.6730339   -0.1687552    0.7201021
  -0.0195867   -0.1104612    0.0083517   -0.4561814   -0.2079625    0.8652457
  -0.0191794   -0.1099089    0.0085684   -0.2477072   -0.0712895    0.9662085
  -0.0193874   -0.1103327    0.0084616   -0.2768017   -0.1596529    0.9475715
  -0.0225176   -0.1139665    0.0046903   -0.9405420   -0.1229590    0.3166415
  -0.0219858   -0.1125183    0.0056920   -0.8315032    0.0146908    0.5553256
  -0.0218732   -0.1143536    0.0059436   -0.7709422    0.0294184    0.6362253
  -0.0208119   -0.1123053    0.0069934   -0.6659377   -0.0150121    0.7458563
  -0.0181564   -0.1164740    0.0035728    0.4621568   -0.1620415   -0.8718679
  -0.0174760   -0.1156510    0.0038715    0.5836540   -0.2369528   -0.7766604
  -0.0175955   -0.1165675    0.0040517    0.5141580   -0.1771539   -0.8392008
  -0.0194944   -0.1186486    0.0035719    0.0799239   -0.1245855   -0.9889846
  -0.0188043   -0.1173247    0.0034819    0.2785572   -0.1477343   -0.9489892
  -0.0196614   -0.1177250    0.0034443    0.0307623   -0.1546385   -0.9874921
  -0.0207386   -0.1184944    0.0033894    0.2429541   -0.2071304   -0.9476657
  -0.0210061   -0.1194665    0.0035647    0.1798363   -0.2097330   -0.9610780
  -0.0201105   -0.1181596    0.0035191    0.1063658   -0.1632822   -0.9808288
  -0.0211782   -0.1189846    0.0033926   -0.0524862   -0.2822764   -0.9578963
  -0.0213333   -0.1180524    0.0031891   -0.0956528   -0.1865630   -0.9777754
  -0.0217000   -0.1167686    0.0030438   -0.5315160   -0.2038428   -0.8221550
  -0.0224585   -0.1142283    0.0042643   -0.9653035   -0.2318227   -0.1201973
  -0.0224213   -0.1145476    0.0042619   -0.9891656   -0.1012568   -0.1062939
  -0.0223843   -0.1149982    0.0042557   -0.9885015   -0.1108626   -0.1028309
  -0.0224882   -0.1141232    0.0044762    0.9230899   -0.3833956   -0.0302124
  -0.0224882   -0.1141232    0.0044762    0.9951119   -0.0985786    0.0058859
  -0.0219543   -0.1166908    0.0033223   -0.8353555   -0.1320110   -0.5336237
  -0.0221028   -0.1167210    0.0036139   -0.9317491   -0.0811565   -0.3539170
  -0.0223477   -0.1154766    0.0044634   -0.9911417   -0.0915991   -0.0961648
  -0.0223048   -0.1159275    0.0044585   -0.9871939   -0.0513292   -0.1510415
  -0.0179154   -0.1112994    0.0084022   -0.0671721   -0.1537179    0.9858290
  -0.0187617   -0.1112519    0.0083778   -0.1699244   -0.2127035    0.9622281
  -0.0157098   -0.1126617    0.0076649    0.3767943   -0.0984953    0.9210454
  -0.0164114   -0.1139948    0.0078269    0.3050569   -0.0931200    0.9477705
  -0.0161710   -0.1131075    0.0078092    0.3691577   -0.0812345    0.9258097
  -0.0175205   -0.1139761    0.0081174    0.0578201   -0.0690687    0.9959349
  -0.0183487   -0.1130374    0.0081372   -0.1949458   -0.1191693    0.9735475
  -0.0140371   -0.1125410    0.0061133    0.9298551   -0.2954565    0.2192599
  -0.0147976   -0.1127928    0.0072520    0.6511190   -0.1992550    0.7323534
  -0.0142496   -0.1130008    0.0062748    0.8449568   -0.2830018    0.4538261
  -0.0139008   -0.1121590    0.0057203    0.9588954   -0.2832165   -0.0175487
  -0.0140514   -0.1125494    0.0052510    0.9401471   -0.3206238   -0.1154286
  -0.0146307   -0.1136149    0.0046811    0.7153465   -0.3441401   -0.6081505
  -0.0157355   -0.1167671    0.0048112    0.4953183   -0.2803428   -0.8222334
  -0.0161551   -0.1162437    0.0044286    0.3471885   -0.2542350   -0.9026764
  -0.0170590   -0.1175571    0.0045274    0.3720922   -0.1680194   -0.9128619
  -0.0159669   -0.1163472    0.0045651    0.5573714   -0.1986067   -0.8061591
  -0.0146715   -0.1139638    0.0048782    0.8527458   -0.3302895   -0.4046400
  -0.0149949   -0.1155240    0.0053054    0.9273020   -0.3083155   -0.2122559
  -0.0152919   -0.1163829    0.0051207    0.8035113   -0.2502994   -0.5401109
  -0.0152066   -0.1164180    0.0053504    0.9455583   -0.2446731   -0.2146033
  -0.0144546   -0.1135091    0.0049323    0.9013148   -0.3452676   -0.2615758
  -0.0199724   -0.1128887    0.0076593   -0.5102344   -0.0400649    0.8591016
  -0.0197686   -0.1124682    0.0077930   -0.4011488   -0.0723914    0.9131479
  -0.0197763   -0.1111583    0.0080792   -0.5080652   -0.2060842    0.8363008
  -0.0197817   -0.1120248    0.0078398   -0.4325129   -0.1899994    0.8813812
  -0.0195726   -0.1116157    0.0080512   -0.3473625   -0.2287467    0.9094033
  -0.0225007   -0.1141521    0.0046882   -0.9945033   -0.0993551    0.0330427
  -0.0224882   -0.1141232    0.0044762    0.0666494   -0.8159811   -0.5742235
  -0.0223521   -0.1146679    0.0051304   -0.9439847   -0.0262047    0.3289471
  -0.0221367   -0.1147434    0.0055989   -0.8499959    0.0238138    0.5262508
  -0.0215853   -0.1148711    0.0063430   -0.7634014    0.0549429    0.6435834
  -0.0211409   -0.1140529    0.0067549   -0.7015281    0.0498879    0.7108935
  -0.0202475   -0.1141955    0.0074738   -0.5342125    0.0392156    0.8444401
  -0.0209556   -0.1141794    0.0069115   -0.6266209    0.0318638    0.7786725
  -0.0180146   -0.1174176    0.0038572    0.5428503   -0.1615449   -0.8241461
  -0.0177753   -0.1169975    0.0039906    0.5997742   -0.1546953   -0.7850734
  -0.0193078   -0.1191182    0.0036569    0.2414459   -0.1220090   -0.9627137
  -0.0195337   -0.1195562    0.0036614    0.0880460   -0.0995549   -0.9911290
  -0.0182505   -0.1181848    0.0038667    0.4648362   -0.1497534   -0.8726404
  -0.0203747   -0.1192447    0.0036507    0.1583229   -0.1359761   -0.9779797
  -0.0212507   -0.1199550    0.0036800   -0.2404514   -0.1443160   -0.9598729
  -0.0201682   -0.1195262    0.0036813    0.0316081   -0.1111754   -0.9932980
  -0.0216045   -0.1187605    0.0034334   -0.3708657   -0.2706847   -0.8883628
  -0.0217663   -0.1189832    0.0036111   -0.5314346   -0.2733251   -0.8017921
  -0.0219123   -0.1194661    0.0039148   -0.7621842   -0.1558906   -0.6283100
  -0.0223752   -0.1150854    0.0048994   -0.9898052   -0.0771724    0.1197087
  -0.0221763   -0.1176690    0.0040022   -0.9489957   -0.0554208   -0.3103799
  -0.0223364   -0.1159830    0.0048806   -0.9956905   -0.0516712    0.0770103
  -0.0223061   -0.1168496    0.0046459   -0.9995147   -0.0303655    0.0069546
  -0.0186412   -0.1116951    0.0082791   -0.1006241   -0.1840983    0.9777436
  -0.0189644   -0.1117991    0.0082151   -0.2208788   -0.1915031    0.9563154
  -0.0151091   -0.1131063    0.0073988    0.4677886   -0.1459982    0.8716985
  -0.0173250   -0.1153152    0.0079877    0.2596272   -0.0642432    0.9635697
  -0.0187814   -0.1138981    0.0080279   -0.1316521   -0.0370103    0.9906048
  -0.0195838   -0.1133776    0.0078091   -0.3372612   -0.0124247    0.9413291
  -0.0147075   -0.1147244    0.0059232    0.9177394   -0.3221897    0.2322674
  -0.0146056   -0.1144098    0.0057368    0.9455632   -0.3078508   -0.1055369
  -0.0144192   -0.1137958    0.0055752    0.9478487   -0.3051984   -0.0918518
  -0.0148263   -0.1139371    0.0067835    0.8142863   -0.2838293    0.5063385
  -0.0151574   -0.1139683    0.0071495    0.6940161   -0.2632042    0.6701233
  -0.0145804   -0.1134804    0.0066284    0.8422041   -0.2695509    0.4669417
  -0.0141571   -0.1128910    0.0054358    0.9423469   -0.3150645   -0.1127682
  -0.0154617   -0.1170981    0.0052826    0.8417061   -0.3241998   -0.4317700
  -0.0160538   -0.1176581    0.0048859    0.5124591   -0.2221431   -0.8294807
  -0.0166704   -0.1180461    0.0046769    0.3391874   -0.1760805   -0.9240928
  -0.0174847   -0.1180120    0.0044455    0.4619212   -0.1540088   -0.8734472
  -0.0147933   -0.1150004    0.0054695    0.9449365   -0.3217485   -0.0597735
  -0.0152500   -0.1160823    0.0062112    0.8911093   -0.2815337    0.3558976
  -0.0148940   -0.1151017    0.0060922    0.9108898   -0.3323431    0.2445972
  -0.0153370   -0.1168835    0.0055271    0.9513524   -0.3025282   -0.0583549
  -0.0196115   -0.1147206    0.0077932   -0.4121720    0.0116883    0.9110311
  -0.0222538   -0.1151524    0.0053499   -0.9354166   -0.0378143    0.3515193
  -0.0217291   -0.1152957    0.0062138   -0.7740306    0.0461755    0.6314622
  -0.0217085   -0.1162043    0.0062811   -0.8201910    0.0123903    0.5719556
  -0.0211995   -0.1157896    0.0068187   -0.6929816    0.0498080    0.7192327
  -0.0210512   -0.1167912    0.0070511   -0.6797594    0.0360007    0.7325511
  -0.0202605   -0.1160054    0.0075818   -0.5078564    0.0483293    0.8600850
  -0.0198328   -0.1151489    0.0077221   -0.3823705    0.0467677    0.9228248
  -0.0199100   -0.1174017    0.0078084   -0.3429863    0.0177793    0.9391721
  -0.0178522   -0.1179066    0.0040903    0.6277163   -0.1581937   -0.7621988
  -0.0186885   -0.1200870    0.0039434    0.3477985   -0.1098507   -0.9311117
  -0.0189534   -0.1203747    0.0038853    0.3104437   -0.0897721   -0.9463433
  -0.0197786   -0.1202856    0.0037327    0.0362723   -0.0480398   -0.9981866
  -0.0192302   -0.1223055    0.0039442    0.2767890   -0.0742647   -0.9580567
  -0.0180903   -0.1188069    0.0040934    0.6101025   -0.1549258   -0.7770283
  -0.0183006   -0.1192174    0.0040034    0.5429710   -0.1381446   -0.8283106
  -0.0208629   -0.1208476    0.0037602   -0.0528786   -0.0374357   -0.9978990
  -0.0215604   -0.1203700    0.0038242   -0.4640428   -0.0198582   -0.8855902
  -0.0217233   -0.1203724    0.0039045   -0.6031282   -0.0433108   -0.7964675
  -0.0214916   -0.1203684    0.0037859   -0.4312437   -0.0298622   -0.9017412
  -0.0218919   -0.1199268    0.0039898   -0.6732855   -0.1148249   -0.7304122
  -0.0220856   -0.1194933    0.0041807   -0.9061918   -0.0864167   -0.4139427
  -0.0222538   -0.1181669    0.0044026   -0.9914920   -0.0409385   -0.1235624
  -0.0222204   -0.1164962    0.0053169   -0.9398287   -0.0224656    0.3409067
  -0.0222356   -0.1182556    0.0050479   -0.9765505   -0.0183628    0.2145040
  -0.0222080   -0.1169453    0.0053063   -0.9516921   -0.0099137    0.3068939
  -0.0156134   -0.1148578    0.0072530    0.5886729   -0.2239168    0.7767403
  -0.0161877   -0.1157511    0.0074414    0.5750639   -0.1478373    0.8046400
  -0.0168935   -0.1162101    0.0077876    0.4307004   -0.0708387    0.8997106
  -0.0180128   -0.1166380    0.0080612    0.1283301    0.0000026    0.9917315
  -0.0166537   -0.1159184    0.0076706    0.4715489   -0.0535425    0.8802130
  -0.0192607   -0.1161103    0.0079735   -0.2085424    0.0253166    0.9776856
  -0.0151998   -0.1151563    0.0066776    0.8038263   -0.2837218    0.5228434
  -0.0153696   -0.1152649    0.0068570    0.7285549   -0.2935950    0.6188778
  -0.0158975   -0.1180808    0.0051718    0.8148604   -0.2926458   -0.5003609
  -0.0155351   -0.1174353    0.0056887    0.9488504   -0.3030011    0.0887311
  -0.0163765   -0.1194876    0.0052568    0.6670180   -0.2913109   -0.6857295
  -0.0166037   -0.1199257    0.0052711    0.4639296   -0.2908549   -0.8367633
  -0.0164906   -0.1183131    0.0048387    0.4442282   -0.2509377   -0.8600532
  -0.0171044   -0.1184704    0.0046502    0.3778162   -0.2107801   -0.9015690
  -0.0167507   -0.1192167    0.0049782    0.3686668   -0.2634784   -0.8914393
  -0.0177799   -0.1188449    0.0043657    0.5844618   -0.1529746   -0.7968709
  -0.0154110   -0.1169365    0.0059414    0.9022438   -0.2866801    0.3221347
  -0.0157936   -0.1161568    0.0069663    0.7627437   -0.2243715    0.6065307
  -0.0156972   -0.1157160    0.0069971    0.7093857   -0.2629393    0.6539379
  -0.0217355   -0.1166500    0.0062633   -0.8236006    0.0223089    0.5667313
  -0.0204980   -0.1173303    0.0074971   -0.5614060    0.0198748    0.8273018
  -0.0214399   -0.1176173    0.0066659   -0.7471342    0.0190896    0.6643990
  -0.0190792   -0.1183696    0.0080018   -0.1999087   -0.0073550    0.9797869
  -0.0201201   -0.1178273    0.0077130   -0.4283053   -0.0142193    0.9035222
  -0.0184534   -0.1170664    0.0080803   -0.0943418    0.0087993    0.9955010
  -0.0185584   -0.1205573    0.0040482    0.5154008   -0.1259766   -0.8476390
  -0.0190119   -0.1218728    0.0039899    0.5348742   -0.0873846   -0.8404008
  -0.0187943   -0.1214419    0.0040358    0.4612943   -0.1056605   -0.8809333
  -0.0196244   -0.1218201    0.0038309    0.1312195   -0.0164322   -0.9912171
  -0.0210858   -0.1212824    0.0037482   -0.0907989    0.0171432   -0.9957217
  -0.0204717   -0.1220475    0.0037656    0.0653586   -0.0036474   -0.9978552
  -0.0190301   -0.1222888    0.0040298    0.3782028   -0.0743978   -0.9227283
  -0.0190314   -0.1223270    0.0040311    0.4979228   -0.0452224   -0.8660414
  -0.0192479   -0.1227573    0.0039780    0.3322240   -0.0364312   -0.9424967
  -0.0202740   -0.1226732    0.0037477    0.2426838    0.0251708   -0.9697788
  -0.0215069   -0.1206915    0.0038250   -0.6192674   -0.0364079   -0.7843356
  -0.0221409   -0.1208885    0.0045594   -0.8961107    0.0243513   -0.4431621
  -0.0220956   -0.1204158    0.0043668   -0.8808414   -0.0988720   -0.4629716
  -0.0220333   -0.1217541    0.0042752   -0.7702496    0.0718898   -0.6336777
  -0.0217723   -0.1217271    0.0039720   -0.5251736   -0.0117397   -0.8509141
  -0.0215245   -0.1212714    0.0038331   -0.4819171   -0.0527182   -0.8746295
  -0.0221832   -0.1204676    0.0047786   -0.9968881   -0.0127083   -0.0777988
  -0.0222222   -0.1195977    0.0050113   -0.9931313   -0.0411526    0.1095290
  -0.0217772   -0.1170868    0.0061995   -0.8666513    0.0070143    0.4988650
  -0.0219163   -0.1175005    0.0059893   -0.8869795   -0.0002887    0.4618087
  -0.0218065   -0.1188800    0.0061846   -0.8786149    0.0066770    0.4774842
  -0.0221167   -0.1196645    0.0054590   -0.9530139   -0.0042761    0.3028963
  -0.0164777   -0.1166371    0.0074680    0.5822006   -0.1432107    0.8003331
  -0.0160676   -0.1166107    0.0071162    0.7047782   -0.1945948    0.6822174
  -0.0174588   -0.1184371    0.0078752    0.4012556   -0.0373980    0.9152024
  -0.0166647   -0.1170845    0.0075296    0.5826930   -0.1149908    0.8045160
  -0.0178920   -0.1184328    0.0080086    0.1946039   -0.0111111    0.9808190
  -0.0185116   -0.1193043    0.0080491    0.0232122   -0.0340472    0.9991506
  -0.0159826   -0.1189398    0.0055603    0.9246309   -0.2703920   -0.2682272
  -0.0162024   -0.1192263    0.0065849    0.9284362   -0.1597192    0.3354043
  -0.0158200   -0.1174377    0.0064941    0.8379612   -0.2365549    0.4917955
  -0.0161439   -0.1183459    0.0066969    0.8385957   -0.1545855    0.5223606
  -0.0164599   -0.1204302    0.0056196    0.7419119   -0.2944918   -0.6023631
  -0.0172221   -0.1203119    0.0050724    0.5472758   -0.1817717   -0.8169751
  -0.0169660   -0.1194160    0.0049578    0.3767706   -0.2519108   -0.8913949
  -0.0173586   -0.1193680    0.0047566    0.5360604   -0.1889954   -0.8227515
  -0.0207145   -0.1181980    0.0073665   -0.5824634    0.0074627    0.8128227
  -0.0213121   -0.1194488    0.0068798   -0.7283611    0.0047563    0.6851769
  -0.0209184   -0.1187003    0.0072165   -0.6193099    0.0180430    0.7849393
  -0.0214787   -0.1189636    0.0066694   -0.6727707    0.0215683    0.7395366
  -0.0214737   -0.1189630    0.0066744   -0.7394299    0.0123334    0.6731206
  -0.0196531   -0.1192194    0.0078691   -0.2789408   -0.0101524    0.9602546
  -0.0189185   -0.1187975    0.0080198    0.1218804   -0.0228615    0.9922815
  -0.0189073   -0.1183815    0.0080248    0.0755071   -0.0141695    0.9970446
  -0.0209438   -0.1195155    0.0072350   -0.5499380    0.0128437    0.8351067
  -0.0185044   -0.1210250    0.0041656    0.5509383   -0.0982477   -0.8287427
  -0.0188141   -0.1218954    0.0040818    0.8939381   -0.0355165   -0.4467810
  -0.0188141   -0.1218954    0.0040818    0.9138133   -0.0504572   -0.4029880
  -0.0186631   -0.1214597    0.0041229    0.6395407   -0.0757607   -0.7650151
  -0.0204516   -0.1222159    0.0037644    0.2616993    0.0329023   -0.9645885
  -0.0215595   -0.1234912    0.0036559   -0.1072188    0.1001370   -0.9891798
  -0.0209157   -0.1230814    0.0036953    0.0572157    0.0557603   -0.9968035
  -0.0217834   -0.1226120    0.0038862   -0.5720141    0.1428799   -0.8077037
  -0.0204857   -0.1226610    0.0037450    0.5639987    0.0334831   -0.8250966
  -0.0204756   -0.1222143    0.0037619    0.0855990    0.0279148   -0.9959385
  -0.0188293   -0.1223464    0.0040957    0.4039516   -0.0491180   -0.9134607
  -0.0188141   -0.1218954    0.0040818    0.8275481   -0.0282209   -0.5606850
  -0.0196835   -0.1240591    0.0038047    0.3683001    0.0232440   -0.9294164
  -0.0189013   -0.1245948    0.0041532    0.4170414   -0.0308962   -0.9083622
  -0.0182854   -0.1237682    0.0044450    0.5027279    0.0223746   -0.8641551
  -0.0202894   -0.1235614    0.0036878    0.0723295    0.0867331   -0.9936024
  -0.0204937   -0.1231057    0.0037162   -0.0245138    0.0577592   -0.9980295
  -0.0204857   -0.1226610    0.0037450    0.8283564    0.0364339   -0.5590154
  -0.0204857   -0.1226610    0.0037450    0.9491710    0.0133406   -0.3144780
  -0.0223129   -0.1226927    0.0046891   -0.9953953    0.0953597    0.0097345
  -0.0221846   -0.1226449    0.0042849   -0.8334567    0.1244013   -0.5383997
  -0.0221599   -0.1211332    0.0051933   -0.9845778    0.0183472    0.1739828
  -0.0216648   -0.1193695    0.0064273   -0.8491007    0.0154185    0.5280059
  -0.0219892   -0.1206264    0.0058844   -0.9312780    0.0080071    0.3642214
  -0.0216791   -0.1198193    0.0064374   -0.7911140    0.0362257    0.6105951
  -0.0164133   -0.1179421    0.0071294    0.7178153   -0.1474385    0.6804433
  -0.0172317   -0.1193200    0.0076773    0.5797125   -0.0714011    0.8116867
  -0.0176324   -0.1188865    0.0079485    0.3668151   -0.0416828    0.9293596
  -0.0178724   -0.1197746    0.0079607    0.2345858   -0.0468194    0.9709673
  -0.0187315   -0.1197366    0.0080185   -0.0060973   -0.0425623    0.9990752
  -0.0161028   -0.1195657    0.0057342    0.9599884   -0.2423074   -0.1403900
  -0.0164318   -0.1209686    0.0062760    0.9772204   -0.2032091   -0.0612073
  -0.0165479   -0.1210172    0.0066824    0.8206557   -0.1256786    0.5574308
  -0.0165743   -0.1218817    0.0064375    0.9836138   -0.0925447    0.1547233
  -0.0166433   -0.1192789    0.0071448    0.7452830   -0.1109370    0.6574544
  -0.0166826   -0.1209704    0.0055845    0.6827695   -0.1674644   -0.7111832
  -0.0165026   -0.1209024    0.0058072    0.8907463   -0.2239716   -0.3954843
  -0.0163448   -0.1204703    0.0058773    0.9110541   -0.2856993   -0.2972479
  -0.0170740   -0.1212545    0.0053179    0.6555268   -0.0744348   -0.7514946
  -0.0178416   -0.1217120    0.0047001    0.6079051   -0.0660238   -0.7912599
  -0.0217108   -0.1211588    0.0064013   -0.8131048   -0.0127334    0.5819780
  -0.0213552   -0.1216847    0.0068322   -0.7430985   -0.0100330    0.6691068
  -0.0215034   -0.1198591    0.0066688   -0.6493375    0.0180364    0.7602864
  -0.0207653   -0.1199925    0.0073666   -0.5441030    0.0063206    0.8389946
  -0.0214891   -0.1194094    0.0066585    0.3511530    0.0205129    0.9360934
  -0.0214891   -0.1194094    0.0066585    0.7579440    0.0228832    0.6519182
  -0.0197637   -0.1196576    0.0078281   -0.3603860    0.0196997    0.9325952
  -0.0189541   -0.1201721    0.0080022   -0.0961255   -0.0197776    0.9951727
  -0.0189306   -0.1192768    0.0080121    0.0959112   -0.0156397    0.9952670
  -0.0186006   -0.1214681    0.0041522    0.4982966   -0.0581099   -0.8650571
  -0.0213520   -0.1239444    0.0036083    0.0097178    0.1833312   -0.9830032
  -0.0219118   -0.1239220    0.0036548   -0.4451222    0.2243112   -0.8669202
  -0.0207052   -0.1230940    0.0037090    0.0724223    0.0790472   -0.9942367
  -0.0222684   -0.1239530    0.0040199   -0.8148420    0.1999784   -0.5440967
  -0.0205511   -0.1231039    0.0037199    0.2489919    0.0628438   -0.9664645
  -0.0178652   -0.1224796    0.0047112    0.5873194   -0.0142205   -0.8092303
  -0.0196440   -0.1249633    0.0038365    0.4334154   -0.0110795   -0.9011261
  -0.0197318   -0.1258499    0.0037941    0.5163299    0.0323695   -0.8557778
  -0.0199221   -0.1258218    0.0036529    0.4806136    0.0963211   -0.8716265
  -0.0201059   -0.1249115    0.0036303    0.2518207    0.1129051   -0.9611653
  -0.0187464   -0.1259668    0.0042756    0.3498958    0.0310698   -0.9362732
  -0.0193256   -0.1254494    0.0039875    0.4604253   -0.0200605   -0.8874717
  -0.0190667   -0.1254836    0.0041446    0.4395526   -0.0242425   -0.8978896
  -0.0169613   -0.1248524    0.0053086    0.6380205    0.0670287   -0.7670965
  -0.0169919   -0.1252826    0.0051855    0.6456710    0.1862954   -0.7405423
  -0.0179370   -0.1260436    0.0045282    0.3924330    0.0958720   -0.9147704
  -0.0173431   -0.1255883    0.0048957    0.5121807    0.1565618   -0.8444876
  -0.0175170   -0.1238773    0.0049543    0.5827141    0.0420779   -0.8115871
  -0.0175096   -0.1234339    0.0049862    0.5940967    0.0175933   -0.8042012
  -0.0207179   -0.1244189    0.0035533    0.0912940    0.1703248   -0.9811498
  -0.0209344   -0.1241918    0.0036159    0.0523672    0.2081169   -0.9767011
  -0.0223781   -0.1235542    0.0044371   -0.9821314    0.1350905   -0.1310286
  -0.0223686   -0.1231653    0.0048797   -0.9874988    0.0894581    0.1297823
  -0.0222490   -0.1232393    0.0053852   -0.9502105    0.1373055    0.2797272
  -0.0218997   -0.1224522    0.0060633   -0.8994281    0.0558975    0.4334796
  -0.0218828   -0.1215582    0.0060922   -0.8920011   -0.0226371    0.4514661
  -0.0215242   -0.1198540    0.0066390   -0.8046526    0.0223931    0.5933234
  -0.0214891   -0.1194094    0.0066585    0.7602316    0.0406828    0.6483770
  -0.0171797   -0.1202026    0.0075384    0.6349621   -0.0986861    0.7662142
  -0.0168565   -0.1197381    0.0073061    0.7134259   -0.0950386    0.6942558
  -0.0174180   -0.1197729    0.0077797    0.4782089   -0.0539141    0.8765897
  -0.0178818   -0.1202200    0.0079402    0.2386981   -0.0562931    0.9694608
  -0.0166371   -0.1217897    0.0057838    0.8928344   -0.1310699   -0.4308914
  -0.0166693   -0.1214729    0.0067670    0.8700805   -0.0772886    0.4868126
  -0.0169349   -0.1210648    0.0071802    0.7131628   -0.0720993    0.6972808
  -0.0166221   -0.1228017    0.0066166    0.9526341    0.0022374    0.3041107
  -0.0165781   -0.1227470    0.0061967    0.9842979    0.0265479   -0.1745074
  -0.0167319   -0.1222200    0.0056748    0.8528134   -0.0480470   -0.5200007
  -0.0168238   -0.1223969    0.0070201    0.8113760   -0.0229097    0.5840755
  -0.0178880   -0.1220248    0.0046822    0.6236556   -0.0202932   -0.7814358
  -0.0217717   -0.1238377    0.0063063   -0.7988769   -0.0077107    0.6014451
  -0.0213631   -0.1230265    0.0067917   -0.7015570   -0.0264880    0.7121209
  -0.0210100   -0.1221980    0.0071757   -0.5718664   -0.0278218    0.8198749
  -0.0206437   -0.1209041    0.0074189   -0.5550950    0.0040975    0.8317769
  -0.0199773   -0.1200852    0.0077556   -0.3238211    0.0029784    0.9461136
  -0.0201995   -0.1209588    0.0076598   -0.3840329   -0.0031406    0.9233141
  -0.0179576   -0.1206649    0.0079314    0.1157129   -0.0236562    0.9930010
  -0.0189676   -0.1206207    0.0080084   -0.1161094   -0.0005018    0.9932363
  -0.0219801   -0.1247061    0.0034042   -0.3845883    0.3183986   -0.8664376
  -0.0215497   -0.1247994    0.0033566    0.1032567    0.2356527   -0.9663363
  -0.0223808   -0.1243900    0.0039822   -0.8388364    0.2357499   -0.4906887
  -0.0171206   -0.1230461    0.0052892    0.6244522    0.0229161   -0.7807268
  -0.0168981   -0.1226351    0.0054951    0.7516938    0.0224085   -0.6591315
  -0.0197346   -0.1262905    0.0037324    0.5387351    0.1810002   -0.8228022
  -0.0190849   -0.1263772    0.0041153    0.4529031    0.0975799   -0.8862037
  -0.0209164   -0.1262492    0.0031297    0.3826892    0.2965582   -0.8749870
  -0.0205089   -0.1265241    0.0031982    0.4716770    0.3057164   -0.8270781
  -0.0211349   -0.1252677    0.0033416    0.2239901    0.2534863   -0.9410490
  -0.0187541   -0.1268497    0.0041657    0.3228902    0.2000445   -0.9250536
  -0.0164168   -0.1253977    0.0058097    0.8279497    0.1639068   -0.5363151
  -0.0165787   -0.1244694    0.0056529    0.8204551    0.0746369   -0.5668180
  -0.0168720   -0.1235319    0.0054740    0.6663955    0.0548857   -0.7435756
  -0.0167579   -0.1239940    0.0055222    0.7095822    0.0908291   -0.6987440
  -0.0167595   -0.1257488    0.0052190    0.7127201    0.2617771   -0.6507709
  -0.0177409   -0.1263218    0.0045848    0.3562566    0.1931657   -0.9142036
  -0.0167497   -0.1261797    0.0050766    0.4920695    0.2067037   -0.8456602
  -0.0169472   -0.1263542    0.0049480    0.4354446    0.2223068   -0.8723346
  -0.0224808   -0.1244409    0.0043918   -0.9781619    0.1327198   -0.1599524
  -0.0226416   -0.1255330    0.0047594   -0.9632910    0.2600812    0.0665457
  -0.0224534   -0.1249262    0.0050273   -0.9603702    0.0914403    0.2633016
  -0.0223888   -0.1235523    0.0048646   -0.9926736    0.0536815    0.1082467
  -0.0222326   -0.1237102    0.0055340   -0.9302619    0.0468198    0.3638965
  -0.0174326   -0.1214099    0.0075785    0.6016644   -0.0978372    0.7927344
  -0.0176714   -0.1213758    0.0077496    0.4474152   -0.1093037    0.8876218
  -0.0178991   -0.1211101    0.0078908    0.2490837   -0.1017603    0.9631211
  -0.0172106   -0.1224189    0.0073361    0.5762740   -0.0527555    0.8155520
  -0.0174402   -0.1219830    0.0075225    0.5815122   -0.0704167    0.8104844
  -0.0164847   -0.1240962    0.0061749    0.9765695    0.0468979    0.2100302
  -0.0167238   -0.1232686    0.0067966    0.8867067   -0.0318004    0.4612374
  -0.0165834   -0.1235970    0.0058376    0.8998511    0.1050525   -0.4233580
  -0.0168428   -0.1232901    0.0069906    0.7212261   -0.0565390    0.6903885
  -0.0170431   -0.1233021    0.0071670    0.6065078   -0.0490633    0.7935622
  -0.0214315   -0.1252426    0.0065979   -0.6789770   -0.0018886    0.7341571
  -0.0221249   -0.1241975    0.0057782   -0.8634600    0.0361786    0.5031182
  -0.0212285   -0.1239457    0.0068950   -0.6162025   -0.0645066    0.7849417
  -0.0208414   -0.1235597    0.0072108   -0.5313355   -0.0637500    0.8447594
  -0.0204095   -0.1213848    0.0075611   -0.4478890   -0.0175739    0.8939165
  -0.0206365   -0.1231383    0.0073389   -0.4556044   -0.0466843    0.8889574
  -0.0206397   -0.1222466    0.0073804   -0.4711813   -0.0597498    0.8800103
  -0.0204188   -0.1218303    0.0075395   -0.3965910   -0.0503565    0.9166132
  -0.0198086   -0.1214470    0.0077890   -0.2870464   -0.0242999    0.9576084
  -0.0186704   -0.1210843    0.0079995    0.0938415   -0.0200848    0.9953845
  -0.0187794   -0.1215285    0.0079997    0.0519250   -0.0518991    0.9973015
  -0.0217557   -0.1252216    0.0032363   -0.0150268    0.3236298   -0.9460644
  -0.0221975   -0.1251730    0.0033496   -0.5457164    0.3161024   -0.7760624
  -0.0224689   -0.1251374    0.0037292   -0.8872178    0.2579312   -0.3825129
  -0.0191442   -0.1272382    0.0038698    0.4410836    0.2768391   -0.8537010
  -0.0202948   -0.1270730    0.0030925    0.5531223    0.2663919   -0.7893612
  -0.0210502   -0.1273485    0.0024279    0.4458583    0.3942688   -0.8035935
  -0.0213220   -0.1259092    0.0030633    0.2508997    0.3885058   -0.8866299
  -0.0175151   -0.1273830    0.0043127    0.3219045    0.3164238   -0.8923303
  -0.0163755   -0.1254176    0.0059422    0.9920504    0.1070018   -0.0662314
  -0.0162567   -0.1262925    0.0057243    0.9793142    0.1847202   -0.0825958
  -0.0161978   -0.1268925    0.0055030    0.9159874    0.2272212   -0.3306623
  -0.0160923   -0.1275894    0.0052877    0.8902657    0.2484365   -0.3817149
  -0.0165516   -0.1266405    0.0050866    0.6199222    0.2643188   -0.7388045
  -0.0169213   -0.1274514    0.0045849    0.4688856    0.3487399   -0.8114966
  -0.0226677   -0.1262193    0.0034453   -0.8318120    0.3081593   -0.4616564
  -0.0229125   -0.1261965    0.0042594   -0.9471752    0.3095659   -0.0838334
  -0.0228605   -0.1260693    0.0047027   -0.9131336    0.3671535    0.1771591
  -0.0227491   -0.1263535    0.0053596   -0.8460909    0.2944800    0.4443103
  -0.0223127   -0.1250459    0.0054802   -0.9057503    0.1645179    0.3905768
  -0.0222008   -0.1246350    0.0057277   -0.8749270    0.0853738    0.4766697
  -0.0179189   -0.1224409    0.0077800    0.4117947   -0.0636512    0.9090509
  -0.0179259   -0.1228850    0.0077448    0.4826297   -0.0722452    0.8728398
  -0.0164936   -0.1250193    0.0063612    0.9123065    0.0822397    0.4011651
  -0.0167684   -0.1250584    0.0067551    0.8070064   -0.0120243    0.5904202
  -0.0172401   -0.1237573    0.0072834    0.5237234   -0.0816225    0.8479691
  -0.0172581   -0.1246488    0.0072374    0.5452605   -0.0597787    0.8361324
  -0.0171679   -0.1255292    0.0070787    0.6619614   -0.0292715    0.7489661
  -0.0218452   -0.1265262    0.0062920   -0.4879505    0.0231812    0.8725634
  -0.0210589   -0.1266212    0.0066895   -0.4650773   -0.0928473    0.8803877
  -0.0221875   -0.1256737    0.0059147   -0.7478108    0.1202159    0.6529374
  -0.0219486   -0.1260555    0.0061637   -0.6197542    0.0908958    0.7795144
  -0.0206614   -0.1249119    0.0071748   -0.4712731   -0.1020317    0.8760657
  -0.0204576   -0.1244911    0.0073117   -0.4271472   -0.0968760    0.8989774
  -0.0200439   -0.1232074    0.0076170   -0.3798078   -0.0760980    0.9219301
  -0.0192072   -0.1219470    0.0079386   -0.2084336   -0.0420370    0.9771327
  -0.0198339   -0.1227816    0.0077136   -0.3027532   -0.0555839    0.9514468
  -0.0197726   -0.1223411    0.0077554   -0.2913523   -0.0401285    0.9557738
  -0.0185838   -0.1224296    0.0079505    0.0720169   -0.0599803    0.9955983
  -0.0216635   -0.1277782    0.0021898   -0.2014809    0.2303066   -0.9520317
  -0.0219233   -0.1264898    0.0027196   -0.2727185    0.3473740   -0.8971934
  -0.0221828   -0.1256392    0.0031691   -0.4805284    0.3325102   -0.8114982
  -0.0191313   -0.1276663    0.0037098    0.3574729    0.2604646   -0.8968675
  -0.0194054   -0.1276359    0.0035885    0.4961754    0.2469847   -0.8323512
  -0.0211417   -0.1278046    0.0021826    0.3253036    0.1898172   -0.9263622
  -0.0208360   -0.1278412    0.0023297    0.5909764    0.1986366   -0.7818506
  -0.0197132   -0.1278705    0.0033089    0.5281132    0.1364381   -0.8381414
  -0.0201052   -0.1283758    0.0030055    0.6382996   -0.0356273   -0.7689632
  -0.0212334   -0.1277538    0.0021668    0.1430216    0.2441494   -0.9591329
  -0.0166853   -0.1282153    0.0042987    0.4219551    0.3096585   -0.8520948
  -0.0174952   -0.1282449    0.0040284    0.2618109    0.1701551   -0.9500012
  -0.0189300   -0.1281247    0.0036998    0.3551407    0.0870125   -0.9307545
  -0.0164477   -0.1254694    0.0063567    0.8718743    0.0835577    0.4825487
  -0.0162100   -0.1272769    0.0063486    0.8737316    0.0453456    0.4842902
  -0.0160250   -0.1276813    0.0059422    0.9572180    0.0747206    0.2795543
  -0.0159548   -0.1281050    0.0057282    0.9913316    0.1039977    0.0802880
  -0.0161067   -0.1276417    0.0061430    0.9349624    0.0830535    0.3448877
  -0.0163274   -0.1277859    0.0048082    0.7046843    0.3711448   -0.6047079
  -0.0158268   -0.1289236    0.0050842    0.9762070    0.1689352   -0.1359443
  -0.0228648   -0.1265617    0.0036133   -0.9465394    0.1618230   -0.2790635
  -0.0228285   -0.1269822    0.0033930   -0.8463181    0.1175531   -0.5195450
  -0.0223971   -0.1262794    0.0030649   -0.6780194    0.2619480   -0.6867845
  -0.0231000   -0.1271640    0.0048404   -0.9955236    0.0662689   -0.0673882
  -0.0230390   -0.1267493    0.0050788   -0.9501653    0.1935923    0.2443519
  -0.0229348   -0.1264698    0.0051064   -0.9060047    0.3416409    0.2498741
  -0.0229432   -0.1272625    0.0055116   -0.8807292    0.0849191    0.4659450
  -0.0228350   -0.1272897    0.0056805   -0.7981551    0.1039891    0.5934094
  -0.0224247   -0.1264371    0.0058482   -0.7435902    0.1977501    0.6387241
  -0.0229982   -0.1272396    0.0053735   -0.9218282    0.0847938    0.3782099
  -0.0181599   -0.1233298    0.0077991    0.3334871   -0.0956680    0.9378880
  -0.0183508   -0.1242125    0.0077539    0.3017013   -0.0846190    0.9496399
  -0.0173664   -0.1250957    0.0072689    0.4820184   -0.0368128    0.8753874
  -0.0172854   -0.1259855    0.0071727    0.5198243    0.0863775    0.8498951
  -0.0167109   -0.1259552    0.0067230    0.6909890    0.1273609    0.7115570
  -0.0216828   -0.1278928    0.0063660   -0.3425884   -0.0429305    0.9385042
  -0.0222750   -0.1273847    0.0061623   -0.5133089    0.0860315    0.8538809
  -0.0206626   -0.1270168    0.0068072   -0.4188002   -0.0794576    0.9045954
  -0.0202653   -0.1253948    0.0072809   -0.3715792   -0.1254717    0.9198836
  -0.0200605   -0.1249737    0.0074067   -0.3237863   -0.1106573    0.9396368
  -0.0192365   -0.1237234    0.0078058   -0.2158152   -0.0783066    0.9732892
  -0.0188125   -0.1233085    0.0078904   -0.0668272   -0.0831963    0.9942899
  -0.0186159   -0.1246468    0.0077554    0.0568471   -0.1075623    0.9925718
  -0.0214401   -0.1282189    0.0020440    0.0832383    0.0821016   -0.9931418
  -0.0218924   -0.1282187    0.0022135   -0.5198349    0.0818975   -0.8503320
  -0.0224407   -0.1273735    0.0028102   -0.6902803    0.1130087   -0.7146622
  -0.0221276   -0.1269209    0.0026674   -0.5038431    0.2391857   -0.8300195
  -0.0208410   -0.1282832    0.0022831    0.5599370   -0.0733659   -0.8252806
  -0.0197193   -0.1284768    0.0032900    0.5070741   -0.0867640   -0.8575243
  -0.0201581   -0.1292567    0.0031847    0.5272305   -0.2611832   -0.8085860
  -0.0205845   -0.1287993    0.0026880    0.5986571   -0.2950186   -0.7446970
  -0.0164824   -0.1287779    0.0042622    0.3435389    0.0077693   -0.9391063
  -0.0162872   -0.1283638    0.0044493    0.5924797    0.3020503   -0.7468155
  -0.0160952   -0.1288295    0.0045003    0.6324830    0.0786371   -0.7705722
  -0.0177098   -0.1286731    0.0039647    0.2070746   -0.0774504   -0.9752546
  -0.0193597   -0.1289830    0.0035717    0.4452321   -0.2401089   -0.8626216
  -0.0183522   -0.1290828    0.0039136    0.2002077   -0.2351649   -0.9511122
  -0.0163657   -0.1270949    0.0065394    0.7838788    0.1037585    0.6121832
  -0.0166195   -0.1277799    0.0069017    0.7615391   -0.0655824    0.6447923
  -0.0162034   -0.1281721    0.0063238    0.8733535   -0.0644002    0.4828108
  -0.0166401   -0.1271855    0.0069150    0.7717890    0.0486291    0.6340165
  -0.0169632   -0.1273639    0.0072788    0.6845588    0.0507382    0.7271898
  -0.0158768   -0.1289759    0.0055024    0.9487993   -0.0157662    0.3154860
  -0.0161036   -0.1284680    0.0046156    0.8485090    0.3262045   -0.4166811
  -0.0158224   -0.1293696    0.0050715    0.9955719   -0.0939678    0.0025572
  -0.0158714   -0.1288904    0.0048616    0.9112831    0.1225752   -0.3931137
  -0.0158730   -0.1293380    0.0048483    0.9244799   -0.1031914   -0.3669992
  -0.0229034   -0.1274533    0.0035801   -0.9710398   -0.0638695   -0.2302224
  -0.0227089   -0.1278574    0.0031752   -0.8939114   -0.0762945   -0.4417030
  -0.0223805   -0.1269317    0.0028415   -0.6741455    0.1844420   -0.7151986
  -0.0231000   -0.1276402    0.0050417   -0.9944643   -0.0655248    0.0821412
  -0.0229769   -0.1281241    0.0052650   -0.9471361   -0.1487158    0.2842829
  -0.0227960   -0.1281962    0.0057266   -0.8520848   -0.1015891    0.5134502
  -0.0226746   -0.1277804    0.0059271   -0.7005930    0.0261369    0.7130822
  -0.0184049   -0.1250979    0.0076849    0.1889679   -0.0542710    0.9804824
  -0.0179699   -0.1255503    0.0075461    0.3785602   -0.0317090    0.9250333
  -0.0177143   -0.1269156    0.0075799    0.2701288    0.2195824    0.9374508
  -0.0173907   -0.1273832    0.0075950    0.4569174    0.1569061    0.8755609
  -0.0180543   -0.1259951    0.0075429    0.3247415    0.0266858    0.9454263
  -0.0219073   -0.1287681    0.0062826   -0.2988827   -0.0496565    0.9529970
  -0.0215008   -0.1292429    0.0063217   -0.2362830   -0.2014935    0.9505633
  -0.0210933   -0.1291891    0.0064481   -0.3728344   -0.2080964    0.9042623
  -0.0205006   -0.1284711    0.0068672   -0.4299411   -0.0655048    0.9004775
  -0.0224960   -0.1282577    0.0060577   -0.6036678   -0.0849648    0.7926955
  -0.0196769   -0.1267827    0.0073478   -0.3643265   -0.0783152    0.9279725
  -0.0192551   -0.1254914    0.0076089   -0.1783682   -0.1135346    0.9773918
  -0.0194603   -0.1258369    0.0074975   -0.2853755   -0.0937989    0.9538148
  -0.0211679   -0.1286970    0.0021517    0.5402592   -0.2165142   -0.8131677
  -0.0215733   -0.1286657    0.0020764   -0.2098933   -0.1160981   -0.9708069
  -0.0214542   -0.1286690    0.0020527    0.0606631   -0.2214137   -0.9732913
  -0.0212491   -0.1286858    0.0020990    0.3685019   -0.1679943   -0.9143217
  -0.0219127   -0.1289001    0.0022205   -0.4960035   -0.0955266   -0.8630499
  -0.0221478   -0.1286798    0.0024021   -0.7298365   -0.0315968   -0.6828912
  -0.0223073   -0.1282480    0.0025947   -0.7731949    0.0132217   -0.6340306
  -0.0208771   -0.1287992    0.0024186    0.6088020   -0.3216487   -0.7251912
  -0.0197471   -0.1289308    0.0033373    0.4819602   -0.1897714   -0.8553954
  -0.0204138   -0.1299626    0.0033307    0.4613408   -0.4421814   -0.7691815
  -0.0206415   -0.1297476    0.0030793    0.4857834   -0.4369095   -0.7570499
  -0.0199728   -0.1293692    0.0033390    0.4990778   -0.3102651   -0.8091087
  -0.0210022   -0.1300075    0.0030039    0.5051787   -0.4900289   -0.7103986
  -0.0165042   -0.1292337    0.0043168    0.3500134   -0.1764625   -0.9199737
  -0.0171228   -0.1292571    0.0041860    0.1938589   -0.2461852   -0.9496376
  -0.0161084   -0.1292787    0.0045024    0.6577569   -0.1537195   -0.7373779
  -0.0182326   -0.1300440    0.0043350    0.1605115   -0.5436849   -0.8237978
  -0.0192370   -0.1298913    0.0039840    0.3912389   -0.5426149   -0.7433042
  -0.0194048   -0.1296260    0.0037452    0.4842119   -0.4487945   -0.7510808
  -0.0175815   -0.1298040    0.0042984    0.1483990   -0.4028423   -0.9031588
  -0.0163864   -0.1290595    0.0063173    0.7825165   -0.1168524    0.6115664
  -0.0168371   -0.1282396    0.0070623    0.7196773   -0.1228995    0.6833449
  -0.0171608   -0.1275806    0.0074499    0.6179913   -0.0135937    0.7860674
  -0.0159409   -0.1294472    0.0056914    0.9140840   -0.0768291    0.3981806
  -0.0159240   -0.1298105    0.0050399    0.8954541   -0.3412361   -0.2858669
  -0.0159377   -0.1298669    0.0054653    0.9120989   -0.3499767    0.2135226
  -0.0159553   -0.1296077    0.0048250    0.8185147   -0.2667119   -0.5088207
  -0.0227435   -0.1283545    0.0035440   -0.9566095   -0.1645276   -0.2404764
  -0.0229157   -0.1284639    0.0046225   -0.9767062   -0.1959891   -0.0873681
  -0.0226730   -0.1288118    0.0035835   -0.9550972   -0.1719877   -0.2412668
  -0.0223998   -0.1287183    0.0027786   -0.8800087   -0.0967116   -0.4650071
  -0.0226855   -0.1294604    0.0050662   -0.9667064   -0.2305205    0.1110808
  -0.0224835   -0.1295627    0.0057432   -0.8448048   -0.2375615    0.4794469
  -0.0184321   -0.1264347    0.0076187   -0.0505861    0.0218740    0.9984801
  -0.0182175   -0.1264442    0.0076044    0.1804206    0.0931534    0.9791684
  -0.0178419   -0.1274008    0.0077564    0.2817540    0.2066681    0.9369648
  -0.0180590   -0.1273745    0.0077845   -0.0066795    0.1684949    0.9856799
  -0.0174013   -0.1276178    0.0076185    0.4719474    0.0660925    0.8791459
  -0.0221146   -0.1291902    0.0061750   -0.3833403   -0.1817218    0.9055536
  -0.0212813   -0.1298086    0.0061796   -0.2750045   -0.3561963    0.8930267
  -0.0221050   -0.1296377    0.0060298   -0.3394650   -0.3621771    0.8680963
  -0.0203108   -0.1289384    0.0069307   -0.4797944   -0.1720367    0.8603492
  -0.0208698   -0.1301579    0.0062063   -0.4057387   -0.4210271    0.8112412
  -0.0197065   -0.1281206    0.0072981   -0.4684276    0.0077066    0.8834683
  -0.0199794   -0.1276348    0.0071326   -0.4075743   -0.0401460    0.9122892
  -0.0223067   -0.1294260    0.0059979   -0.6058906   -0.2558954    0.7532690
  -0.0192922   -0.1275117    0.0074806   -0.3886745    0.0123944    0.9212918
  -0.0192728   -0.1268209    0.0074822   -0.2805969   -0.0288652    0.9593916
  -0.0190555   -0.1261930    0.0075636   -0.2036582   -0.0549639    0.9774980
