NORM_ASCII
2542 5080
  -0.0184851   -0.0094337   -0.0011955   -0.5983047    0.7249642    0.3412600
  -0.0183638   -0.0091780   -0.0015835   -0.6039619    0.7106268    0.3608871
  -0.0195362   -0.0105376   -0.0006481   -0.5842359    0.7276890    0.3593566
  -0.0181890   -0.0097880   -0.0000634   -0.5464645    0.6975756    0.4634273
  -0.0199433   -0.0108874   -0.0007659   -0.7541456    0.6275817    0.1934054
  -0.0207628   -0.0123511   -0.0003954   -0.6740742    0.4777811    0.5633376
  -0.0205499   -0.0118380   -0.0004789   -0.8325328    0.4652639    0.3006969
  -0.0239494   -0.0104347   -0.0043129   -0.9599117    0.2686722    0.0799041
  -0.0243900   -0.0122231   -0.0042076   -0.9643310    0.2331463    0.1253336
  -0.0235219   -0.0094067   -0.0044811   -0.8456121    0.5324104    0.0384633
  -0.0235471   -0.0095446   -0.0048149   -0.8481711    0.4818641   -0.2200290
  -0.0239778   -0.0105268   -0.0046410   -0.9337245    0.3117748   -0.1759401
  -0.0233623   -0.0093044   -0.0038952   -0.7038047    0.6575745    0.2688024
  -0.0246332   -0.0127770   -0.0051205   -0.9596102    0.2797148    0.0301327
  -0.0241826   -0.0133818   -0.0028645   -0.9182653    0.1117447    0.3798709
  -0.0247613   -0.0139538   -0.0044765   -0.9646027    0.1590007    0.2103814
  -0.0244301   -0.0139373   -0.0033313   -0.9457371    0.1422896    0.2921215
  -0.0224615   -0.0140342   -0.0011872   -0.4055773    0.0673561    0.9115757
  -0.0221821   -0.0140484   -0.0010253   -0.5123128    0.0770134    0.8553389
  -0.0216125   -0.0137710   -0.0006768   -0.5877049    0.1327331    0.7981133
  -0.0237919   -0.0145436   -0.0020979   -0.6067311    0.0284107    0.7943993
  -0.0244957   -0.0167893   -0.0028841   -0.8473231    0.0492499    0.5287891
  -0.0244394   -0.0145095   -0.0030424   -0.9157513    0.1079259    0.3869774
  -0.0233412   -0.0145645   -0.0017042   -0.6211247    0.0362236    0.7828742
  -0.0231311   -0.0140038   -0.0015782   -0.5706825    0.0183868    0.8209649
  -0.0237524   -0.0141210   -0.0020822   -0.3358216   -0.0088090    0.9418844
  -0.0211090   -0.0123826   -0.0008585   -0.6171977    0.5754421    0.5365943
  -0.0214434   -0.0125332   -0.0010030   -0.4725606    0.5917643    0.6530708
  -0.0211814   -0.0129348   -0.0005279   -0.6052029    0.3471972    0.7163683
  -0.0230996   -0.0090235   -0.0040320   -0.5040111    0.8344817    0.2227398
  -0.0225863   -0.0087212   -0.0043215   -0.4139047    0.8896306    0.1929772
  -0.0229867   -0.0089297   -0.0044305   -0.5123987    0.8544964    0.0853428
  -0.0232427   -0.0090737   -0.0042851   -0.6146360    0.7840224    0.0867841
  -0.0209234   -0.0088210   -0.0043492   -0.0121871    0.9850847    0.1716381
  -0.0213096   -0.0087561   -0.0044404    0.1815063    0.9831831    0.0201581
  -0.0214508   -0.0087574   -0.0046910    0.3483974    0.9300642   -0.1166183
  -0.0205309   -0.0087706   -0.0042502   -0.2398928    0.8957243    0.3743385
  -0.0185896   -0.0076277   -0.0050079   -0.0780177    0.8864119    0.4562754
  -0.0192341   -0.0077443   -0.0049566   -0.1654319    0.7719713    0.6137528
  -0.0197522   -0.0081414   -0.0046732   -0.4079522    0.7384361    0.5369238
  -0.0201543   -0.0083834   -0.0047845   -0.6619111    0.7066504    0.2500380
  -0.0204166   -0.0086494   -0.0046469   -0.5493174    0.8326715   -0.0700612
  -0.0206720   -0.0087785   -0.0045007   -0.2779026    0.9592385    0.0512996
  -0.0220798   -0.0085515   -0.0046194   -0.0438124    0.9851065    0.1662699
  -0.0224729   -0.0086146   -0.0047193   -0.3149369    0.9439693    0.0986747
  -0.0215879   -0.0086853   -0.0049364    0.5458759    0.8301124   -0.1137229
  -0.0219694   -0.0085147   -0.0050214    0.1277576    0.9917965   -0.0042147
  -0.0222196   -0.0085363   -0.0048684   -0.1738498    0.9838835    0.0418273
  -0.0185384   -0.0085550   -0.0031031   -0.4267328    0.8221524    0.3767818
  -0.0177850   -0.0077831   -0.0041717   -0.1962489    0.9029154    0.3824004
  -0.0179038   -0.0079905   -0.0037804   -0.2842643    0.9071372    0.3103160
  -0.0178195   -0.0088916   -0.0012199   -0.5266648    0.7752512    0.3487259
  -0.0173219   -0.0082682   -0.0021431   -0.3529015    0.8781254    0.3230424
  -0.0171647   -0.0085729   -0.0012583   -0.3722695    0.8663446    0.3329602
  -0.0178016   -0.0091861   -0.0005840   -0.5017851    0.7715419    0.3910687
  -0.0183188   -0.0102230    0.0003136   -0.4703792    0.6645462    0.5806219
  -0.0197784   -0.0110582    0.0001281   -0.5803340    0.6641288    0.4713230
  -0.0192456   -0.0110034    0.0004770   -0.4911192    0.6962607    0.5234720
  -0.0200642   -0.0111347   -0.0003774   -0.7577625    0.6002361    0.2559542
  -0.0172513   -0.0094430    0.0004002   -0.3815109    0.6875895    0.6177945
  -0.0168650   -0.0088665   -0.0001219   -0.3921909    0.8063986    0.4426145
  -0.0174423   -0.0096951    0.0004947   -0.4554421    0.6103467    0.6481122
  -0.0206251   -0.0124082   -0.0001492    0.7543253    0.2776332    0.5949060
  -0.0209621   -0.0129635   -0.0003302   -0.7036925    0.2661015    0.6587920
  -0.0206251   -0.0124082   -0.0001492   -0.1270554    0.5274876    0.8400082
  -0.0204524   -0.0118445   -0.0002031   -0.8430404    0.3839665    0.3766332
  -0.0242455   -0.0116548   -0.0048097   -0.9559480    0.2830070   -0.0779127
  -0.0233908   -0.0092204   -0.0045447   -0.6978497    0.7077754   -0.1098168
  -0.0234428   -0.0096213   -0.0052245   -0.8043938    0.4610102   -0.3747268
  -0.0230236   -0.0090250   -0.0050910   -0.6847927    0.6785206   -0.2658360
  -0.0236188   -0.0103371   -0.0055197   -0.8734858    0.3577695   -0.3301870
  -0.0237940   -0.0110381   -0.0058142   -0.8696251    0.4317066   -0.2395444
  -0.0246241   -0.0127059   -0.0054569   -0.9488267    0.3009480   -0.0956984
  -0.0248754   -0.0139064   -0.0052776   -0.9865577    0.1611974   -0.0268216
  -0.0248863   -0.0144792   -0.0046861   -0.9828209    0.1090189    0.1489225
  -0.0246913   -0.0150663   -0.0036133   -0.9672284    0.0867711    0.2386211
  -0.0218113   -0.0152051   -0.0006880   -0.4565756    0.1210323    0.8814136
  -0.0228296   -0.0145879   -0.0013486   -0.5416539    0.0764575    0.8371173
  -0.0221262   -0.0151921   -0.0008296   -0.4824075    0.1122136    0.8687296
  -0.0225792   -0.0147081   -0.0011775   -0.3212462    0.0696041    0.9444343
  -0.0226618   -0.0151669   -0.0011698   -0.4636105    0.0714971    0.8831497
  -0.0214299   -0.0146525   -0.0005354   -0.5137273    0.0571489    0.8560481
  -0.0207706   -0.0129727   -0.0001121   -0.6391927    0.2038788    0.7415296
  -0.0236179   -0.0151223   -0.0019227   -0.4971739    0.0380449    0.8668164
  -0.0237652   -0.0162560   -0.0019374   -0.6341215    0.0579634    0.7710578
  -0.0247012   -0.0162080   -0.0033771   -0.9642096    0.0032494    0.2651212
  -0.0243517   -0.0185087   -0.0024598   -0.8904635    0.0467288    0.4526491
  -0.0226171   -0.0086967   -0.0049741   -0.5231521    0.8479466   -0.0854305
  -0.0210636   -0.0088208   -0.0045990    0.0503354    0.9830307   -0.1764003
  -0.0212094   -0.0089149   -0.0048552    0.2579968    0.9013409   -0.3478825
  -0.0179729   -0.0074385   -0.0057086    0.1436234    0.9550305    0.2594015
  -0.0187425   -0.0072190   -0.0058868    0.0650766    0.9255779    0.3729217
  -0.0189935   -0.0072619   -0.0057349   -0.0987384    0.9213757    0.3759223
  -0.0176701   -0.0076492   -0.0045677   -0.0525393    0.9688196    0.2421325
  -0.0191132   -0.0074882   -0.0053450   -0.1211836    0.8739375    0.4706885
  -0.0193672   -0.0075922   -0.0051970   -0.2293065    0.8608262    0.4543091
  -0.0195376   -0.0078602   -0.0048956   -0.2749776    0.7126501    0.6453814
  -0.0196244   -0.0077506   -0.0050529   -0.3926177    0.7811702    0.4854117
  -0.0198887   -0.0080478   -0.0049177   -0.6187944    0.6651735    0.4178969
  -0.0201768   -0.0084040   -0.0048241   -0.8121323    0.5825744   -0.0323756
  -0.0200365   -0.0081948   -0.0051770   -0.8197836    0.5625587    0.1071569
  -0.0203116   -0.0087265   -0.0050560   -0.7903766    0.5929796   -0.1538833
  -0.0205651   -0.0088155   -0.0049073   -0.3625912    0.8718446   -0.3292638
  -0.0208148   -0.0088288   -0.0047537   -0.0648154    0.9629756   -0.2616811
  -0.0214888   -0.0088805   -0.0053530    0.6718079    0.7278981   -0.1372537
  -0.0213820   -0.0089213   -0.0050859    0.8655189    0.3577231   -0.3505870
  -0.0217243   -0.0086007   -0.0051811    0.4499432    0.8880023   -0.0948843
  -0.0221109   -0.0085246   -0.0052723   -0.0988148    0.9858744   -0.1352302
  -0.0223624   -0.0085779   -0.0051211   -0.3162215    0.9450804   -0.0826262
  -0.0171434   -0.0077276   -0.0042269    0.0433574    0.9749469    0.2181713
  -0.0167286   -0.0078766   -0.0034860   -0.0227189    0.9897474    0.1410102
  -0.0162820   -0.0080464   -0.0020918   -0.0687267    0.9809117    0.1819036
  -0.0163546   -0.0086145   -0.0004148   -0.2988673    0.8916259    0.3401199
  -0.0159808   -0.0082974   -0.0009531   -0.1249366    0.9478123    0.2933304
  -0.0164721   -0.0088032   -0.0000222   -0.1963101    0.8523598    0.4847114
  -0.0175192   -0.0104708    0.0011437   -0.2661844    0.5689041    0.7781349
  -0.0191059   -0.0113396    0.0010334   -0.4884942    0.5330508    0.6908186
  -0.0188400   -0.0113487    0.0012058   -0.3077875    0.5168656    0.7988221
  -0.0184460   -0.0112557    0.0013072   -0.3389808    0.5375200    0.7721167
  -0.0178249   -0.0108241    0.0013006   -0.2923007    0.5160443    0.8051451
  -0.0193095   -0.0113294    0.0008232   -0.5580430    0.5766048    0.5967537
  -0.0199143   -0.0116000    0.0004977   -0.5976487    0.4867159    0.6371214
  -0.0200484   -0.0114734    0.0002559   -0.7399059    0.4990854    0.4510576
  -0.0169906   -0.0098610    0.0008738   -0.1626260    0.5766036    0.8006754
  -0.0166168   -0.0091577    0.0003715   -0.1895624    0.6852809    0.7031757
  -0.0206251   -0.0124082   -0.0001492    0.9655861    0.1071408    0.2369900
  -0.0204724   -0.0124161    0.0000927   -0.7860335    0.1883335    0.5887970
  -0.0204889   -0.0124972    0.0000952   -0.6028457    0.2059219    0.7708263
  -0.0202100   -0.0118588    0.0003195   -0.7625673    0.2237678    0.6069754
  -0.0233509   -0.0099752   -0.0056497   -0.7868489    0.4106650   -0.4606769
  -0.0229189   -0.0091064   -0.0055003   -0.6343384    0.6591330   -0.4039288
  -0.0230345   -0.0094178   -0.0056982   -0.6595362    0.5636921   -0.4972557
  -0.0236932   -0.0111953   -0.0062283   -0.7191784    0.4410736   -0.5368767
  -0.0243070   -0.0122140   -0.0060997   -0.8920523    0.3943230   -0.2207989
  -0.0241844   -0.0122158   -0.0064793   -0.8290959    0.4046684   -0.3858024
  -0.0238574   -0.0116621   -0.0065084   -0.7003094    0.5129331   -0.4964538
  -0.0244598   -0.0127764   -0.0063573   -0.9077579    0.2619685   -0.3276401
  -0.0246536   -0.0133398   -0.0060914   -0.9455228    0.1699356   -0.2776843
  -0.0247386   -0.0133392   -0.0056452   -0.9744031    0.1628069   -0.1550242
  -0.0249396   -0.0144734   -0.0053776   -0.9938195    0.0821439   -0.0746675
  -0.0248453   -0.0143403   -0.0058102   -0.9641774    0.0808870   -0.2526245
  -0.0246990   -0.0139074   -0.0061972   -0.9495085    0.1037215   -0.2961004
  -0.0249855   -0.0150426   -0.0051143   -0.9998197    0.0114897    0.0151156
  -0.0249475   -0.0156177   -0.0047669   -0.9953693   -0.0302189    0.0912507
  -0.0247681   -0.0156318   -0.0038502   -0.9833404    0.0130170    0.1813070
  -0.0216336   -0.0157845   -0.0005153   -0.3604676    0.0436047    0.9317520
  -0.0225401   -0.0151721   -0.0010968   -0.5227229    0.0976821    0.8468878
  -0.0225744   -0.0163121   -0.0009940   -0.4901422    0.0501023    0.8702013
  -0.0233413   -0.0162762   -0.0015271   -0.6344234    0.0745225    0.7693850
  -0.0208243   -0.0146816    0.0000986   -0.6123371   -0.0412772    0.7895185
  -0.0205954   -0.0141241    0.0003456   -0.6464511    0.0026302    0.7629509
  -0.0215512   -0.0153811   -0.0005284   -0.4129525    0.0772265    0.9074725
  -0.0202495   -0.0133536    0.0005413   -0.6169165    0.1022242    0.7803616
  -0.0197044   -0.0130235    0.0009049   -0.5765295    0.0485841    0.8156306
  -0.0236947   -0.0158025   -0.0019385   -0.3666472    0.0393966    0.9295255
  -0.0235963   -0.0166538   -0.0017428   -0.6805696    0.0627855    0.7299884
  -0.0240922   -0.0190929   -0.0020009   -0.7743965    0.0743366    0.6283184
  -0.0245249   -0.0179275   -0.0029724   -0.9803110   -0.0082216    0.1972885
  -0.0248811   -0.0163719   -0.0046300   -0.9926823   -0.1028847    0.0632184
  -0.0247212   -0.0166482   -0.0037425   -0.9849240   -0.0533324    0.1645614
  -0.0245322   -0.0196394   -0.0027913   -0.9604238    0.0350215    0.2763326
  -0.0243235   -0.0196517   -0.0022473   -0.8474353    0.0761630    0.5254071
  -0.0225101   -0.0087164   -0.0053801   -0.5054062    0.8160301   -0.2804629
  -0.0209612   -0.0089398   -0.0050110    0.5670553    0.5343229   -0.6268550
  -0.0212400   -0.0089284   -0.0049094    0.3536773    0.5418838   -0.7624135
  -0.0184912   -0.0071829   -0.0060386    0.1305926    0.9278461    0.3493524
  -0.0182417   -0.0071783   -0.0061925    0.2565681    0.9312316    0.2588060
  -0.0174804   -0.0075532   -0.0060247    0.4109747    0.9107748    0.0398633
  -0.0168935   -0.0077080   -0.0043801    0.1804460    0.9780473    0.1042241
  -0.0188778   -0.0071220   -0.0061305   -0.0875846    0.9777704    0.1905101
  -0.0191314   -0.0072045   -0.0059814   -0.2913710    0.9446410    0.1508520
  -0.0192480   -0.0073612   -0.0055871   -0.3761112    0.8729962    0.3105124
  -0.0192903   -0.0072939   -0.0058920   -0.4565857    0.8758986    0.1559840
  -0.0195047   -0.0075263   -0.0054430   -0.4182923    0.8621622    0.2858460
  -0.0197646   -0.0077482   -0.0053027   -0.5862530    0.7888834    0.1843105
  -0.0198633   -0.0078444   -0.0052514   -0.7889326    0.5952466    0.1525347
  -0.0201831   -0.0083989   -0.0054330   -0.9053778    0.4143991    0.0925442
  -0.0204620   -0.0089175   -0.0053184   -0.5328663    0.8457654   -0.0270991
  -0.0201879   -0.0084200   -0.0054411   -0.8874546    0.4053826    0.2192925
  -0.0207067   -0.0089500   -0.0051552   -0.4897662    0.7079784   -0.5088179
  -0.0209612   -0.0089398   -0.0050110    0.6579220    0.4886037   -0.5730664
  -0.0215069   -0.0089131   -0.0056826    0.8468255    0.5010748   -0.1783554
  -0.0218639   -0.0085661   -0.0054292    0.3107731    0.9248021   -0.2194566
  -0.0216245   -0.0087701   -0.0055963    0.5594122    0.7894207   -0.2527309
  -0.0213929   -0.0097866   -0.0051604    0.6874452    0.5735308   -0.4455126
  -0.0214132   -0.0094891   -0.0052039    0.9979301    0.0085825   -0.0637321
  -0.0212753   -0.0094978   -0.0049581    0.4145409    0.1943642   -0.8890323
  -0.0213944   -0.0094889   -0.0054688    0.9874896    0.1427252    0.0670358
  -0.0222559   -0.0086191   -0.0055279   -0.3058305    0.8753318   -0.3745156
  -0.0155997   -0.0080585   -0.0038646    0.2460507    0.9661198   -0.0779200
  -0.0159194   -0.0079416   -0.0026439    0.0533173    0.9914736    0.1189008
  -0.0158094   -0.0079131   -0.0030464    0.1515180    0.9882659   -0.0193104
  -0.0153142   -0.0080553   -0.0021625    0.0694556    0.9944570    0.0789376
  -0.0153936   -0.0080365   -0.0023044    0.2832801    0.9541866    0.0963342
  -0.0152547   -0.0080664   -0.0020563    0.1786346    0.9758229    0.1259341
  -0.0160982   -0.0084773   -0.0005602   -0.1752124    0.9025224    0.3933878
  -0.0154561   -0.0084092   -0.0006147    0.0984417    0.8617083    0.4977630
  -0.0150895   -0.0082330   -0.0011619    0.1328229    0.9374225    0.3218651
  -0.0158307   -0.0087650   -0.0000781    0.1754496    0.7400963    0.6492110
  -0.0163381   -0.0089407    0.0002192    0.0231699    0.7275648    0.6856475
  -0.0168686   -0.0102407    0.0010999    0.0075968    0.4611356    0.8872972
  -0.0174229   -0.0108420    0.0013870   -0.0534816    0.4026671    0.9137828
  -0.0171311   -0.0105175    0.0012369   -0.0011467    0.4344516    0.9006944
  -0.0188414   -0.0113505    0.0012065   -0.2287027    0.3909006    0.8915670
  -0.0190903   -0.0119119    0.0013075   -0.4039857    0.2485346    0.8803556
  -0.0192438   -0.0116245    0.0010923   -0.5519612    0.4167882    0.7222371
  -0.0188395   -0.0113515    0.0012068   -0.1724656    0.2926099    0.9405504
  -0.0185165   -0.0113658    0.0013406   -0.2830098    0.2776152    0.9180606
  -0.0180528   -0.0111904    0.0014072   -0.2623875    0.4013266    0.8775476
  -0.0177872   -0.0113977    0.0015607   -0.1615681    0.2345278    0.9585888
  -0.0193760   -0.0114491    0.0008533   -0.5895248    0.4528523    0.6688687
  -0.0193681   -0.0118998    0.0011430   -0.5859594    0.2323198    0.7763241
  -0.0162116   -0.0092342    0.0004509    0.1504390    0.5406970    0.8276562
  -0.0166080   -0.0100194    0.0009600    0.2332004    0.3410419    0.9106635
  -0.0196690   -0.0123365    0.0009515   -0.6227719    0.0097708    0.7823424
  -0.0226202   -0.0094330   -0.0061556   -0.5538037    0.5911122   -0.5864195
  -0.0223950   -0.0088743   -0.0057691   -0.5100854    0.6755839   -0.5323526
  -0.0227449   -0.0099965   -0.0063637   -0.6552950    0.3975537   -0.6422923
  -0.0228427   -0.0094255   -0.0059150   -0.5508303    0.6528398   -0.5199867
  -0.0224086   -0.0104133   -0.0069503   -0.6054358    0.4058352   -0.6846497
  -0.0220852   -0.0111048   -0.0075529   -0.5791750    0.4563634   -0.6754915
  -0.0241452   -0.0127849   -0.0069928   -0.8025886    0.2830305   -0.5251145
  -0.0238329   -0.0122271   -0.0070487   -0.6755221    0.4306632   -0.5984974
  -0.0242055   -0.0133519   -0.0070862   -0.8535210    0.1308564   -0.5043595
  -0.0248713   -0.0150426   -0.0058398   -0.9376755   -0.0552825   -0.3430866
  -0.0245800   -0.0144810   -0.0065296   -0.9005495   -0.0170197   -0.4344203
  -0.0248980   -0.0156141   -0.0055597   -0.9657799   -0.1514120   -0.2105794
  -0.0215046   -0.0157915   -0.0004353   -0.5451272   -0.0183273    0.8381530
  -0.0210913   -0.0169500   -0.0002698   -0.4317162   -0.1016466    0.8962640
  -0.0226508   -0.0168793   -0.0010001   -0.4846611    0.0212283    0.8744444
  -0.0220383   -0.0173420   -0.0007488   -0.3661998   -0.0655939    0.9282215
  -0.0229484   -0.0171310   -0.0011769   -0.5369845    0.0262448    0.8431838
  -0.0200223   -0.0147200    0.0006094   -0.4083291   -0.1982593    0.8910447
  -0.0202526   -0.0158485    0.0003092   -0.3850069   -0.1838133    0.9044238
  -0.0199877   -0.0152899    0.0005352   -0.3573829   -0.1470403    0.9223105
  -0.0197920   -0.0141609    0.0008565   -0.4659798   -0.1011788    0.8789913
  -0.0197540   -0.0135924    0.0008862   -0.4948833   -0.0042873    0.8689489
  -0.0194013   -0.0130371    0.0010576   -0.4422959   -0.1412974    0.8856689
  -0.0197084   -0.0135933    0.0009113   -0.2937774   -0.0434584    0.9548854
  -0.0193741   -0.0136091    0.0009866   -0.2775738   -0.1128282    0.9540559
  -0.0239725   -0.0196703   -0.0017922   -0.7357368    0.0806044    0.6724540
  -0.0234266   -0.0189346   -0.0013864   -0.6257852    0.0652086    0.7772649
  -0.0233250   -0.0179897   -0.0013613   -0.5973591    0.0587123    0.7998218
  -0.0246761   -0.0179158   -0.0038898   -0.9973931   -0.0420131    0.0586685
  -0.0246179   -0.0190619   -0.0034996   -0.9976553   -0.0678502   -0.0089624
  -0.0246236   -0.0196313   -0.0034084   -0.9988406    0.0294886    0.0380500
  -0.0247540   -0.0167640   -0.0049924   -0.9562891   -0.2202337   -0.1923752
  -0.0247768   -0.0167695   -0.0040568   -0.9918349   -0.1186782    0.0466790
  -0.0245673   -0.0207796   -0.0027706   -0.9778756    0.0530868    0.2023392
  -0.0238947   -0.0205211   -0.0015824   -0.6681455    0.0946000    0.7379922
  -0.0245382   -0.0227995   -0.0020728   -0.9263357    0.1062114    0.3614157
  -0.0237785   -0.0225339   -0.0011692   -0.6008690    0.1211147    0.7901188
  -0.0237895   -0.0212311   -0.0013776   -0.5905441    0.1036028    0.8003275
  -0.0243012   -0.0242216   -0.0013411   -0.7474762    0.1107377    0.6549935
  -0.0209892   -0.0095087   -0.0050469    0.9460395    0.1214768   -0.3004207
  -0.0209892   -0.0095087   -0.0050469    0.9429136    0.0259754   -0.3320228
  -0.0186278   -0.0070916   -0.0062830   -0.0012216    0.9969415    0.0781422
  -0.0179949   -0.0072218   -0.0063498    0.3646568    0.9233915    0.1198894
  -0.0183791   -0.0071081   -0.0064383    0.1213790    0.9925047   -0.0141966
  -0.0178889   -0.0072670   -0.0067572    0.4087224    0.9021586   -0.1380430
  -0.0174069   -0.0076033   -0.0070867    0.4794460    0.8629462   -0.1595477
  -0.0168289   -0.0079583   -0.0071408    0.5548223    0.8010613   -0.2246623
  -0.0166447   -0.0077290   -0.0045354    0.3644958    0.9285055   -0.0708539
  -0.0168211   -0.0077877   -0.0054439    0.5069907    0.8549829   -0.1093829
  -0.0166483   -0.0080416   -0.0069228    0.5131292    0.8531841   -0.0936768
  -0.0157405   -0.0080602   -0.0041147    0.3537289    0.9270350   -0.1244266
  -0.0190214   -0.0071762   -0.0063840   -0.4131889    0.8830468   -0.2224933
  -0.0192607   -0.0072929   -0.0062090   -0.6243672    0.7617357   -0.1729867
  -0.0193890   -0.0073756   -0.0058380   -0.6711852    0.7410960    0.0169493
  -0.0196506   -0.0076291   -0.0056995   -0.6713055    0.7411579    0.0058179
  -0.0198625   -0.0078420   -0.0054740   -0.7942766    0.6069657   -0.0267828
  -0.0199161   -0.0079560   -0.0055660   -0.8393097    0.5436535   -0.0001123
  -0.0202817   -0.0083932   -0.0057178   -0.8388262    0.4811229    0.2547380
  -0.0206019   -0.0088958   -0.0055673   -0.6137536    0.7107610    0.3436936
  -0.0206631   -0.0089516   -0.0051971   -0.6528937    0.6511554   -0.3869450
  -0.0206750   -0.0089479   -0.0055260   -0.6355853    0.7339309    0.2395344
  -0.0203347   -0.0085439   -0.0056990   -0.7551511    0.5410619    0.3701336
  -0.0207138   -0.0089751   -0.0051675   -0.6090424    0.5454781   -0.5757786
  -0.0217657   -0.0087911   -0.0058473    0.2842392    0.8177998   -0.5004115
  -0.0215321   -0.0091021   -0.0060216    0.6619628    0.6968834   -0.2759687
  -0.0213638   -0.0094889   -0.0057127    0.9100133    0.3171049    0.2670584
  -0.0214025   -0.0093303   -0.0057858    0.8499463    0.4900166    0.1935850
  -0.0220075   -0.0086355   -0.0056835    0.0897686    0.8864757   -0.4539850
  -0.0211453   -0.0098112   -0.0053164   -0.4758554    0.8564234   -0.2002513
  -0.0209892   -0.0095087   -0.0050469    0.7317308    0.5236351   -0.4363213
  -0.0212874   -0.0098402   -0.0055683    0.3338124    0.8569812    0.3926226
  -0.0221596   -0.0088689   -0.0059483   -0.2499154    0.7577338   -0.6028116
  -0.0149322   -0.0081332   -0.0032733    0.2419130    0.9548924   -0.1722170
  -0.0144256   -0.0086485   -0.0043100    0.4026955    0.8372256   -0.3699860
  -0.0152846   -0.0080293   -0.0027082    0.1630210    0.9852123    0.0527342
  -0.0151316   -0.0080578   -0.0028052    0.3567580    0.9339043   -0.0233768
  -0.0151460   -0.0080611   -0.0024604    0.8529306    0.5213783    0.0259622
  -0.0151460   -0.0080611   -0.0024604    0.8601546    0.5097051    0.0182946
  -0.0148400   -0.0082283   -0.0013161    0.2150713    0.9217700    0.3226211
  -0.0150057   -0.0080832   -0.0022112    0.1316880    0.9906665    0.0351872
  -0.0144803   -0.0081780   -0.0018718    0.2277929    0.9678610    0.1065626
  -0.0145913   -0.0082340   -0.0014710    0.2678995    0.9155990    0.2998471
  -0.0151460   -0.0080611   -0.0024604    0.7532399    0.6576011    0.0138027
  -0.0149557   -0.0083791   -0.0009210    0.3303398    0.7861244    0.5223830
  -0.0150765   -0.0086307   -0.0005326    0.3853035    0.6656829    0.6390677
  -0.0147070   -0.0083869   -0.0010759    0.3658487    0.7737238    0.5172099
  -0.0156552   -0.0091981    0.0002450    0.3469096    0.5057838    0.7898332
  -0.0152019   -0.0089577   -0.0001494    0.4126264    0.5591650    0.7190786
  -0.0168579   -0.0102930    0.0011196    0.2115806    0.3228469    0.9224985
  -0.0170648   -0.0108573    0.0013635    0.2403064    0.2867240    0.9273846
  -0.0172869   -0.0114726    0.0015807    0.1777464    0.1216109    0.9765332
  -0.0187408   -0.0119269    0.0013963   -0.2075679    0.1239054    0.9703417
  -0.0191320   -0.0122084    0.0013053   -0.3585301    0.0528944    0.9320184
  -0.0183692   -0.0119437    0.0014603   -0.1866395   -0.0114850    0.9823613
  -0.0187043   -0.0119282    0.0014046   -0.1617443    0.0211476    0.9866061
  -0.0174186   -0.0119833    0.0016150    0.0131519   -0.0325224    0.9993845
  -0.0191741   -0.0124792    0.0013060   -0.4603662   -0.0495956    0.8863426
  -0.0160948   -0.0097170    0.0006702    0.3179123    0.3717912    0.8721829
  -0.0158135   -0.0097626    0.0005743    0.4174191    0.3151059    0.8523319
  -0.0160111   -0.0108631    0.0008476    0.4814994    0.0648432    0.8740444
  -0.0160110   -0.0103264    0.0008341    0.4311243    0.1380896    0.8916631
  -0.0165112   -0.0109044    0.0011538    0.4498916    0.1701749    0.8767200
  -0.0221543   -0.0094499   -0.0065215   -0.4677497    0.5371177   -0.7019364
  -0.0223173   -0.0092052   -0.0062198   -0.4385689    0.6397608   -0.6311604
  -0.0221654   -0.0088822   -0.0059582   -0.3407432    0.6745508   -0.6548857
  -0.0220897   -0.0100191   -0.0069904   -0.5227368    0.4951248   -0.6939724
  -0.0214112   -0.0100445   -0.0075750   -0.5426957    0.5523601   -0.6327556
  -0.0218770   -0.0111635   -0.0077788   -0.5846113    0.3949276   -0.7087043
  -0.0213053   -0.0104415   -0.0079740   -0.5910729    0.4023763   -0.6990896
  -0.0231726   -0.0122957   -0.0076653   -0.5375506    0.4285674   -0.7262020
  -0.0236831   -0.0125346   -0.0073719   -0.6223455    0.4096859   -0.6669659
  -0.0226015   -0.0130075   -0.0084237   -0.4845905    0.4166104   -0.7691605
  -0.0239437   -0.0127913   -0.0072319   -0.7186790    0.2761130   -0.6381708
  -0.0240675   -0.0139262   -0.0074242   -0.8077144    0.0705063   -0.5853429
  -0.0236089   -0.0133717   -0.0078336   -0.6872825    0.2203084   -0.6921755
  -0.0242469   -0.0144909   -0.0071319   -0.8403296   -0.0832649   -0.5356426
  -0.0242029   -0.0150630   -0.0070401   -0.8164319   -0.2020496   -0.5409389
  -0.0246715   -0.0156198   -0.0060373   -0.8540467   -0.2375967   -0.4627656
  -0.0245324   -0.0152466   -0.0064264   -0.8372539   -0.2031324   -0.5076841
  -0.0205719   -0.0164028    0.0000425   -0.3873706   -0.1641583    0.9071913
  -0.0216734   -0.0178497   -0.0006850   -0.4592853   -0.0764488    0.8849930
  -0.0219955   -0.0186181   -0.0008942   -0.2869496   -0.1251256    0.9497387
  -0.0198998   -0.0181419   -0.0001246   -0.2683126   -0.2252301    0.9366321
  -0.0210247   -0.0175220   -0.0003812   -0.2954278   -0.2177191    0.9302262
  -0.0232454   -0.0197046   -0.0012342   -0.3016442    0.0134399    0.9533258
  -0.0197668   -0.0143254    0.0008258   -0.2596831   -0.2823313    0.9235008
  -0.0194991   -0.0147428    0.0007149   -0.0889630   -0.2327027    0.9684705
  -0.0195423   -0.0153092    0.0006510   -0.1979146   -0.1277464    0.9718594
  -0.0195769   -0.0177347    0.0000515   -0.2362253   -0.2387633    0.9419075
  -0.0192507   -0.0158927    0.0005873   -0.2642288   -0.2463064    0.9324786
  -0.0197343   -0.0141623    0.0008790   -0.2309427   -0.1565833    0.9602849
  -0.0192419   -0.0130454    0.0011305   -0.2796900   -0.2378818    0.9301536
  -0.0191550   -0.0126784    0.0012759   -0.2369326   -0.2407669    0.9412195
  -0.0193232   -0.0136102    0.0009993    0.1626092   -0.3036522    0.9388043
  -0.0193927   -0.0141779    0.0008899    0.2113217   -0.2042395    0.9558396
  -0.0246027   -0.0179125   -0.0046957   -0.9793589   -0.1040824   -0.1732716
  -0.0246523   -0.0184854   -0.0041722   -0.9834292   -0.1219975   -0.1341033
  -0.0244521   -0.0184883   -0.0050105   -0.9447970   -0.1055547   -0.3101884
  -0.0245956   -0.0196280   -0.0040998   -0.9855832   -0.0048692   -0.1691216
  -0.0246407   -0.0207692   -0.0038422   -0.9918662    0.0288060   -0.1239824
  -0.0246544   -0.0210015   -0.0035178   -0.9928862    0.0502154    0.1079598
  -0.0244669   -0.0180945   -0.0050471   -0.8984858   -0.1752665   -0.4024984
  -0.0246507   -0.0215736   -0.0028997   -0.9899286    0.0824492    0.1150800
  -0.0234537   -0.0208356   -0.0012108   -0.3053179    0.0827441    0.9486487
  -0.0247428   -0.0241980   -0.0020770   -0.9121090    0.1394488    0.3855013
  -0.0247790   -0.0230523   -0.0026215   -0.9676674    0.1244568    0.2193863
  -0.0236025   -0.0231537   -0.0009988   -0.3777125    0.1476816    0.9140697
  -0.0240351   -0.0240129   -0.0011492   -0.5834989    0.1166298    0.8036955
  -0.0232962   -0.0214130   -0.0010942   -0.2569243    0.0848849    0.9626964
  -0.0246919   -0.0259150   -0.0015955   -0.8391533    0.1440441    0.5244741
  -0.0242736   -0.0253644   -0.0011279   -0.7013140    0.1028784    0.7053898
  -0.0245186   -0.0259110   -0.0013650   -0.7931320    0.1473129    0.5909658
  -0.0240065   -0.0242353   -0.0010931   -0.6007610    0.1161213    0.7909501
  -0.0236858   -0.0248207   -0.0007664   -0.4910870    0.1155669    0.8634106
  -0.0209892   -0.0095087   -0.0050469    0.7697706    0.5753298   -0.2764939
  -0.0187700   -0.0071336   -0.0065354   -0.2018220    0.9318285   -0.3016015
  -0.0181322   -0.0071605   -0.0065957    0.2150126    0.9702876   -0.1109578
  -0.0185217   -0.0071478   -0.0066907   -0.0918441    0.9327039   -0.3487522
  -0.0182749   -0.0071956   -0.0068481    0.0970504    0.9256585   -0.3657014
  -0.0177886   -0.0074433   -0.0071723    0.2855335    0.8696691   -0.4026739
  -0.0171655   -0.0077629   -0.0072512    0.4576293    0.8321033   -0.3133362
  -0.0175486   -0.0076259   -0.0073384    0.3013081    0.8100078   -0.5030912
  -0.0169675   -0.0079517   -0.0073921    0.4669386    0.7618577   -0.4489334
  -0.0164092   -0.0082367   -0.0070898    0.5627589    0.7974105   -0.2178045
  -0.0166941   -0.0083139   -0.0075945    0.4906055    0.6178035   -0.6145121
  -0.0169276   -0.0079920   -0.0074201    0.5166075    0.7206018   -0.4624390
  -0.0163154   -0.0085325   -0.0075131    0.5019631    0.6788402   -0.5359189
  -0.0158814   -0.0080595   -0.0043648    0.4730767    0.8505413   -0.2297346
  -0.0161348   -0.0083831   -0.0065988    0.5762093    0.8099410   -0.1094459
  -0.0188941   -0.0073039   -0.0067516   -0.4580185    0.7079996   -0.5375458
  -0.0194336   -0.0076227   -0.0065081   -0.5980961    0.6024432   -0.5285294
  -0.0196920   -0.0078107   -0.0063655   -0.6860040    0.6706621   -0.2821538
  -0.0198013   -0.0078263   -0.0059624   -0.7116756    0.6886647   -0.1387757
  -0.0198174   -0.0078414   -0.0059539   -0.7811514    0.6191469   -0.0803717
  -0.0200680   -0.0081786   -0.0058304   -0.7193692    0.6935760    0.0382142
  -0.0203954   -0.0083866   -0.0059841   -0.7456593    0.6574713    0.1082758
  -0.0207409   -0.0088638   -0.0058152   -0.7214477    0.6568249    0.2193040
  -0.0208066   -0.0089411   -0.0057813   -0.8035169    0.5299817    0.2710721
  -0.0208477   -0.0095117   -0.0054722   -0.8463572    0.5308768    0.0430033
  -0.0208685   -0.0095106   -0.0054297   -0.7386283    0.5547990   -0.3829181
  -0.0204736   -0.0085097   -0.0059468   -0.7709184    0.6229091    0.1329250
  -0.0221074   -0.0088845   -0.0059818   -0.1576293    0.7884080   -0.5946140
  -0.0219143   -0.0089376   -0.0061071   -0.0104992    0.8053361   -0.5927255
  -0.0212939   -0.0093271   -0.0061900    0.1321900    0.9431622    0.3049111
  -0.0214330   -0.0092863   -0.0064378    0.1435098    0.9646477   -0.2210426
  -0.0212238   -0.0094931   -0.0059120    0.7584958    0.4384492    0.4821270
  -0.0211820   -0.0094948   -0.0059866    0.4265364    0.6691827    0.6084909
  -0.0208819   -0.0095329   -0.0054528   -0.5757540    0.8175621   -0.0099806
  -0.0210272   -0.0096186   -0.0057085   -0.6109525    0.7033739    0.3633210
  -0.0211642   -0.0095510   -0.0059540    0.0586800    0.6905149    0.7209340
  -0.0150376   -0.0080731   -0.0028652    0.1793831    0.9833418   -0.0293362
  -0.0138804   -0.0083303   -0.0025940    0.3067103    0.9498588   -0.0608040
  -0.0138175   -0.0085994   -0.0036699    0.3270504    0.8942293   -0.3056011
  -0.0130526   -0.0088963   -0.0034973    0.5283168    0.7882652   -0.3154670
  -0.0132471   -0.0093411   -0.0044298    0.4269344    0.7495095   -0.5059274
  -0.0127755   -0.0098749   -0.0047725    0.6087829    0.6311083   -0.4807137
  -0.0149609   -0.0089556   -0.0056931    0.4859811    0.8051482   -0.3399394
  -0.0136726   -0.0098102   -0.0057716    0.5518729    0.6558413   -0.5150811
  -0.0145218   -0.0097694   -0.0067163    0.6076822    0.6375061   -0.4736121
  -0.0144589   -0.0084052   -0.0012315    0.4294162    0.7373490    0.5214577
  -0.0139877   -0.0083059   -0.0021881    0.3851645    0.9147355    0.1220957
  -0.0140983   -0.0083360   -0.0017860    0.4617056    0.8380755    0.2906156
  -0.0143436   -0.0082673   -0.0016271    0.4284250    0.8452530    0.3193733
  -0.0142124   -0.0084617   -0.0013892    0.5378940    0.6850900    0.4912450
  -0.0148292   -0.0086595   -0.0006888    0.5134453    0.5818501    0.6307332
  -0.0149540   -0.0089957   -0.0003055    0.5668376    0.4698792    0.6766895
  -0.0145964   -0.0086645   -0.0008720    0.5542710    0.5096579    0.6580520
  -0.0151432   -0.0092172   -0.0000391    0.5717051    0.2976014    0.7645827
  -0.0155583   -0.0097738    0.0004316    0.5177575    0.2570452    0.8159993
  -0.0167368   -0.0114399    0.0013627    0.4906879    0.0618624    0.8691366
  -0.0169986   -0.0114305    0.0014947    0.3616028    0.1118819    0.9255949
  -0.0173166   -0.0125585    0.0015545    0.1978681   -0.1093487    0.9741104
  -0.0170258   -0.0125706    0.0014746    0.3410434   -0.1010495    0.9346007
  -0.0187668   -0.0124959    0.0013640   -0.1154480   -0.1555226    0.9810629
  -0.0191277   -0.0124806    0.0013194   -0.1437314   -0.1375487    0.9800110
  -0.0184234   -0.0125111    0.0013777   -0.1342288   -0.1801979    0.9744287
  -0.0174163   -0.0125533    0.0015600   -0.0875622   -0.1494857    0.9848791
  -0.0155158   -0.0103464    0.0005212    0.6117649    0.0597528    0.7887796
  -0.0157697   -0.0109072    0.0006806    0.5807931   -0.0082229    0.8140097
  -0.0162579   -0.0120290    0.0010343    0.5694469   -0.0092561    0.8219760
  -0.0220680   -0.0092004   -0.0063739   -0.3333246    0.6679197   -0.6654156
  -0.0218219   -0.0092696   -0.0065324   -0.1359956    0.7758907   -0.6160348
  -0.0216504   -0.0094684   -0.0068203   -0.3384631    0.6629007   -0.6678364
  -0.0213997   -0.0094786   -0.0069714   -0.3730074    0.7108846   -0.5962454
  -0.0209827   -0.0096126   -0.0074212   -0.3656986    0.7499674   -0.5511928
  -0.0209556   -0.0100604   -0.0079598   -0.4688094    0.5652124   -0.6787877
  -0.0216540   -0.0123086   -0.0085490   -0.4191720    0.3526436   -0.8366226
  -0.0208558   -0.0106332   -0.0083647   -0.3893382    0.3890189   -0.8349132
  -0.0233559   -0.0131480   -0.0079697   -0.5910851    0.3269789   -0.7373623
  -0.0226743   -0.0134061   -0.0085441   -0.4685573    0.2608415   -0.8440472
  -0.0229198   -0.0133977   -0.0083830   -0.5578359    0.2469167   -0.7923706
  -0.0220511   -0.0128615   -0.0086442   -0.3402650    0.3380594   -0.8774597
  -0.0236698   -0.0139401   -0.0079108   -0.7080960    0.0354774   -0.7052244
  -0.0238717   -0.0145030   -0.0076591   -0.7325181   -0.1631549   -0.6609068
  -0.0234438   -0.0139481   -0.0081063   -0.5950149    0.0180451   -0.8035121
  -0.0238050   -0.0150014   -0.0075282   -0.7053830   -0.2999267   -0.6422451
  -0.0242318   -0.0156347   -0.0066486   -0.7506607   -0.3228913   -0.5764110
  -0.0243899   -0.0162022   -0.0061503   -0.7734981   -0.2695052   -0.5736441
  -0.0211536   -0.0192246   -0.0007982   -0.2585483   -0.1423006    0.9554597
  -0.0212347   -0.0186516   -0.0006942   -0.2757692   -0.2091142    0.9382018
  -0.0211616   -0.0197942   -0.0008467   -0.2078945   -0.0185003    0.9779763
  -0.0190155   -0.0187487   -0.0001200   -0.0987191   -0.2869334    0.9528503
  -0.0197039   -0.0192883   -0.0003531   -0.1581659   -0.2268936    0.9609905
  -0.0229638   -0.0203020   -0.0011274   -0.2007796    0.0671432    0.9773328
  -0.0233591   -0.0204138   -0.0012300   -0.0059993    0.0269659    0.9996184
  -0.0191789   -0.0147554    0.0006869    0.2431616   -0.0511190    0.9686378
  -0.0187558   -0.0153438    0.0008555   -0.2247119   -0.0141273    0.9743228
  -0.0190731   -0.0147590    0.0006931   -0.1693104    0.2250782    0.9595175
  -0.0188082   -0.0157509    0.0007727   -0.2499192   -0.2136067    0.9444112
  -0.0187869   -0.0175172    0.0002563   -0.1323523   -0.2851741    0.9492937
  -0.0190243   -0.0130548    0.0011591   -0.0119878   -0.3780039    0.9257264
  -0.0192310   -0.0136138    0.0008980    0.6977479   -0.3482599    0.6259896
  -0.0190880   -0.0135156    0.0008183    0.5812456   -0.6390020    0.5038154
  -0.0191187   -0.0136181    0.0007660    0.7669465   -0.2144021    0.6048346
  -0.0239261   -0.0185038   -0.0058672   -0.7448271   -0.1674632   -0.6459015
  -0.0244335   -0.0190595   -0.0048212   -0.9236369   -0.1176625   -0.3647609
  -0.0238572   -0.0196481   -0.0057171   -0.8210713   -0.0908003   -0.5635576
  -0.0245070   -0.0196302   -0.0044928   -0.9361858   -0.0010875   -0.3515039
  -0.0246870   -0.0213376   -0.0038670   -0.9964458    0.0478710   -0.0693120
  -0.0243835   -0.0202023   -0.0048473   -0.9288840    0.0140888   -0.3701027
  -0.0246819   -0.0213392   -0.0035584   -0.9832059    0.0386717    0.1783555
  -0.0246899   -0.0217132   -0.0035631   -0.9906262    0.0348150    0.1320898
  -0.0247042   -0.0220083   -0.0035817   -0.9968573    0.0706235   -0.0358876
  -0.0247363   -0.0224811   -0.0030297   -0.9923571    0.1177495    0.0369102
  -0.0250582   -0.0247490   -0.0029495   -0.9855752    0.1398408    0.0953208
  -0.0249419   -0.0247586   -0.0023436   -0.9367828    0.1493351    0.3164442
  -0.0231418   -0.0237032   -0.0007641   -0.1440301    0.1637673    0.9759281
  -0.0222860   -0.0231694   -0.0008044   -0.0608937    0.1208530    0.9908009
  -0.0234503   -0.0248310   -0.0006877   -0.2269922    0.1304320    0.9651228
  -0.0223282   -0.0214556   -0.0009547   -0.1231222    0.0734156    0.9896722
  -0.0220004   -0.0220393   -0.0008747   -0.0115209    0.0532237    0.9985162
  -0.0244393   -0.0264976   -0.0011315   -0.7349254    0.1182958    0.6677506
  -0.0243526   -0.0259309   -0.0011321   -0.6918231    0.1386799    0.7086245
  -0.0251712   -0.0264599   -0.0023615   -0.9143277    0.1469177    0.3773857
  -0.0249308   -0.0264720   -0.0018363   -0.8509901    0.1303677    0.5087437
  -0.0234098   -0.0254034   -0.0006020   -0.2078149    0.1320544    0.9692134
  -0.0236115   -0.0259666   -0.0005833   -0.2501174    0.0907141    0.9639566
  -0.0186432   -0.0073144   -0.0069021   -0.3551667    0.7329104   -0.5802577
  -0.0184246   -0.0073806   -0.0071099   -0.2195332    0.7586173   -0.6134370
  -0.0180775   -0.0073354   -0.0070914    0.0632022    0.8493644   -0.5240092
  -0.0179374   -0.0075984   -0.0074325    0.0427932    0.7255402   -0.6868480
  -0.0173098   -0.0078339   -0.0075058    0.3230912    0.7151941   -0.6197656
  -0.0175931   -0.0079229   -0.0076761    0.1498348    0.6450449   -0.7493108
  -0.0170755   -0.0081324   -0.0076791    0.3401432    0.5939394   -0.7290669
  -0.0160884   -0.0085593   -0.0073188    0.5703423    0.6901552   -0.4454159
  -0.0159508   -0.0085657   -0.0070669    0.6137387    0.7393733   -0.2768610
  -0.0165759   -0.0085359   -0.0076889    0.4091290    0.5460025   -0.7310915
  -0.0168494   -0.0086061   -0.0078634    0.3250859    0.4149331   -0.8497939
  -0.0160839   -0.0088946   -0.0076902    0.4290412    0.5134024   -0.7431969
  -0.0153417   -0.0087702   -0.0057773    0.5518627    0.7909659   -0.2642357
  -0.0158958   -0.0085729   -0.0064276    0.6387078    0.7592430   -0.1249100
  -0.0156564   -0.0087843   -0.0069330    0.6688605    0.7236737   -0.1700646
  -0.0190974   -0.0078634   -0.0070991   -0.5616593    0.5463378   -0.6213323
  -0.0195140   -0.0086074   -0.0072247   -0.5067292    0.5143938   -0.6918269
  -0.0198790   -0.0089704   -0.0072668   -0.4123978    0.5811754   -0.7015434
  -0.0199421   -0.0084004   -0.0067958   -0.5334147    0.5928060   -0.6033653
  -0.0199523   -0.0080431   -0.0062258   -0.6911050    0.7130285   -0.1181706
  -0.0201041   -0.0082615   -0.0064900   -0.6185705    0.6694693   -0.4113167
  -0.0202996   -0.0083887   -0.0063811   -0.6874911    0.6605443   -0.3017237
  -0.0203627   -0.0084494   -0.0063477   -0.7298192    0.6243490   -0.2784820
  -0.0206247   -0.0087113   -0.0062098   -0.7587241    0.6499598   -0.0434737
  -0.0208016   -0.0089403   -0.0059217   -0.8076046    0.5881177    0.0435016
  -0.0209404   -0.0095063   -0.0057517   -0.7311682    0.5577946    0.3927572
  -0.0208921   -0.0090848   -0.0060790   -0.8011919    0.5930683    0.0797594
  -0.0211280   -0.0094962   -0.0059713   -0.5719469    0.5462218    0.6119791
  -0.0210398   -0.0092319   -0.0063384   -0.4551067    0.8902352    0.0189525
  -0.0215762   -0.0093451   -0.0066914   -0.1385395    0.8971361   -0.4194683
  -0.0211836   -0.0092924   -0.0065922   -0.3285713    0.9225657   -0.2022705
  -0.0137429   -0.0083895   -0.0023478    0.4570716    0.8748919    0.1601556
  -0.0136359   -0.0084223   -0.0027543    0.4642142    0.8812807   -0.0885968
  -0.0134994   -0.0085026   -0.0025095    0.5976567    0.7883425    0.1460226
  -0.0132921   -0.0087073   -0.0033310    0.5134027    0.8397128   -0.1769185
  -0.0128451   -0.0092872   -0.0039999    0.5714980    0.7198012   -0.3940510
  -0.0127250   -0.0092933   -0.0037372    0.7370382    0.6596499   -0.1470940
  -0.0129169   -0.0089978   -0.0032538    0.7644881    0.6440910    0.0265471
  -0.0126318   -0.0098164   -0.0045187    0.6052546    0.6138574   -0.5067997
  -0.0124083   -0.0103297   -0.0047056    0.8052720    0.3802100   -0.4549477
  -0.0133479   -0.0100731   -0.0057853    0.6163681    0.5916801   -0.5196201
  -0.0125490   -0.0103291   -0.0049558    0.7621194    0.4595498   -0.4560570
  -0.0126915   -0.0103710   -0.0052082    0.7375563    0.4671041   -0.4876725
  -0.0128334   -0.0104046   -0.0054602    0.7276002    0.4744116   -0.4955114
  -0.0146755   -0.0097592   -0.0069573    0.6368009    0.6578897   -0.4020769
  -0.0143051   -0.0101639   -0.0068870    0.6198265    0.4662267   -0.6312272
  -0.0140500   -0.0103597   -0.0067269    0.6609494    0.3569735   -0.6600877
  -0.0136424   -0.0103397   -0.0063023    0.5515854    0.5571095   -0.6207919
  -0.0133751   -0.0103915   -0.0061359    0.5742401    0.4532251   -0.6817884
  -0.0146744   -0.0097616   -0.0069584    0.7029235    0.4522826   -0.5489435
  -0.0144729   -0.0103379   -0.0071365    0.6296722    0.3447897   -0.6961558
  -0.0143660   -0.0086733   -0.0010597    0.5817742    0.4780366    0.6580424
  -0.0138536   -0.0084368   -0.0019466    0.5976435    0.7239973    0.3444562
  -0.0136107   -0.0085671   -0.0021089    0.6618900    0.6447984    0.3822782
  -0.0139696   -0.0085897   -0.0015516    0.6347613    0.6152339    0.4675098
  -0.0141447   -0.0086804   -0.0012636    0.6807000    0.4068412    0.6092025
  -0.0146912   -0.0092337   -0.0004297    0.6666523    0.2943733    0.6847766
  -0.0142675   -0.0092486   -0.0008704    0.7169425    0.2251539    0.6597720
  -0.0148575   -0.0098913   -0.0001123    0.6857239    0.1302447    0.7161139
  -0.0163236   -0.0137366    0.0009589    0.4481579   -0.1044540    0.8878310
  -0.0173119   -0.0131280    0.0014410   -0.0656390   -0.2335723    0.9701214
  -0.0168507   -0.0137154    0.0012158    0.3449854   -0.1972194    0.9176544
  -0.0171402   -0.0137052    0.0012989    0.1154727   -0.2444179    0.9627699
  -0.0188829   -0.0130607    0.0011718   -0.1343287   -0.3092320    0.9414517
  -0.0146327   -0.0103771   -0.0002980    0.7268738    0.0346501    0.6858964
  -0.0155821   -0.0126232    0.0004579    0.6442691   -0.0333737    0.7640703
  -0.0153175   -0.0114939    0.0003043    0.6761541   -0.0379912    0.7357801
  -0.0146529   -0.0109460   -0.0003201    0.7067597   -0.0312194    0.7067645
  -0.0158335   -0.0143252    0.0006504    0.5567864   -0.0184796    0.8304501
  -0.0210799   -0.0093862   -0.0070024   -0.3205247    0.8541110   -0.4095831
  -0.0206778   -0.0091309   -0.0068910   -0.5295186    0.7052273   -0.4714494
  -0.0203330   -0.0094015   -0.0074665   -0.3164153    0.7326446   -0.6025888
  -0.0202364   -0.0096428   -0.0078859   -0.1882149    0.7356351   -0.6507044
  -0.0206380   -0.0098700   -0.0079966   -0.3502574    0.6296672   -0.6934256
  -0.0213739   -0.0123193   -0.0086482   -0.2802001    0.2542589   -0.9256567
  -0.0215666   -0.0134501   -0.0089628   -0.1777163    0.2158675   -0.9601136
  -0.0204372   -0.0100804   -0.0082322   -0.2030131    0.5810784   -0.7881203
  -0.0202957   -0.0106545   -0.0085637   -0.2495788    0.3494313   -0.9031103
  -0.0219637   -0.0134345   -0.0088586   -0.3114449    0.1927355   -0.9305133
  -0.0224624   -0.0139837   -0.0087503   -0.3782764   -0.0179540   -0.9255186
  -0.0227238   -0.0139748   -0.0086174   -0.5228888    0.0278700   -0.8519451
  -0.0234266   -0.0145894   -0.0080604   -0.6153865   -0.2065678   -0.7606768
  -0.0235610   -0.0151126   -0.0076895   -0.6143034   -0.3489496   -0.7077185
  -0.0226861   -0.0145460   -0.0085372   -0.4573468   -0.1870272   -0.8693991
  -0.0229310   -0.0146387   -0.0083725   -0.4728775   -0.2853570   -0.8336416
  -0.0236777   -0.0167988   -0.0066614   -0.6407626   -0.3117503   -0.7015946
  -0.0200388   -0.0198440   -0.0005353   -0.2490633   -0.1075218    0.9625001
  -0.0207272   -0.0203831   -0.0007338   -0.1617227   -0.0345175    0.9862324
  -0.0179470   -0.0185088   -0.0000187   -0.0315104   -0.3140976    0.9488676
  -0.0174523   -0.0193832   -0.0003124    0.0293814   -0.3407806    0.9396836
  -0.0184786   -0.0199093   -0.0004959    0.0462689   -0.2875729    0.9566405
  -0.0187365   -0.0208965   -0.0007660    0.0944504   -0.2231747    0.9701918
  -0.0196786   -0.0209976   -0.0006466   -0.0308767   -0.1513197    0.9880025
  -0.0217315   -0.0209109   -0.0009360   -0.0001357    0.0433705    0.9990590
  -0.0189433   -0.0141933    0.0004943    0.3578746    0.3074814    0.8816921
  -0.0187051   -0.0147766    0.0007999   -0.2717096    0.2307519    0.9343059
  -0.0184290   -0.0153579    0.0009125    0.0636064   -0.0757156    0.9950987
  -0.0183822   -0.0150286    0.0009144   -0.0307055    0.0237556    0.9992461
  -0.0184104   -0.0155972    0.0008784    0.0043968   -0.1202647    0.9927321
  -0.0188853   -0.0144545    0.0006044   -0.1944600    0.5049860    0.8409366
  -0.0183870   -0.0159295    0.0008328   -0.1236775   -0.2207675    0.9674531
  -0.0181944   -0.0165071    0.0006876   -0.0199185   -0.3200041    0.9472068
  -0.0175463   -0.0182408    0.0000899    0.0666852   -0.2832781    0.9567166
  -0.0174634   -0.0176755    0.0002236    0.1146099   -0.2926291    0.9493328
  -0.0189335   -0.0132446    0.0010857   -0.0898346   -0.6808634    0.7268802
  -0.0186848   -0.0132526    0.0009310    0.0171804   -0.9829834    0.1828893
  -0.0188249   -0.0132394    0.0006816    0.2429254   -0.9145535    0.3233870
  -0.0189692   -0.0136223    0.0004349    0.6770016   -0.2221514    0.7016535
  -0.0232963   -0.0179560   -0.0065524   -0.5352050   -0.2167168   -0.8164493
  -0.0236445   -0.0196565   -0.0059356   -0.6290737   -0.1338192   -0.7657406
  -0.0232576   -0.0185286   -0.0064696   -0.5128205   -0.1950619   -0.8360418
  -0.0242254   -0.0202078   -0.0051627   -0.8456523   -0.0123665   -0.5335909
  -0.0236328   -0.0202267   -0.0059013   -0.6922244   -0.0589559   -0.7192702
  -0.0246077   -0.0219074   -0.0043062   -0.9585098    0.0484404   -0.2809135
  -0.0243951   -0.0219127   -0.0048261   -0.8601626    0.0320610   -0.5090113
  -0.0241998   -0.0207784   -0.0051038   -0.8666628   -0.0421775   -0.4971083
  -0.0247118   -0.0230434   -0.0043484   -0.9579653    0.0844999   -0.2741574
  -0.0249748   -0.0241772   -0.0036171   -0.9886431    0.1075885   -0.1049267
  -0.0251756   -0.0258865   -0.0026415   -0.9850257    0.1449299    0.0933791
  -0.0251320   -0.0258818   -0.0036504   -0.9666021    0.0990531   -0.2363659
  -0.0228377   -0.0248573   -0.0006204    0.0385504    0.0962773    0.9946077
  -0.0217504   -0.0231917   -0.0008009   -0.0236578    0.0567392    0.9981087
  -0.0219210   -0.0237542   -0.0007474    0.0176140    0.1040932    0.9944116
