NORM_ASCII
1288 2572
   0.0024967   -0.1488092    0.0178790   -0.9869251   -0.1286295    0.0971249
   0.0027957   -0.1484194    0.0162486   -0.6879834   -0.3282132   -0.6472673
   0.0024022   -0.1475902    0.0161718   -0.7297178   -0.4096497   -0.5474478
   0.0024417   -0.1480046    0.0164586   -0.8674444   -0.3608284   -0.3425537
   0.0035629   -0.1468301    0.0153018   -0.1925240   -0.1990798   -0.9608859
   0.0029414   -0.1467441    0.0154469   -0.3003034   -0.2626482   -0.9169699
   0.0035394   -0.1458852    0.0151488   -0.1483892   -0.2018467   -0.9681108
   0.0045111   -0.1454309    0.0149208   -0.0394448   -0.1748694   -0.9838012
   0.0049068   -0.1458363    0.0150135    0.1160162   -0.1699641   -0.9785972
   0.0022260   -0.1471764    0.0160555   -0.6838684   -0.4061606   -0.6061003
   0.0023826   -0.1467587    0.0157057   -0.4689094   -0.3816988   -0.7965112
   0.0064496   -0.1495094    0.0177532    0.9969623    0.0088487    0.0773810
   0.0064496   -0.1495094    0.0177532    0.9947024   -0.0095817    0.1023494
   0.0060492   -0.1462089    0.0153324    0.3826352   -0.2977273   -0.8746135
   0.0054837   -0.1458128    0.0150847    0.1653110   -0.1954691   -0.9666768
   0.0060617   -0.1453675    0.0151372    0.2565870   -0.2072561   -0.9440381
   0.0066225   -0.1474083    0.0170146    0.9825170   -0.1805285   -0.0454956
   0.0067056   -0.1468543    0.0172804    0.9572862   -0.2188956    0.1889122
   0.0069818   -0.1461497    0.0161715    0.8786436   -0.4431455   -0.1777848
   0.0069175   -0.1461238    0.0172400    0.9237794   -0.3526942    0.1491252
   0.0066619   -0.1461756    0.0156652    0.5737940   -0.3403932   -0.7449113
   0.0068218   -0.1461850    0.0158392    0.7538120   -0.4238299   -0.5021312
   0.0064776   -0.1472758    0.0176661    0.9195886   -0.0980999    0.3804382
   0.0066038   -0.1469733    0.0174755    0.9226782   -0.1965057    0.3317385
   0.0063822   -0.1495064    0.0179619    0.9272067    0.0184145    0.3740970
   0.0063558   -0.1473836    0.0178494    0.8072226   -0.0324835    0.5893527
   0.0062412   -0.1482399    0.0180715    0.7593446    0.0537153    0.6484678
   0.0057353   -0.1478245    0.0185110    0.5813233    0.0853620    0.8091827
   0.0026283   -0.1500796    0.0176401   -0.9943575   -0.0972912    0.0422788
   0.0045651   -0.1465906    0.0187919   -0.0001649    0.0057221    0.9999836
   0.0040154   -0.1461888    0.0188116   -0.0999980   -0.0083496    0.9949526
   0.0024010   -0.1479669    0.0178432   -0.9362805   -0.0941799    0.3383917
   0.0031022   -0.1466515    0.0185784   -0.3222427   -0.0562554    0.9449841
   0.0022536   -0.1471279    0.0177888   -0.7935572   -0.1280472    0.5948705
   0.0022389   -0.1475582    0.0175547   -0.9224980   -0.1855237    0.3384944
   0.0025555   -0.1466834    0.0181805   -0.7619856   -0.1293793    0.6345383
   0.0033579   -0.1453688    0.0187583   -0.2928914   -0.1154099    0.9491550
   0.0027303   -0.1455198    0.0184690   -0.4471442   -0.1616162    0.8797399
   0.0025180   -0.1454212    0.0183473   -0.5868416   -0.1452708    0.7965635
   0.0024709   -0.1462627    0.0181889   -0.7266689   -0.1463000    0.6712292
   0.0049451   -0.1469999    0.0187744    0.2800245    0.0176503    0.9598306
   0.0059157   -0.1473997    0.0183450    0.5737671    0.0186868    0.8188053
   0.0046078   -0.1461671    0.0187881    0.0918605   -0.0107395    0.9957140
   0.0024143   -0.1483939    0.0176900   -0.9705579   -0.2154343    0.1077288
   0.0022831   -0.1479917    0.0171076   -0.9530373   -0.2826826   -0.1086758
   0.0021236   -0.1471752    0.0162448   -0.8697641   -0.4072376   -0.2786899
   0.0022557   -0.1477285    0.0168345   -0.9345679   -0.3336115   -0.1236374
   0.0027000   -0.1459125    0.0152757   -0.1279550   -0.2281923   -0.9651714
   0.0024180   -0.1459209    0.0153665   -0.4072695   -0.2910985   -0.8656750
   0.0029169   -0.1454860    0.0151303   -0.1522857   -0.2330590   -0.9604648
   0.0042575   -0.1450204    0.0148642   -0.0917551   -0.1965954   -0.9761820
   0.0026152   -0.1446541    0.0149861   -0.1954719   -0.2137445   -0.9571332
   0.0046888   -0.1450028    0.0148550    0.1015305   -0.1490197   -0.9836080
   0.0044700   -0.1441690    0.0147300   -0.0344469   -0.1287000   -0.9910851
   0.0050675   -0.1449901    0.0148631    0.0669531   -0.1890548   -0.9796814
   0.0047825   -0.1453132    0.0149212    0.1329103   -0.1647150   -0.9773453
   0.0021852   -0.1470590    0.0160278   -0.6736178   -0.4314519   -0.6000736
   0.0022241   -0.1467627    0.0157901   -0.5253495   -0.3747981   -0.7638942
   0.0064986   -0.1457655    0.0154179    0.4865105   -0.2665486   -0.8320212
   0.0062945   -0.1456226    0.0152770    0.3677889   -0.2370371   -0.8991912
   0.0053375   -0.1449782    0.0148863    0.1482292   -0.1832186   -0.9718328
   0.0063207   -0.1449350    0.0151080    0.3517219   -0.1996193   -0.9145730
   0.0054760   -0.1441317    0.0147575    0.1553706   -0.1883817   -0.9697279
   0.0067916   -0.1461189    0.0175398    0.8716942   -0.2147175    0.4405061
   0.0070172   -0.1456244    0.0173957    0.8447518   -0.2853321    0.4527471
   0.0072607   -0.1456325    0.0163017    0.8163675   -0.5774925    0.0068212
   0.0071801   -0.1457228    0.0160421    0.8581341   -0.4861958   -0.1649832
   0.0071708   -0.1457245    0.0160105    0.8100258   -0.4585140   -0.3655450
   0.0070599   -0.1457349    0.0158185    0.7044393   -0.3771499   -0.6012680
   0.0071766   -0.1456964    0.0169952    0.8702059   -0.4215461    0.2550307
   0.0066973   -0.1452661    0.0179401    0.6942857   -0.2578596    0.6719195
   0.0061529   -0.1465490    0.0181908    0.6387372   -0.0780010    0.7654610
   0.0047397   -0.1453154    0.0188314    0.0454615   -0.0928867    0.9946383
   0.0037206   -0.1457768    0.0187806   -0.1169263   -0.0736525    0.9904057
   0.0020532   -0.1465918    0.0176537   -0.7061883   -0.1328418    0.6954503
   0.0018398   -0.1463064    0.0174974   -0.7784497   -0.2532677    0.5743444
   0.0019485   -0.1467259    0.0174346   -0.8926488   -0.3099988    0.3272290
   0.0021874   -0.1475774    0.0172816   -0.9609143   -0.2655250    0.0783593
   0.0040540   -0.1449160    0.0188976   -0.0577033   -0.1592845    0.9855449
   0.0034925   -0.1448168    0.0188566   -0.1774754   -0.1876583    0.9660677
   0.0031252   -0.1453420    0.0186782   -0.3341996   -0.1834169    0.9244830
   0.0025258   -0.1445793    0.0185585   -0.4675151   -0.2749762    0.8401296
   0.0018550   -0.1450237    0.0179981   -0.4869810   -0.3008980    0.8199451
   0.0022294   -0.1458540    0.0180457   -0.6493406   -0.2264689    0.7259949
   0.0055412   -0.1465605    0.0185913    0.3915096   -0.0248704    0.9198379
   0.0052817   -0.1462767    0.0186811    0.2864398   -0.0093945    0.9580522
   0.0057877   -0.1461315    0.0184616    0.4904071   -0.0472732    0.8702104
   0.0053591   -0.1457187    0.0186979    0.2761135   -0.0740192    0.9582706
   0.0020157   -0.1471614    0.0169220   -0.9257122   -0.3775491    0.0226643
   0.0018818   -0.1467453    0.0168289   -0.8890519   -0.4537734   -0.0606335
   0.0017954   -0.1463615    0.0160264   -0.7708870   -0.4627396   -0.4377275
   0.0018958   -0.1466992    0.0163433   -0.8825362   -0.4558076   -0.1156260
   0.0023134   -0.1455039    0.0152897   -0.3433079   -0.2713304   -0.8991771
   0.0024785   -0.1450784    0.0151151   -0.2005217   -0.2114364   -0.9566011
   0.0025800   -0.1454521    0.0151883   -0.0325075   -0.2022465   -0.9787950
   0.0020524   -0.1459268    0.0155992   -0.5290424   -0.2903122   -0.7973914
   0.0026032   -0.1450754    0.0150839   -0.1990716   -0.2331174   -0.9518544
   0.0029224   -0.1442255    0.0148291   -0.1696974   -0.1280621   -0.9771402
   0.0022386   -0.1446655    0.0151052   -0.3044504   -0.2312944   -0.9240199
   0.0020217   -0.1442513    0.0150709   -0.3444078   -0.1840718   -0.9205981
   0.0047886   -0.1450000    0.0148520    0.0093822   -0.1735861   -0.9847740
   0.0047426   -0.1437381    0.0146678   -0.0237769   -0.0492440   -0.9985037
   0.0029117   -0.1438036    0.0148039   -0.1488177    0.0252639   -0.9885419
   0.0050601   -0.1445858    0.0147947    0.0583055   -0.1536023   -0.9864111
   0.0019279   -0.1463484    0.0158533   -0.6462936   -0.3700088   -0.6673815
   0.0071529   -0.1448930    0.0155310    0.5419156   -0.2579538   -0.7998671
   0.0063063   -0.1441230    0.0149688    0.3153155   -0.2124943   -0.9248904
   0.0056053   -0.1437067    0.0146668    0.1784237   -0.1246765   -0.9760229
   0.0072598   -0.1452644    0.0172671    0.7857838   -0.4176951    0.4561519
   0.0073866   -0.1453482    0.0168493    0.7762960   -0.5659414    0.2776235
   0.0078292   -0.1450568    0.0165880    0.7287044   -0.6738877    0.1219229
   0.0073805   -0.1454992    0.0161158    0.7727004   -0.5701731   -0.2789923
   0.0075532   -0.1452816    0.0162288    0.7298270   -0.6800243   -0.0701392
   0.0071919   -0.1456970    0.0160209    0.7809021   -0.5180810   -0.3489757
   0.0072330   -0.1453063    0.0157799    0.6885691   -0.3780539   -0.6188278
   0.0059066   -0.1452808    0.0184882    0.4654189   -0.1525055    0.8718528
   0.0073154   -0.1451598    0.0172928    0.6754794   -0.5624936    0.4767898
   0.0073373   -0.1448315    0.0175358    0.5872805   -0.5187489    0.6212900
   0.0072242   -0.1447142    0.0177133    0.5190835   -0.4447082    0.7299226
   0.0067660   -0.1439826    0.0184105    0.4616875   -0.3820455    0.8005535
   0.0045588   -0.1446619    0.0189456    0.0845903   -0.1669362    0.9823323
   0.0016629   -0.1463222    0.0171805   -0.8694688   -0.4162813    0.2659583
   0.0017676   -0.1464971    0.0172462   -0.8538143   -0.3749617    0.3611161
   0.0015412   -0.1458994    0.0173398   -0.7437361   -0.3809605    0.5492957
   0.0039312   -0.1444946    0.0189796   -0.0319908   -0.1842012    0.9823678
   0.0031672   -0.1445271    0.0188490   -0.2804841   -0.2682795    0.9216044
   0.0034997   -0.1439670    0.0190670   -0.0921433   -0.2809939    0.9552759
   0.0020143   -0.1437291    0.0186898   -0.3192683   -0.4900997    0.8110919
   0.0019860   -0.1441616    0.0184260   -0.4250616   -0.4315529    0.7956662
   0.0019093   -0.1445445    0.0182176   -0.4127898   -0.3541366    0.8391614
   0.0016711   -0.1450562    0.0178641   -0.5507216   -0.3677278    0.7493210
   0.0015620   -0.1441814    0.0182252   -0.2850360   -0.4903347    0.8236057
   0.0013499   -0.1446223    0.0179127   -0.3993753   -0.5069272    0.7638875
   0.0012737   -0.1454865    0.0173221   -0.7006125   -0.4431066    0.5592840
   0.0054161   -0.1452927    0.0186960    0.3208767   -0.1824766    0.9293764
   0.0015349   -0.1461432    0.0171017   -0.8195716   -0.4819033    0.3099541
   0.0016677   -0.1463346    0.0166922   -0.8304343   -0.5530719   -0.0670106
   0.0017421   -0.1464025    0.0164905   -0.8160481   -0.5765843   -0.0402001
   0.0013695   -0.1459152    0.0170001   -0.8224977   -0.5367399    0.1881698
   0.0016565   -0.1462571    0.0161909   -0.7917774   -0.5672301   -0.2265801
   0.0015395   -0.1457093    0.0158554   -0.5634501   -0.4003966   -0.7226386
   0.0014696   -0.1459364    0.0160732   -0.6583546   -0.5470838   -0.5169803
   0.0015439   -0.1451011    0.0155842   -0.4557695   -0.3086313   -0.8348778
   0.0021166   -0.1446684    0.0151425   -0.2473109   -0.2387766   -0.9390543
   0.0022091   -0.1449923    0.0152083   -0.1531532   -0.2087695   -0.9658982
   0.0012432   -0.1455256    0.0159295   -0.5307402   -0.4089115   -0.7423653
   0.0018402   -0.1438352    0.0150894   -0.3115669   -0.0191785   -0.9500307
   0.0011850   -0.1446916    0.0156133   -0.4783448   -0.2709174   -0.8353382
   0.0014987   -0.1438434    0.0152557   -0.4391510   -0.1169907   -0.8907635
   0.0055540   -0.1432852    0.0146532    0.1199571    0.0775242   -0.9897476
   0.0046046   -0.1430559    0.0147189   -0.1042072    0.1259229   -0.9865517
   0.0041121   -0.1436496    0.0147207   -0.0954719    0.1156285   -0.9886937
   0.0051128   -0.1426663    0.0147357    0.0158866    0.1995256   -0.9797638
   0.0030096   -0.1433751    0.0148378   -0.1238810    0.1835784   -0.9751679
   0.0027373   -0.1432032    0.0149258   -0.2039169    0.2032115   -0.9576654
   0.0072890   -0.1452714    0.0158089    0.6395081   -0.4136605   -0.6480080
   0.0075214   -0.1448722    0.0158060    0.6449572   -0.2814841   -0.7104907
   0.0074830   -0.1451384    0.0159095    0.6780364   -0.4292018   -0.5967013
   0.0075522   -0.1436102    0.0155191    0.6493860   -0.0744133   -0.7568094
   0.0077085   -0.1444397    0.0158580    0.7144948   -0.2071068   -0.6682843
   0.0065548   -0.1436636    0.0149331    0.3771853   -0.1212855   -0.9181618
   0.0060573   -0.1432630    0.0147920    0.2880285    0.0537158   -0.9561141
   0.0077592   -0.1451096    0.0163062    0.7460268   -0.6221815   -0.2373483
   0.0079726   -0.1448384    0.0164116    0.8569138   -0.4896905   -0.1609409
   0.0080125   -0.1447903    0.0166769    0.8497500   -0.5210188    0.0804015
   0.0079169   -0.1448269    0.0168716    0.7230829   -0.6167343    0.3111108
   0.0075481   -0.1452823    0.0161979    0.7505260   -0.5827706   -0.3115914
   0.0076658   -0.1448262    0.0172245    0.5830116   -0.6158390    0.5299432
   0.0079975   -0.1443780    0.0173868    0.6388717   -0.5415592    0.5464034
   0.0077285   -0.1442754    0.0177256    0.4945056   -0.5180898    0.6978876
   0.0072339   -0.1439704    0.0181761    0.4121525   -0.4695708    0.7807904
   0.0063754   -0.1438765    0.0186816    0.4331875   -0.3728617    0.8205624
   0.0071625   -0.1437113    0.0183705    0.4248963   -0.4515461    0.7845822
   0.0065943   -0.1431196    0.0190131    0.4591694   -0.3542887    0.8146428
   0.0052149   -0.1448739    0.0188251    0.1916130   -0.2437967    0.9507090
   0.0050755   -0.1443726    0.0189710    0.0835068   -0.2377335    0.9677341
   0.0027304   -0.1432666    0.0191853   -0.1957674   -0.3985736    0.8959990
   0.0037132   -0.1431490    0.0193930   -0.0870622   -0.3492460    0.9329777
   0.0049395   -0.1433673    0.0193416    0.0683928   -0.3589977    0.9308292
   0.0017416   -0.1437431    0.0185796   -0.2795567   -0.6022258    0.7477781
   0.0022322   -0.1432246    0.0190715   -0.2444650   -0.4950728    0.8337504
   0.0014424   -0.1435782    0.0186527   -0.2567305   -0.5795652    0.7734298
   0.0017418   -0.1440714    0.0183490   -0.3214679   -0.4832203    0.8143442
   0.0009331   -0.1450766    0.0173114   -0.5877172   -0.5148340    0.6241270
   0.0007958   -0.1440988    0.0180747   -0.3156162   -0.4850634    0.8155366
   0.0006349   -0.1442259    0.0179283   -0.3867128   -0.5154633    0.7646900
   0.0011932   -0.1439525    0.0182868   -0.2952260   -0.5193864    0.8019223
   0.0012411   -0.1436191    0.0185437   -0.3170091   -0.5363412    0.7822042
   0.0006919   -0.1446618    0.0175520   -0.4665623   -0.6385525    0.6120215
   0.0013074   -0.1458522    0.0169631   -0.7272310   -0.6222949    0.2896277
   0.0060556   -0.1440663    0.0187600    0.3501887   -0.3413476    0.8722670
   0.0013616   -0.1459361    0.0162597   -0.6990237   -0.6684631   -0.2540138
   0.0013037   -0.1459242    0.0167182   -0.6799314   -0.7291725    0.0774649
   0.0010820   -0.1455277    0.0160867   -0.6593111   -0.5022026   -0.5595547
   0.0007844   -0.1446321    0.0158816   -0.5860266   -0.3222592   -0.7434526
   0.0017464   -0.1434139    0.0151328   -0.3209349    0.1092742   -0.9407762
   0.0008040   -0.1438601    0.0156108   -0.5350154   -0.1970733   -0.8215355
   0.0007682   -0.1434395    0.0155716   -0.5215849   -0.0271065   -0.8527687
   0.0059505   -0.1428438    0.0148090    0.2245868    0.1987240   -0.9539757
   0.0035896   -0.1429243    0.0148909   -0.1458381    0.1916689   -0.9705639
   0.0042940   -0.1429065    0.0147870   -0.1451923    0.1978466   -0.9694204
   0.0048096   -0.1424639    0.0148050   -0.1195911    0.2319539   -0.9653473
   0.0032503   -0.1428706    0.0149474    0.0436049    0.2478941   -0.9678053
   0.0054817   -0.1421588    0.0149155    0.1873856    0.3481765   -0.9185095
   0.0050770   -0.1420260    0.0149318   -0.0190211    0.2904121   -0.9567126
   0.0025276   -0.1429647    0.0150450   -0.2102418    0.2655608   -0.9408910
   0.0031019   -0.1425189    0.0150773   -0.1835779    0.2609041   -0.9477490
   0.0076729   -0.1449543    0.0160057    0.7406885   -0.3937838   -0.5443480
   0.0081894   -0.1437287    0.0162339    0.8255772   -0.1026029   -0.5548828
   0.0081374   -0.1430749    0.0161756    0.8041674    0.0545503   -0.5918944
   0.0079516   -0.1427356    0.0159728    0.7559801    0.1954659   -0.6247296
   0.0076294   -0.1427576    0.0156357    0.6411794    0.2443744   -0.7274408
   0.0073395   -0.1431994    0.0153379    0.5804945    0.0423683   -0.8131612
   0.0069452   -0.1432215    0.0150968    0.4425852   -0.0117360   -0.8966497
   0.0081608   -0.1444077    0.0164044    0.8650584   -0.2823599   -0.4146647
   0.0079589   -0.1448400    0.0163722    0.8117290   -0.3853278   -0.4388833
   0.0068856   -0.1428005    0.0150949    0.4081139    0.1798030   -0.8950497
   0.0081922   -0.1444039    0.0165123    0.9328167   -0.2948257   -0.2071974
   0.0082215   -0.1443964    0.0167741    0.9391003   -0.3432946    0.0154725
   0.0081956   -0.1443910    0.0170053    0.8538802   -0.4617747    0.2401099
   0.0079461   -0.1446703    0.0171265    0.6782557   -0.6072017    0.4138542
   0.0080442   -0.1440290    0.0176422    0.6577733   -0.4443850    0.6081581
   0.0081263   -0.1443568    0.0172110    0.8108236   -0.4342903    0.3923737
   0.0081904   -0.1439543    0.0174736    0.8410274   -0.3190399    0.4369056
   0.0077680   -0.1438361    0.0179726    0.5551528   -0.3696429    0.7450970
   0.0076249   -0.1436767    0.0181323    0.4793259   -0.3646354    0.7983030
   0.0072521   -0.1435408    0.0184121    0.5285434   -0.2967736    0.7953410
   0.0061248   -0.1430616    0.0192430    0.3021602   -0.3813876    0.8736376
   0.0070055   -0.1431188    0.0187483    0.5641572   -0.2460628    0.7881496
   0.0070458   -0.1429456    0.0187625    0.7119738   -0.1500804    0.6859805
   0.0062702   -0.1427073    0.0193070    0.3928112   -0.1880598    0.9001849
   0.0069115   -0.1426931    0.0189223    0.5999816   -0.0787741    0.7961260
   0.0055820   -0.1439575    0.0189853    0.2387526   -0.3476598    0.9067138
   0.0034190   -0.1423821    0.0196366   -0.0908456   -0.2398668    0.9665459
   0.0023901   -0.1424244    0.0194757   -0.2074574   -0.2590022    0.9433341
   0.0024311   -0.1431543    0.0191779   -0.1712179   -0.4506867    0.8761084
   0.0041190   -0.1427815    0.0195512   -0.0302372   -0.2855765    0.9578788
   0.0057953   -0.1431317    0.0193106    0.2172073   -0.3553198    0.9091583
   0.0057026   -0.1427236    0.0194865    0.1946548   -0.2454903    0.9496547
   0.0056132   -0.1434140    0.0192231    0.1949369   -0.4049367    0.8933229
   0.0046784   -0.1427601    0.0195716    0.0323282   -0.2773814    0.9602158
   0.0015468   -0.1433204    0.0188481   -0.3543743   -0.3543792    0.8653521
   0.0022963   -0.1428558    0.0192995   -0.0166280   -0.4179598    0.9083133
   0.0020734   -0.1428671    0.0192135    0.7836557   -0.3008678    0.5434725
   0.0018746   -0.1429355    0.0191069   -0.1158306   -0.4003535    0.9090106
   0.0013323   -0.1433312    0.0187507   -0.4619900   -0.3074560    0.8318870
   0.0009369   -0.1454020    0.0169840   -0.6391189   -0.6056238    0.4740746
   0.0007828   -0.1450976    0.0171306   -0.6508462   -0.4967079    0.5741782
   0.0006277   -0.1450978    0.0169520   -0.6568023   -0.6025023    0.4534333
   0.0004799   -0.1438053    0.0180532   -0.5219874   -0.2943154    0.8005670
   0.0008903   -0.1437838    0.0182722   -0.4389467   -0.3451515    0.8295759
   0.0004460   -0.1442354    0.0177974   -0.6332267   -0.4814893    0.6059637
   0.0003843   -0.1440646    0.0178463   -0.6524626   -0.3921797    0.6484502
   0.0010358   -0.1436126    0.0184305   -0.4655653   -0.4206857    0.7786350
   0.0011333   -0.1433406    0.0186330   -0.5069338   -0.2766042    0.8163996
   0.0004249   -0.1448083    0.0171658   -0.6168180   -0.6549394    0.4365660
   0.0003310   -0.1443274    0.0175831   -0.6258266   -0.5463954    0.5565906
   0.0002722   -0.1445235    0.0173143   -0.7037181   -0.5415593    0.4598852
   0.0010172   -0.1457024    0.0165504   -0.7174745   -0.6964056   -0.0158005
   0.0008703   -0.1454884    0.0167051   -0.7524177   -0.6337536    0.1795103
   0.0009634   -0.1455277    0.0162670   -0.7295926   -0.5671042   -0.3822139
   0.0006699   -0.1448264    0.0160728   -0.6809909   -0.4068028   -0.6089031
   0.0005019   -0.1442843    0.0159553   -0.6853121   -0.2493373   -0.6842356
   0.0012712   -0.1432456    0.0153483   -0.4059587    0.1723845   -0.8974860
   0.0015808   -0.1429947    0.0152715   -0.3167332    0.2481257   -0.9154855
   0.0022458   -0.1428706    0.0151310   -0.2150829    0.2544482   -0.9428656
   0.0003994   -0.1434456    0.0158603   -0.7038986   -0.0202129   -0.7100129
   0.0006474   -0.1428931    0.0157258   -0.5572338    0.1731697   -0.8120978
   0.0064039   -0.1427632    0.0149598    0.2762540    0.3212373   -0.9058092
   0.0034261   -0.1425098    0.0150277    0.8082253    0.1542484   -0.5683127
   0.0037618   -0.1425164    0.0149671    0.0398678    0.2414631   -0.9695907
   0.0037547   -0.1424984    0.0149728   -0.1642507    0.2010428   -0.9657140
   0.0035521   -0.1420804    0.0150772   -0.1509706    0.1938049   -0.9693542
   0.0034261   -0.1425098    0.0150277    0.8068001    0.1346380   -0.5752793
   0.0049666   -0.1415277    0.0150940    0.1273703    0.3684174   -0.9208938
   0.0055157   -0.1411497    0.0154446    0.2955620    0.5019660   -0.8128181
   0.0066299   -0.1421042    0.0153000    0.3431636    0.4722740   -0.8119089
   0.0044710   -0.1416232    0.0150710   -0.0479495    0.2781815   -0.9593310
   0.0029331   -0.1412479    0.0154397   -0.2448823    0.3157595   -0.9166944
   0.0032960   -0.1420875    0.0151195   -0.0635095    0.2102654   -0.9755793
   0.0083185   -0.1435566    0.0164135    0.9391524   -0.0511179   -0.3396758
   0.0082777   -0.1431354    0.0163859    0.9019026    0.1456659   -0.4066364
   0.0080845   -0.1427248    0.0161786    0.8283758    0.3224224   -0.4580800
   0.0078930   -0.1425660    0.0160172    0.7288769    0.4401353   -0.5244229
   0.0074604   -0.1422629    0.0157648    0.5845632    0.5243904   -0.6191128
   0.0069571   -0.1423698    0.0153007    0.4472005    0.4203214   -0.7895199
   0.0083234   -0.1439619    0.0170561    0.9599377   -0.1701303    0.2226552
   0.0083909   -0.1435427    0.0168282    0.9998848   -0.0151414    0.0010974
   0.0080743   -0.1439547    0.0176556    0.7327135   -0.2833381    0.6187491
   0.0081561   -0.1435274    0.0176809    0.8818319   -0.0253423    0.4708824
   0.0080227   -0.1435266    0.0178529    0.7332890   -0.0760680    0.6756485
   0.0078660   -0.1435296    0.0180127    0.6109412   -0.1474457    0.7778243
   0.0074774   -0.1434567    0.0182866    0.6143337   -0.1295148    0.7783444
   0.0073312   -0.1432621    0.0184430    0.7230449   -0.1892005    0.6643863
   0.0071898   -0.1431147    0.0186037    0.8950896   -0.1325079    0.4257420
   0.0072484   -0.1426892    0.0186164    0.7801744   -0.0133921    0.6254187
   0.0071898   -0.1431147    0.0186037    0.9802779   -0.0305418    0.1952496
   0.0065267   -0.1422781    0.0191828    0.5287739    0.0984676    0.8430316
   0.0060687   -0.1422882    0.0194222    0.3731599    0.0114135    0.9276969
   0.0070838   -0.1422687    0.0187521    0.7403199    0.1988320    0.6421778
   0.0069206   -0.1422706    0.0189080    0.6195004    0.1515711    0.7702243
   0.0025483   -0.1419938    0.0195662   -0.2654293    0.0544950    0.9625890
   0.0035945   -0.1419509    0.0197038   -0.0472542   -0.0198621    0.9986854
   0.0051486   -0.1423163    0.0196539    0.0935630   -0.1267454    0.9875128
   0.0022716   -0.1427890    0.0193191   -0.2956469   -0.3222447    0.8993060
   0.0021655   -0.1424351    0.0193922   -0.3817789   -0.1646367    0.9094722
   0.0023236   -0.1420044    0.0194827   -0.3854794    0.0401852    0.9218410
   0.0012683   -0.1430302    0.0187775   -0.5692472   -0.2142052    0.7937719
   0.0016360   -0.1428892    0.0190303   -0.4058577   -0.2572437    0.8769864
   0.0014286   -0.1428989    0.0189240   -0.5183881   -0.1960154    0.8323772
   0.0020734   -0.1428671    0.0192135    0.3896188   -0.2995755    0.8708913
   0.0020734   -0.1428671    0.0192135    0.9428095   -0.1316741    0.3062224
   0.0018536   -0.1428777    0.0191236   -0.1811778   -0.3155447    0.9314538
   0.0010759   -0.1429204    0.0186277   -0.6546895   -0.0757349    0.7520943
   0.0007235   -0.1452839    0.0168607   -0.7188588   -0.6317975    0.2899552
   0.0005679   -0.1451061    0.0167670   -0.7753794   -0.6295790    0.0491645
   0.0003551   -0.1448631    0.0168843   -0.7717256   -0.6306259    0.0821617
   0.0003071   -0.1438154    0.0179007   -0.7462628   -0.1940958    0.6367249
   0.0004147   -0.1433837    0.0180587   -0.6363431   -0.0226128    0.7710747
   0.0007663   -0.1433619    0.0183563   -0.6218508   -0.1379697    0.7708864
   0.0001581   -0.1442577    0.0174147   -0.7984829   -0.3816069    0.4656192
   0.0001753   -0.1438266    0.0176931   -0.8185961   -0.2653340    0.5094098
   0.0009458   -0.1433525    0.0184998   -0.6112500   -0.1658317    0.7738690
   0.0002064   -0.1446293    0.0170372   -0.8257788   -0.5197538    0.2189643
   0.0000416   -0.1441914    0.0171719   -0.9126752   -0.3420378    0.2236830
   0.0008874   -0.1455251    0.0164709   -0.7966061   -0.5834407   -0.1581634
   0.0005867   -0.1451102    0.0165314   -0.8097470   -0.5678015   -0.1480244
   0.0006641   -0.1451130    0.0163285   -0.7752386   -0.4930755   -0.3948184
   0.0004798   -0.1447015    0.0162083   -0.7732306   -0.4247731   -0.4708315
   0.0001229   -0.1442838    0.0164835   -0.8445004   -0.3409644   -0.4129920
   0.0000321   -0.1438673    0.0164147   -0.8349946   -0.2011131   -0.5121889
   0.0012825   -0.1424488    0.0155635   -0.3952078    0.3371527   -0.8544816
   0.0007353   -0.1425887    0.0157600   -0.4772273    0.3317609   -0.8137499
   0.0017768   -0.1418825    0.0155644   -0.4166577    0.3809238   -0.8254050
   0.0022752   -0.1413615    0.0155691   -0.3068176    0.3694403   -0.8771412
  -0.0000223   -0.1434474    0.0163652   -0.8646083   -0.0218845   -0.5019697
   0.0001218   -0.1430240    0.0161794   -0.7686394    0.1576648   -0.6199478
   0.0005424   -0.1425931    0.0158999   -0.6657231    0.3323790   -0.6680846
   0.0034261   -0.1425098    0.0150277    0.6455821    0.1443755   -0.7499196
   0.0035131   -0.1412305    0.0152623   -0.1936019    0.3503015   -0.9164099
   0.0037498   -0.1414233    0.0151558   -0.1127857    0.2726375   -0.9554832
   0.0050013   -0.1410235    0.0153354    0.2207731    0.5757460   -0.7872584
   0.0047539   -0.1411861    0.0152069    0.0633526    0.4183396   -0.9060786
   0.0057577   -0.1411860    0.0155141    0.4160011    0.6722270   -0.6124165
   0.0052013   -0.1409689    0.0154432    0.2845395    0.7272269   -0.6246425
   0.0054052   -0.1409596    0.0155550    0.3274734    0.7961388   -0.5088459
   0.0066799   -0.1417963    0.0155590    0.4982683    0.6242680   -0.6016794
   0.0063208   -0.1414893    0.0155927    0.4697377    0.6561751   -0.5905765
   0.0041194   -0.1409236    0.0153364   -0.0427831    0.4373216   -0.8982870
   0.0044609   -0.1410106    0.0152830    0.0035563    0.4584747   -0.8887004
   0.0032638   -0.1411594    0.0153674   -0.2715732    0.3696989   -0.8885779
   0.0025794   -0.1412588    0.0155282   -0.2526122    0.3833030   -0.8884064
   0.0027850   -0.1409877    0.0155871   -0.2550463    0.5686013   -0.7820767
   0.0031170   -0.1409510    0.0155225   -0.2592478    0.5687255   -0.7806035
   0.0083187   -0.1431304    0.0165236    0.9795793    0.1721314   -0.1038996
   0.0081828   -0.1427061    0.0164290    0.8950054    0.3578258   -0.2663194
   0.0077995   -0.1420930    0.0164353    0.7609264    0.5995533   -0.2480460
   0.0077313   -0.1421674    0.0161556    0.6539179    0.6034486   -0.4563345
   0.0072475   -0.1419162    0.0159817    0.5317536    0.6814607   -0.5028413
   0.0082045   -0.1431088    0.0174424    0.9446144    0.1797043    0.2746089
   0.0079960   -0.1431058    0.0178188    0.8121702    0.2188483    0.5408188
   0.0076617   -0.1426879    0.0181068    0.7806541    0.1719785    0.6008349
   0.0073641   -0.1431128    0.0184541    0.6930370   -0.1146310    0.7117299
   0.0071898   -0.1431147    0.0186037    0.9419854   -0.0676564    0.3287644
   0.0072143   -0.1422689    0.0185783    0.8051930    0.2731317    0.5263680
   0.0068144   -0.1418539    0.0188581    0.5507646    0.3725993    0.7468789
   0.0064641   -0.1418588    0.0191289    0.5433308    0.3845133    0.7462849
   0.0062537   -0.1418641    0.0192593    0.4997177    0.2846073    0.8180959
   0.0060378   -0.1418685    0.0193860    0.4460957    0.2867796    0.8477948
   0.0055222   -0.1418821    0.0195941    0.2775772    0.1319878    0.9515935
   0.0068354   -0.1418531    0.0188419    0.6383132    0.3631589    0.6787281
   0.0070809   -0.1418527    0.0185031    0.7832793    0.4169572    0.4611076
   0.0069550   -0.1417915    0.0186592    0.6907952    0.5555933    0.4627290
   0.0030149   -0.1415516    0.0196285   -0.1816710    0.1486949    0.9720522
   0.0027757   -0.1414005    0.0195327   -0.3289755    0.2328723    0.9151752
   0.0023262   -0.1415833    0.0193975   -0.4523950    0.2541112    0.8548487
   0.0025603   -0.1412664    0.0194081   -0.4476441    0.3191894    0.8353041
   0.0035547   -0.1415301    0.0196752   -0.0865961    0.1638407    0.9826786
   0.0038391   -0.1415203    0.0196786    0.0136796    0.1467096    0.9890850
   0.0050492   -0.1418977    0.0196796    0.0851717    0.0479717    0.9952108
   0.0019521   -0.1424464    0.0192933   -0.4310179   -0.1346066    0.8922469
   0.0021129   -0.1420149    0.0193804   -0.4729317    0.1028265    0.8750785
   0.0012427   -0.1429097    0.0187885   -0.6548808   -0.1110994    0.7475213
   0.0017459   -0.1424566    0.0191852   -0.4816036   -0.0751922    0.8731576
   0.0015460   -0.1424675    0.0190686   -0.5221689   -0.0474868    0.8515190
   0.0013580   -0.1424794    0.0189358   -0.6691374    0.0536907    0.7411966
   0.0010417   -0.1424998    0.0185916   -0.7675176    0.1533508    0.6224148
   0.0009128   -0.1429306    0.0184620   -0.7130308    0.0749233    0.6971180
   0.0002956   -0.1446970    0.0165980   -0.8200625   -0.5184142   -0.2423720
   0.0001187   -0.1444582    0.0167355   -0.9072831   -0.4069878   -0.1058220
   0.0001381   -0.1435342    0.0176862   -0.8763572   -0.0747359    0.4758283
   0.0002431   -0.1433944    0.0179041   -0.8285789    0.0477791    0.5578298
   0.0005878   -0.1431152    0.0181605   -0.6837682    0.1181750    0.7200665
   0.0004220   -0.1429625    0.0179669   -0.7374846    0.2168106    0.6396167
   0.0000538   -0.1438361    0.0174721   -0.9143851   -0.1626903    0.3707180
  -0.0000852   -0.1438585    0.0168906   -0.9756473   -0.1994805    0.0912131
  -0.0000571   -0.1438645    0.0166109   -0.9447692   -0.2326787   -0.2308069
  -0.0001150   -0.1434460    0.0165598   -0.9472330   -0.0482916   -0.3168873
   0.0011388   -0.1422855    0.0157229   -0.4802204    0.5196696   -0.7066342
   0.0008152   -0.1424281    0.0157968   -0.4350452    0.4633292   -0.7720504
   0.0006769   -0.1423240    0.0159614   -0.5718216    0.5424627   -0.6154302
   0.0016002   -0.1417119    0.0157665   -0.5653322    0.4810381   -0.6700760
   0.0020891   -0.1412723    0.0157084   -0.4800070    0.5087788   -0.7146589
   0.0018124   -0.1413921    0.0158070   -0.5594599    0.6094613   -0.5617486
   0.0021322   -0.1412023    0.0157288   -0.4786611    0.6421982   -0.5987196
   0.0024560   -0.1410674    0.0156555   -0.3493894    0.6419510   -0.6825145
   0.0000043   -0.1430240    0.0163604   -0.8993794    0.1969634   -0.3902848
  -0.0000602   -0.1430197    0.0165703   -0.9626288    0.1872701   -0.1956418
   0.0001072   -0.1426545    0.0163999   -0.8330654    0.3986582   -0.3835019
   0.0002858   -0.1423271    0.0164834   -0.7241383    0.6058630   -0.3294749
   0.0039691   -0.1406740    0.0154880   -0.0463697    0.6916236   -0.7207681
   0.0035235   -0.1408014    0.0154941   -0.2358456    0.5410761   -0.8072258
   0.0050584   -0.1408077    0.0156026    0.2567222    0.8961982   -0.3618321
   0.0048541   -0.1408150    0.0154908    0.2064104    0.8383619   -0.5045236
   0.0046546   -0.1408756    0.0153834    0.1148446    0.6657363   -0.7372964
   0.0063843   -0.1413541    0.0158671    0.4917191    0.8164622   -0.3026578
   0.0058682   -0.1411283    0.0157409    0.5129475    0.8026572   -0.3043457
   0.0056109   -0.1409815    0.0156696    0.4396397    0.8536275   -0.2793511
   0.0052652   -0.1408434    0.0157186    0.3035779    0.9399635   -0.1559135
   0.0054748   -0.1409067    0.0158368    0.3407645    0.9381430    0.0613788
   0.0065068   -0.1415281    0.0157378    0.5245188    0.6973414   -0.4884618
   0.0069515   -0.1417124    0.0159507    0.5053400    0.7968638   -0.3311186
   0.0043102   -0.1407722    0.0154376    0.0675037    0.6439631   -0.7620727
   0.0029776   -0.1408408    0.0156865   -0.2574247    0.8154533   -0.5184288
   0.0026470   -0.1408971    0.0157529   -0.3398772    0.8849383   -0.3183829
   0.0033073   -0.1407747    0.0156195   -0.3157027    0.7807008   -0.5392940
   0.0082292   -0.1427054    0.0167004    0.9112580    0.4116636    0.0119177
   0.0082705   -0.1428809    0.0167312    0.9654609    0.2286640    0.1248917
   0.0078774   -0.1421442    0.0167266    0.7650814    0.6436432    0.0193358
   0.0075839   -0.1419513    0.0163100    0.5713496    0.7298245   -0.3753876
   0.0074402   -0.1417860    0.0164691    0.5537445    0.8223730   -0.1306506
   0.0080676   -0.1426746    0.0173471    0.8611168    0.3992602    0.3147526
   0.0077866   -0.1424209    0.0176720    0.8230901    0.4291436    0.3719656
   0.0076398   -0.1422745    0.0178302    0.7988528    0.4890622    0.3502176
   0.0070881   -0.1418541    0.0184899    0.7537044    0.5513464    0.3576966
   0.0064705   -0.1415453    0.0188721    0.5253150    0.6579665    0.5395593
   0.0068280   -0.1418382    0.0188371    0.5516201    0.5701122    0.6088410
   0.0063460   -0.1416254    0.0190533    0.5560107    0.4945295    0.6680513
   0.0062297   -0.1418000    0.0192428    0.5124879    0.3968244    0.7615028
   0.0060905   -0.1414505    0.0191502    0.5535700    0.5321690    0.6405906
   0.0058989   -0.1414533    0.0192905    0.4743226    0.4665085    0.7465841
   0.0058287   -0.1414556    0.0193247    0.3841635    0.3264711    0.8636174
   0.0050284   -0.1414769    0.0196255    0.1797960    0.2014098    0.9628642
   0.0067279   -0.1415102    0.0185214    0.4834635    0.8169495    0.3144145
   0.0068625   -0.1415596    0.0183518    0.5516083    0.8174363    0.1659102
   0.0030238   -0.1411310    0.0195348   -0.1547005    0.3121072    0.9373670
   0.0027845   -0.1411415    0.0194704   -0.3185320    0.3631604    0.8755866
   0.0025734   -0.1411518    0.0193692   -0.4665724    0.4270197    0.7745737
   0.0021334   -0.1415952    0.0192708   -0.5629551    0.3151078    0.7640606
   0.0023601   -0.1413153    0.0192997   -0.6069580    0.4540867    0.6522325
   0.0023948   -0.1411635    0.0192236   -0.6764311    0.4374039    0.5925527
   0.0035548   -0.1411098    0.0195928   -0.0689443    0.2839955    0.9563437
   0.0032957   -0.1411200    0.0195554   -0.1386042    0.3938981    0.9086436
   0.0032822   -0.1411210    0.0195533   -0.1240400    0.3028035    0.9449466
   0.0047284   -0.1414024    0.0196259    0.0620919    0.2142637    0.9748003
   0.0044313   -0.1410783    0.0195735    0.0640899    0.2999254    0.9518074
   0.0038413   -0.1410990    0.0195939    0.0019089    0.3498873    0.9367898
   0.0019107   -0.1420268    0.0192666   -0.5536019    0.1960181    0.8093836
   0.0015354   -0.1420468    0.0190010   -0.6400190    0.2505306    0.7263677
   0.0012342   -0.1420696    0.0186358   -0.7483039    0.3984789    0.5303355
   0.0010326   -0.1419169    0.0181048   -0.7326370    0.5974129    0.3260995
   0.0006172   -0.1425315    0.0180080   -0.7790067    0.3882738    0.4923331
  -0.0000266   -0.1434196    0.0173442   -0.9374967    0.0829994    0.3379512
   0.0001248   -0.1433634    0.0176708   -0.8924528    0.1415513    0.4283588
   0.0002782   -0.1429755    0.0177377   -0.8504740    0.3083656    0.4261510
  -0.0001494   -0.1434410    0.0167865   -0.9986139    0.0461402    0.0253251
   0.0007286   -0.1420415    0.0162226   -0.5587732    0.6784317   -0.4769727
   0.0016813   -0.1413877    0.0159805   -0.5975517    0.7110082   -0.3706742
   0.0013667   -0.1416423    0.0160644   -0.5958733    0.6627703   -0.4535091
   0.0006002   -0.1420707    0.0163992   -0.6785285    0.6874136   -0.2589625
   0.0019999   -0.1411766    0.0159004   -0.5572591    0.7694322   -0.3121481
   0.0018740   -0.1412351    0.0160793   -0.5512318    0.8259061   -0.1184169
   0.0021931   -0.1410375    0.0160006   -0.4501563    0.8925289   -0.0274131
   0.0023211   -0.1410064    0.0158238   -0.4127720    0.8637279   -0.2891253
   0.0025175   -0.1409048    0.0159274   -0.3445043    0.9358536   -0.0741273
  -0.0000081   -0.1428429    0.0165906   -0.9364318    0.3459713   -0.0583042
  -0.0000591   -0.1430167    0.0166922   -0.9507027    0.2935925    0.0998387
   0.0001652   -0.1424545    0.0166688   -0.7987320    0.6004802   -0.0380883
   0.0036342   -0.1406753    0.0155493   -0.2350321    0.7885573   -0.5682758
   0.0040334   -0.1405487    0.0157631    0.0633421    0.9979370    0.0104635
   0.0041681   -0.1406076    0.0155946    0.1133459    0.9149044   -0.3874307
   0.0038303   -0.1405716    0.0156527   -0.0882088    0.9679484   -0.2351493
   0.0051324   -0.1408137    0.0158898    0.2542736    0.9452730    0.2044600
   0.0049229   -0.1407486    0.0157715    0.2377176    0.9705512   -0.0389972
   0.0047735   -0.1407509    0.0155862    0.2741495    0.8553411   -0.4395835
   0.0045109   -0.1407046    0.0155420    0.1820974    0.8556415   -0.4844771
   0.0060355   -0.1411787    0.0159127    0.3958936    0.9182126   -0.0124031
   0.0064607   -0.1413838    0.0161563    0.4494599    0.8901742    0.0746710
   0.0058995   -0.1411262    0.0158353    0.4891858    0.8717298   -0.0280085
   0.0058227   -0.1410704    0.0157903    0.5388542    0.8410597   -0.0474850
   0.0056883   -0.1410210    0.0159599    0.4132961    0.8872878    0.2047111
   0.0053451   -0.1409124    0.0160113    0.2665327    0.9051134    0.3312552
   0.0055608   -0.1410561    0.0161368    0.3067500    0.8675601    0.3914639
   0.0066577   -0.1415087    0.0162709    0.4044739    0.9140820   -0.0292414
   0.0070921   -0.1416108    0.0165147    0.3183967    0.9448184   -0.0770829
   0.0031728   -0.1407196    0.0157882   -0.2406826    0.9476270   -0.2099404
   0.0028804   -0.1408157    0.0158118   -0.2698671    0.9108855   -0.3121849
   0.0028231   -0.1408171    0.0158459   -0.2858542    0.9331951   -0.2177940
   0.0027179   -0.1408522    0.0160355   -0.2732039    0.9541401    0.1223774
   0.0028231   -0.1408158    0.0158880   -0.3349706    0.9373043    0.0962052
   0.0033718   -0.1406553    0.0158953   -0.2742064    0.9616458   -0.0069486
   0.0034997   -0.1406221    0.0157183   -0.2875225    0.9423440   -0.1712269
   0.0078948   -0.1422836    0.0171163    0.8204714    0.5413123    0.1838686
   0.0077367   -0.1420086    0.0168881    0.6715920    0.7313511    0.1187005
   0.0071681   -0.1416404    0.0168040    0.4171410    0.9068295    0.0604447
   0.0078268   -0.1422110    0.0171929    0.7672243    0.5889013    0.2540908
   0.0071788   -0.1418552    0.0182939    0.7359448    0.6062159    0.3014755
   0.0074625   -0.1418742    0.0172225    0.6533714    0.7430213    0.1450007
   0.0072573   -0.1418581    0.0180918    0.7672783    0.5989108    0.2293248
   0.0069979   -0.1416227    0.0181836    0.5787096    0.8001948    0.1574276
   0.0064932   -0.1414494    0.0186349    0.4208928    0.8750605    0.2389946
   0.0062489   -0.1413366    0.0187409    0.4799792    0.8522381    0.2081110
   0.0062369   -0.1414497    0.0189850    0.5676308    0.6687883    0.4801224
   0.0059852   -0.1412970    0.0190851    0.5027396    0.7184764    0.4806709
   0.0061163   -0.1413031    0.0189117    0.5302594    0.7928062    0.3004718
   0.0058622   -0.1413871    0.0192670    0.4822959    0.6039317    0.6345527
   0.0053953   -0.1413665    0.0195004    0.3410653    0.3161502    0.8852816
   0.0055066   -0.1411234    0.0193046    0.4576536    0.5647089    0.6867730
   0.0047485   -0.1410662    0.0195338    0.1404218    0.3748903    0.9163727
   0.0051001   -0.1410563    0.0194481    0.2321912    0.4432840    0.8657866
   0.0066510   -0.1414689    0.0182309    0.3335925    0.9425700   -0.0166691
   0.0067856   -0.1415221    0.0180620    0.2868924    0.9553138   -0.0711917
   0.0030707   -0.1408947    0.0194261   -0.1771960    0.5554271    0.8124668
   0.0028618   -0.1408431    0.0193090   -0.3717762    0.6868209    0.6245475
   0.0026599   -0.1408761    0.0191994   -0.5100549    0.7197960    0.4708904
   0.0019689   -0.1415421    0.0190949   -0.6064966    0.5082114    0.6114597
   0.0021471   -0.1411846    0.0187878   -0.6836682    0.6157502    0.3917263
   0.0024626   -0.1409680    0.0190948   -0.6276341    0.7064274    0.3271633
   0.0022711   -0.1411285    0.0189966   -0.7463767    0.5816822    0.3233691
   0.0036051   -0.1408368    0.0194724   -0.0618591    0.5512816    0.8320229
   0.0033912   -0.1407186    0.0193492   -0.1504313    0.6322267    0.7600394
   0.0031535   -0.1407107    0.0192796   -0.1970938    0.6502830    0.7336798
   0.0044809   -0.1408563    0.0194646    0.1099883    0.5607333    0.8206587
   0.0041519   -0.1409283    0.0195321    0.0178319    0.4895793    0.8717765
   0.0038605   -0.1406824    0.0193606    0.0133399    0.6149164    0.7884795
   0.0017749   -0.1416770    0.0189943   -0.6493996    0.4663108    0.6006950
   0.0013925   -0.1420118    0.0187988   -0.7188318    0.5089875    0.4735109
   0.0014174   -0.1416096    0.0183026   -0.6742057    0.6744279    0.3009879
   0.0012689   -0.1416090    0.0177293   -0.5997686    0.7982173    0.0559174
   0.0011913   -0.1416731    0.0176894   -0.5835798    0.8100416    0.0571598
   0.0008790   -0.1418457    0.0175251   -0.5173936    0.8337401    0.1928247
   0.0003907   -0.1424926    0.0175317   -0.8441917    0.4084506    0.3471433
   0.0006849   -0.1419749    0.0174241   -0.7225593    0.6320693    0.2799938
  -0.0000393   -0.1431608    0.0170796   -0.9263637    0.2933899    0.2361624
   0.0007878   -0.1418571    0.0164928   -0.5967064    0.7733753   -0.2140844
   0.0010912   -0.1417130    0.0164074   -0.5423545    0.7953493   -0.2706863
   0.0015546   -0.1414289    0.0161579   -0.5358733    0.8333874   -0.1352969
   0.0017506   -0.1413253    0.0162613   -0.4750532    0.8739104    0.1029805
   0.0020698   -0.1411314    0.0161828   -0.4509819    0.8762984    0.1694592
   0.0023925   -0.1409751    0.0161075   -0.3450055    0.9197999    0.1869208
   0.0022725   -0.1411026    0.0162929   -0.3237471    0.8713687    0.3686521
   0.0025957   -0.1409560    0.0162185   -0.2591449    0.8831305    0.3910556
   0.0002355   -0.1424075    0.0169509   -0.8615595    0.4693699    0.1934094
   0.0005398   -0.1420157    0.0168548   -0.6775635    0.7350506    0.0246643
   0.0037001   -0.1405714    0.0158265   -0.1324108    0.9860115    0.1012363
   0.0042417   -0.1406001    0.0158805    0.1581027    0.9591905    0.2344295
   0.0041197   -0.1407059    0.0160639    0.0970078    0.8127090    0.5745376
   0.0039063   -0.1405935    0.0159411    0.0035017    0.9366326    0.3502958
   0.0043728   -0.1406101    0.0157076    0.1902089    0.9815716   -0.0183812
   0.0052209   -0.1409946    0.0161926    0.2000459    0.8025084    0.5621049
   0.0050050   -0.1408470    0.0160666    0.2046580    0.8888724    0.4099036
   0.0047566   -0.1407421    0.0159249    0.2067612    0.9303814    0.3027213
   0.0048874   -0.1407424    0.0157514    0.2812586    0.9549448   -0.0947314
   0.0047141   -0.1406893    0.0156534    0.2817490    0.9437376   -0.1731380
   0.0045804   -0.1406498    0.0158238    0.2188290    0.9604626    0.1721202
   0.0058208   -0.1411232    0.0160375    0.3808436    0.8948514    0.2328071
   0.0065426   -0.1414821    0.0164517    0.2816371    0.9432278    0.1760733
   0.0059875   -0.1412847    0.0163826    0.2286342    0.8758279    0.4250315
   0.0069594   -0.1415869    0.0166866    0.1638170    0.9838359    0.0723257
   0.0032480   -0.1407394    0.0160767   -0.1759052    0.9073635    0.3817707
   0.0030434   -0.1407331    0.0159634   -0.2677048    0.9612019    0.0665212
   0.0029214   -0.1408407    0.0161470   -0.1901520    0.9183555    0.3470812
   0.0029781   -0.1408062    0.0160643   -0.2557711    0.8988209    0.3559525
   0.0035759   -0.1406477    0.0160073   -0.1251876    0.9304474    0.3443772
   0.0071138   -0.1416639    0.0172665    0.3116517    0.9501384    0.0104979
   0.0071342   -0.1416994    0.0180165    0.6382373    0.7564428    0.1429943
   0.0072722   -0.1417939    0.0178510    0.6592167    0.7426990    0.1176071
   0.0071902   -0.1416955    0.0175559    0.4652292    0.8849423    0.0209512
   0.0069198   -0.1415753    0.0178929    0.4282582    0.9036191   -0.0082108
   0.0061714   -0.1412912    0.0184503    0.3009407    0.9438842   -0.1360782
   0.0060363   -0.1412302    0.0186187    0.3609375    0.9310038   -0.0543697
   0.0057663   -0.1411100    0.0189557    0.4766654    0.8676528    0.1413107
   0.0059009   -0.1411632    0.0187865    0.4082777    0.9124157    0.0284059
   0.0056339   -0.1410824    0.0191270    0.5243139    0.7441896    0.4138560
   0.0052427   -0.1410517    0.0194016    0.3787945    0.5687976    0.7300575
   0.0054449   -0.1410488    0.0192675    0.4733971    0.7347882    0.4857793
   0.0048152   -0.1408530    0.0194029    0.2089126    0.6839646    0.6989621
   0.0051564   -0.1409341    0.0193490    0.3345594    0.7067051    0.6234083
   0.0061030   -0.1413579    0.0181697    0.1347111    0.9590492   -0.2491537
   0.0068464   -0.1415791    0.0176066    0.2164952    0.9721441   -0.0898086
   0.0063040   -0.1415407    0.0175518    0.1103346    0.9888412   -0.1000971
   0.0029445   -0.1407218    0.0191751   -0.3934496    0.7499679    0.5317382
   0.0027803   -0.1407430    0.0190134   -0.4115590    0.8983433    0.1536182
   0.0025834   -0.1408406    0.0189095   -0.5030147    0.8638545    0.0270483
   0.0018808   -0.1413632    0.0187924   -0.5966116    0.7079457    0.3779781
   0.0020012   -0.1412339    0.0186067   -0.5051053    0.8600204    0.0723440
   0.0021958   -0.1411127    0.0187086   -0.5876168    0.8084396    0.0336454
   0.0023889   -0.1409697    0.0188084   -0.5993643    0.7996329    0.0367363
   0.0034048   -0.1406992    0.0193281   -0.1159455    0.7134900    0.6910055
   0.0037162   -0.1405879    0.0192763   -0.0383750    0.8239238    0.5653999
   0.0031810   -0.1406456    0.0192300   -0.2665311    0.7879978    0.5549961
   0.0045983   -0.1406897    0.0192757    0.2068007    0.8432574    0.4961355
   0.0042620   -0.1406753    0.0193356    0.1026952    0.7750524    0.6234961
   0.0040478   -0.1405530    0.0192121    0.1149365    0.9044448    0.4108152
   0.0016869   -0.1415020    0.0186921   -0.6905248    0.6245419    0.3648601
   0.0016098   -0.1414587    0.0184016   -0.6333918    0.7481846    0.1975720
   0.0015365   -0.1414723    0.0181164   -0.4743341    0.8801707    0.0175114
   0.0013957   -0.1415602    0.0175511   -0.3636832    0.9285312   -0.0745943
   0.0008039   -0.1418299    0.0172371   -0.5525207    0.8263730    0.1087595
   0.0011778   -0.1416127    0.0166962   -0.4625676    0.8865807   -0.0024331
   0.0017057   -0.1414723    0.0167351   -0.2225867    0.9497560    0.2200425
   0.0016263   -0.1414035    0.0164423   -0.3646535    0.9189756    0.1500389
   0.0030084   -0.1410058    0.0164483   -0.1352099    0.8189938    0.5576446
   0.0037869   -0.1407288    0.0161271   -0.0213041    0.8226720    0.5681170
   0.0044550   -0.1407142    0.0160033    0.1871425    0.8638649    0.4676699
