NORM_ASCII
1769 3534
   0.0054390   -0.0134492   -0.0070770   -0.6044518   -0.4306515   -0.6702069
   0.0050106   -0.0133417   -0.0064843   -0.6361197   -0.4555083   -0.6227872
   0.0054783   -0.0141486   -0.0063194   -0.6430070   -0.5542204   -0.5285658
   0.0056301   -0.0135283   -0.0072169   -0.5209815   -0.3100738   -0.7952562
   0.0060848   -0.0157835   -0.0054359   -0.7524567   -0.5198848   -0.4043868
   0.0056512   -0.0150127   -0.0054489   -0.7505237   -0.3993908   -0.5264990
   0.0059349   -0.0156214   -0.0053365   -0.7290745   -0.4094880   -0.5484250
   0.0049013   -0.0139780   -0.0054570   -0.7504446   -0.5428923   -0.3769626
   0.0064966   -0.0161169   -0.0037897   -0.8012089   -0.5029318    0.3242282
   0.0063970   -0.0161350   -0.0039876   -0.8371268   -0.5036101    0.2135311
   0.0075739   -0.0166550   -0.0040109   -0.3432023   -0.5460750    0.7642083
   0.0079144   -0.0166625   -0.0039935   -0.3673236   -0.3452748    0.8636311
   0.0077469   -0.0165190   -0.0038793   -0.3273871   -0.4281447    0.8423241
   0.0072598   -0.0164983   -0.0037859   -0.3925659   -0.5458356    0.7402402
   0.0068525   -0.0163485   -0.0037640   -0.7149766   -0.4964620    0.4922743
   0.0069919   -0.0162662   -0.0036012   -0.5288829   -0.4051389    0.7457515
   0.0083881   -0.0134899   -0.0084908    0.7551808    0.3788412   -0.5349591
   0.0085073   -0.0134398   -0.0083101    0.7230116    0.5353714   -0.4366140
   0.0086308   -0.0133832   -0.0081329    0.6845653    0.5830707   -0.4374916
   0.0080374   -0.0132494   -0.0085213    0.7751084    0.3997231   -0.4893142
   0.0080081   -0.0135313   -0.0087506    0.6225014    0.1473611   -0.7686200
   0.0093375   -0.0138563   -0.0080790    0.8446598    0.5352769    0.0053385
   0.0087389   -0.0133516   -0.0079420    0.7564130    0.6394926   -0.1374356
   0.0078244   -0.0138053   -0.0088630    0.3338069   -0.1336212   -0.9331229
   0.0069223   -0.0138765   -0.0086010   -0.3362823   -0.2727742   -0.9013925
   0.0074349   -0.0138022   -0.0088253    0.1212075   -0.2065462   -0.9709003
   0.0070206   -0.0137115   -0.0087019   -0.1514076   -0.2609116   -0.9534154
   0.0061191   -0.0131670   -0.0080761   -0.5445108   -0.2267953   -0.8075097
   0.0059519   -0.0136050   -0.0075845   -0.6015962   -0.2162313   -0.7689772
   0.0060338   -0.0133978   -0.0078105   -0.6979735   -0.2574319   -0.6682528
   0.0088052   -0.0133870   -0.0077137    0.7688003    0.6244222    0.1379966
   0.0085290   -0.0131685   -0.0075218    0.8125092    0.5822090    0.0293505
   0.0092615   -0.0164005   -0.0043984    0.3595400    0.4451857    0.8200858
   0.0091677   -0.0165634   -0.0042905    0.1608943    0.2143086    0.9634235
   0.0088892   -0.0162902   -0.0042129    0.2949552    0.3680664    0.8817758
   0.0083516   -0.0157383   -0.0040308    0.4100465    0.3115052    0.8572202
   0.0076096   -0.0136028   -0.0036717    0.4218359    0.1062100    0.9004299
   0.0071440   -0.0142943   -0.0033729    0.2707080    0.0625294    0.9606286
   0.0072611   -0.0147598   -0.0034416    0.2631811    0.1790052    0.9479941
   0.0072067   -0.0122430   -0.0035583    0.5495568    0.1651136    0.8189779
   0.0073450   -0.0119266   -0.0038299    0.6818321    0.1858500    0.7075061
   0.0079280   -0.0126678   -0.0073840    0.8214032    0.5264425   -0.2194425
   0.0071441   -0.0121773   -0.0076573    0.7763862    0.4723196   -0.4172993
   0.0067923   -0.0106581   -0.0064155    0.8425452    0.3090213   -0.4411615
   0.0069025   -0.0101093   -0.0051668    0.9669191    0.2550664    0.0029429
   0.0062213   -0.0092081   -0.0055538    0.9421823    0.2684874   -0.2005168
   0.0062676   -0.0097437   -0.0060953    0.8873429    0.2642965   -0.3778491
   0.0067689   -0.0097011   -0.0045483    0.9366376    0.2576237    0.2373604
   0.0066795   -0.0106669   -0.0032927    0.7073217    0.1737252    0.6852120
   0.0068014   -0.0099336   -0.0040014    0.8677419    0.2006233    0.4547244
   0.0090356   -0.0167431   -0.0042390    0.0386769    0.1149428    0.9926189
   0.0087807   -0.0164605   -0.0041268    0.1326274    0.1764646    0.9753308
   0.0079919   -0.0162612   -0.0038219   -0.0253665   -0.0673550    0.9974066
   0.0078776   -0.0157941   -0.0037490    0.0989810    0.1267256    0.9869870
   0.0061375   -0.0161255   -0.0046186   -0.8695660   -0.4935299   -0.0168308
   0.0056271   -0.0154791   -0.0045628   -0.8494825   -0.4940090   -0.1852961
   0.0053853   -0.0131866   -0.0071985   -0.4009303   -0.3966562   -0.8257837
   0.0050569   -0.0130582   -0.0069490   -0.6011578   -0.4329008   -0.6717188
   0.0048950   -0.0136155   -0.0062035   -0.6380336   -0.5342637   -0.5545046
   0.0046078   -0.0134689   -0.0058935   -0.6408348   -0.4998009   -0.5826918
   0.0042360   -0.0123553   -0.0064503   -0.5316727   -0.5450498   -0.6482630
   0.0048570   -0.0126407   -0.0069805   -0.6167510   -0.4598745   -0.6388534
   0.0055788   -0.0128577   -0.0074054   -0.4133967   -0.2288641   -0.8813197
   0.0058333   -0.0156330   -0.0050496   -0.7885808   -0.5227852   -0.3237837
   0.0056037   -0.0153745   -0.0048296   -0.8381624   -0.3788075   -0.3924140
   0.0049974   -0.0142988   -0.0045779   -0.9046518   -0.3760604   -0.2004586
   0.0053968   -0.0150352   -0.0047180   -0.8733554   -0.3136355   -0.3726703
   0.0047021   -0.0136773   -0.0056685   -0.7211017   -0.5762811   -0.3845938
   0.0041415   -0.0132483   -0.0048682   -0.7665106   -0.5849068   -0.2652272
   0.0043293   -0.0131956   -0.0058163   -0.6875573   -0.5775815   -0.4400735
   0.0046992   -0.0138918   -0.0048198   -0.8449997   -0.5023115   -0.1834631
   0.0063808   -0.0157819   -0.0034538   -0.6927867   -0.3158748    0.6482821
   0.0057098   -0.0152508   -0.0035403   -0.8771523   -0.3965720    0.2708033
   0.0060636   -0.0158665   -0.0040338   -0.8731602   -0.4639549    0.1494560
   0.0074536   -0.0163284   -0.0036717   -0.1754421   -0.3585050    0.9168938
   0.0074162   -0.0163628   -0.0036900   -0.2352254   -0.4421352    0.8655550
   0.0078004   -0.0164674   -0.0038576   -0.1414500   -0.2872798    0.9473448
   0.0071757   -0.0161124   -0.0034786   -0.3096695   -0.3140457    0.8974854
   0.0067906   -0.0160337   -0.0034688   -0.6558764   -0.4001188    0.6401024
   0.0069456   -0.0158196   -0.0033290   -0.4049052   -0.1594398    0.9003503
   0.0067580   -0.0159847   -0.0034388   -0.5578162   -0.2802978    0.7812005
   0.0084587   -0.0131398   -0.0077473    0.7449602    0.6281358   -0.2246769
   0.0076833   -0.0130140   -0.0085474    0.6838210    0.3480350   -0.6412959
   0.0078036   -0.0129620   -0.0083673    0.7798372    0.5225225   -0.3447088
   0.0078347   -0.0133826   -0.0087291    0.5966279    0.2053159   -0.7758096
   0.0077125   -0.0134881   -0.0088044    0.4663043    0.0491890   -0.8832558
   0.0075936   -0.0136116   -0.0088379    0.2892967   -0.0523067   -0.9558093
   0.0067710   -0.0134272   -0.0085826   -0.2561026   -0.1667090   -0.9521657
   0.0062065   -0.0130065   -0.0081932   -0.4311904   -0.1226880   -0.8938806
   0.0071451   -0.0135351   -0.0087647    0.0310908   -0.1100798   -0.9934364
   0.0073171   -0.0133378   -0.0087581    0.2528665    0.0443423   -0.9664845
   0.0058562   -0.0130098   -0.0077301   -0.7507230   -0.1939620   -0.6315011
   0.0059191   -0.0128598   -0.0078835   -0.5963193   -0.0447501   -0.8014991
   0.0058318   -0.0129632   -0.0076950   -0.6977181   -0.1099733   -0.7078808
   0.0065235   -0.0127446   -0.0028306    0.2041272    0.0703541    0.9764130
   0.0067879   -0.0141778   -0.0031644   -0.0492831    0.1222886    0.9912702
   0.0070339   -0.0151034   -0.0032842    0.1708158    0.1708306    0.9703808
   0.0061526   -0.0109847   -0.0025891    0.4853146    0.0815476    0.8705284
   0.0059995   -0.0113876   -0.0024372    0.3326897    0.0522083    0.9415901
   0.0065449   -0.0106978   -0.0030598    0.6131986    0.1499715    0.7755617
   0.0072961   -0.0124532   -0.0080245    0.7596833    0.5629971   -0.3254467
   0.0068946   -0.0119151   -0.0074898    0.6343838    0.4229179   -0.6470685
   0.0070328   -0.0122135   -0.0078451    0.5996653    0.6166573   -0.5100346
   0.0066060   -0.0111949   -0.0070552    0.7208299    0.2977937   -0.6258779
   0.0063123   -0.0107286   -0.0068720    0.7122146    0.2785619   -0.6443242
   0.0063477   -0.0104262   -0.0066489    0.7459370    0.1951061   -0.6367980
   0.0061384   -0.0088199   -0.0052474    0.9511246    0.2385235   -0.1961339
   0.0057816   -0.0075629   -0.0042566    0.9761432    0.1957770    0.0938931
   0.0056061   -0.0073079   -0.0044199    0.9669665    0.1941552   -0.1651653
   0.0059305   -0.0088711   -0.0056373    0.9166155    0.2635206   -0.3006209
   0.0053007   -0.0091739   -0.0065111    0.6961631    0.1483039   -0.7023979
   0.0050911   -0.0083266   -0.0061486    0.8521599    0.1623494   -0.4974597
   0.0063367   -0.0087545   -0.0040239    0.9456336    0.2169001    0.2423459
   0.0065958   -0.0097948   -0.0034819    0.7531472    0.1509741    0.6402938
   0.0058991   -0.0076853   -0.0035075    0.9162445    0.1783432    0.3587335
   0.0074003   -0.0158530   -0.0034727    0.0959725    0.0576929    0.9937106
   0.0072423   -0.0160441   -0.0034594   -0.1177926   -0.1507376    0.9815310
   0.0054629   -0.0152223   -0.0041835   -0.9544509   -0.2941540   -0.0499686
   0.0053813   -0.0150925   -0.0044082   -0.9386427   -0.2781421   -0.2039286
   0.0048943   -0.0126610   -0.0070065   -0.4538471   -0.4147306   -0.7886833
   0.0050821   -0.0126025   -0.0071550   -0.2494328   -0.3054857   -0.9189460
   0.0038021   -0.0123961   -0.0061098   -0.5323747   -0.5521270   -0.6416641
   0.0038500   -0.0118322   -0.0065586   -0.5033913   -0.5199967   -0.6900729
   0.0048604   -0.0126280   -0.0069968   -0.4624990   -0.4392509   -0.7701645
   0.0050744   -0.0122906   -0.0071742   -0.1007742   -0.1695425   -0.9803570
   0.0054518   -0.0123975   -0.0073515   -0.1800894   -0.0372295   -0.9829455
   0.0057624   -0.0125344   -0.0076271   -0.4193651    0.0200190   -0.9075969
   0.0052316   -0.0147121   -0.0044743   -0.9337524   -0.2649363   -0.2406558
   0.0048975   -0.0140001   -0.0041341   -0.9489975   -0.3124906    0.0418736
   0.0048233   -0.0139766   -0.0043549   -0.8732646   -0.4539637    0.1769912
   0.0038169   -0.0128960   -0.0050621   -0.7309328   -0.6202077   -0.2847448
   0.0041961   -0.0133759   -0.0044813   -0.8005991   -0.5947279   -0.0730742
   0.0035815   -0.0128965   -0.0043302   -0.7537899   -0.6274556   -0.1951930
   0.0039401   -0.0128205   -0.0057144   -0.6983793   -0.5945866   -0.3984133
   0.0063372   -0.0153307   -0.0031837   -0.4791128   -0.1151744    0.8701642
   0.0061094   -0.0153695   -0.0032830   -0.7358009   -0.3236368    0.5948582
   0.0067745   -0.0155017   -0.0032253   -0.3365768   -0.0412450    0.9407523
   0.0058236   -0.0152099   -0.0033546   -0.8317448   -0.3116690    0.4594161
   0.0054269   -0.0149015   -0.0036318   -0.9827862   -0.1793640    0.0442703
   0.0055100   -0.0149095   -0.0034181   -0.9472740   -0.1455545    0.2854572
   0.0070119   -0.0157506   -0.0033115   -0.1338007   -0.0168364    0.9908652
   0.0074399   -0.0127424   -0.0083851    0.6610124    0.4645873   -0.5892548
   0.0075650   -0.0131069   -0.0086392    0.5870619    0.3191005   -0.7439981
   0.0075135   -0.0131450   -0.0086822    0.4631292    0.1784204   -0.8681460
   0.0063142   -0.0128377   -0.0082808   -0.2851161    0.0735453   -0.9556673
   0.0066613   -0.0129581   -0.0085030   -0.0357616    0.0462681   -0.9982887
   0.0068971   -0.0132504   -0.0086428    0.0278259   -0.0136947   -0.9995190
   0.0060236   -0.0126922   -0.0079757   -0.3861004    0.1926003   -0.9021261
   0.0070670   -0.0130591   -0.0086261    0.1611866    0.0651103   -0.9847738
   0.0070771   -0.0130480   -0.0086242    0.4634398    0.1503762   -0.8732758
   0.0072842   -0.0128519   -0.0085342    0.5143614    0.3127180   -0.7985235
   0.0058208   -0.0126468   -0.0077126   -0.5340271    0.0874335   -0.8409343
   0.0060023   -0.0128214   -0.0026186   -0.1139840   -0.1065216    0.9877554
   0.0065375   -0.0138930   -0.0030456   -0.1981896   -0.0622990    0.9781818
   0.0061692   -0.0149371   -0.0030889   -0.3717850    0.1243604    0.9199513
   0.0061181   -0.0145712   -0.0030823   -0.2989362    0.3008167    0.9056194
   0.0061572   -0.0143036   -0.0031134   -0.3419324    0.2148663    0.9148304
   0.0066021   -0.0150456   -0.0031337   -0.1484327    0.1426483    0.9785802
   0.0063429   -0.0141005   -0.0030860   -0.3077046   -0.0176530    0.9513182
   0.0069122   -0.0152782   -0.0032173   -0.0049147    0.1309586    0.9913757
   0.0050191   -0.0099212   -0.0015407    0.3484541    0.0149783    0.9372061
   0.0054785   -0.0099530   -0.0019441    0.4147845    0.0254515    0.9095636
   0.0060769   -0.0096858   -0.0026426    0.6357364    0.0871006    0.7669763
   0.0059692   -0.0097674   -0.0024467    0.5499283    0.0600481    0.8330505
   0.0055214   -0.0117268   -0.0021117    0.1738824   -0.0284405    0.9843556
   0.0055563   -0.0110729   -0.0020654    0.2817978    0.0098476    0.9594233
   0.0071854   -0.0124891   -0.0082136    0.6500454    0.5152964   -0.5584895
   0.0067815   -0.0119930   -0.0075986    0.5255688    0.4745562   -0.7060976
   0.0066659   -0.0116203   -0.0073408    0.5567837    0.2909866   -0.7780223
   0.0067426   -0.0120179   -0.0076415    0.5383635    0.5844393   -0.6071206
   0.0066134   -0.0122534   -0.0080746    0.2955323    0.6221244   -0.7249979
   0.0067811   -0.0123344   -0.0081946    0.4298554    0.5255723   -0.7341649
   0.0062479   -0.0109664   -0.0070782    0.5938581    0.2462488   -0.7659596
   0.0058482   -0.0108044   -0.0070642    0.5032735    0.1723510   -0.8467650
   0.0054749   -0.0100788   -0.0068419    0.5181136    0.0744163   -0.8520684
   0.0053048   -0.0096892   -0.0067466    0.5261390    0.0438956   -0.8492649
   0.0055470   -0.0069619   -0.0041296    0.9920635    0.1248972   -0.0145148
   0.0055763   -0.0065973   -0.0033543    0.9791719    0.0508950    0.1965503
   0.0057999   -0.0074400   -0.0036936    0.9719377    0.1513591    0.1800763
   0.0053311   -0.0068030   -0.0045302    0.9896935    0.0691796   -0.1253832
   0.0049809   -0.0074616   -0.0055874    0.9449791    0.1155188   -0.3060553
   0.0048539   -0.0095609   -0.0067860    0.4883742    0.0092845   -0.8725849
   0.0047562   -0.0091036   -0.0066547    0.6334960    0.0335399   -0.7730187
   0.0045768   -0.0075140   -0.0061039    0.9133426    0.1026966   -0.3940289
   0.0046255   -0.0081291   -0.0063637    0.8036905    0.0205846   -0.5946914
   0.0062409   -0.0091302   -0.0030904    0.8298858    0.1645075    0.5331293
   0.0061872   -0.0093055   -0.0028635    0.7103302    0.1143599    0.6945163
   0.0053952   -0.0148829   -0.0037420   -0.9879655   -0.1169350   -0.1012441
   0.0052809   -0.0145446   -0.0038266   -0.9998172   -0.0186375   -0.0042563
   0.0051241   -0.0142526   -0.0040083   -0.9808857   -0.1601191    0.1105676
   0.0049437   -0.0124697   -0.0071205   -0.2148325   -0.2955295   -0.9308648
   0.0050697   -0.0122972   -0.0071710   -0.0966698   -0.2456156   -0.9645351
   0.0032498   -0.0120547   -0.0058068   -0.6279057   -0.5349645   -0.5652852
   0.0037604   -0.0127025   -0.0055880   -0.6920820   -0.6327956   -0.3472639
   0.0029995   -0.0115107   -0.0059394   -0.5457041   -0.4444818   -0.7103822
   0.0034105   -0.0111795   -0.0065567   -0.3993932   -0.3947135   -0.8274577
   0.0047951   -0.0120186   -0.0070981   -0.0788351   -0.2450128   -0.9663094
   0.0052765   -0.0114422   -0.0071260    0.1044304   -0.0714370   -0.9919632
   0.0054701   -0.0117944   -0.0072436   -0.0659821    0.0063566   -0.9978006
   0.0055837   -0.0122177   -0.0074033   -0.1498972    0.1474406   -0.9776462
   0.0058948   -0.0123548   -0.0076785   -0.1955325    0.2811274   -0.9395395
   0.0049941   -0.0139870   -0.0039329   -0.9024633   -0.3387540    0.2660936
   0.0045985   -0.0136853   -0.0041915   -0.8114183   -0.4517014    0.3708992
   0.0043400   -0.0134285   -0.0040339   -0.7857968   -0.5374877    0.3059909
   0.0029725   -0.0122657   -0.0044734   -0.7756211   -0.5818442   -0.2446819
   0.0030258   -0.0124014   -0.0036737   -0.7816638   -0.6233163    0.0218761
   0.0059603   -0.0151323   -0.0031895   -0.6705547   -0.1239955    0.7314243
   0.0056332   -0.0148528   -0.0032405   -0.8093030   -0.0371477    0.5862156
   0.0053879   -0.0147731   -0.0036128   -0.9969746    0.0773697   -0.0074586
   0.0054352   -0.0146250   -0.0033861   -0.9687683    0.2003295    0.1461374
   0.0055653   -0.0145814   -0.0032124   -0.8197533    0.2644998    0.5079807
   0.0073549   -0.0128049   -0.0084614    0.5894086    0.3989909   -0.7024271
   0.0064542   -0.0126547   -0.0083209   -0.0786790    0.2058223   -0.9754214
   0.0061406   -0.0124580   -0.0079734   -0.2591792    0.3888633   -0.8840879
   0.0063640   -0.0124426   -0.0081439   -0.0849753    0.3845367   -0.9191903
   0.0068428   -0.0127572   -0.0084819    0.5405158    0.0907150   -0.8364290
   0.0065738   -0.0125270   -0.0082969    0.2412042    0.3450819   -0.9070496
   0.0060943   -0.0121893   -0.0076853   -0.1464125    0.4700270   -0.8704240
   0.0068428   -0.0127572   -0.0084819    0.6544150    0.2390285   -0.7173607
   0.0070465   -0.0125711   -0.0083770    0.4760850    0.3560767   -0.8040848
   0.0057682   -0.0130708   -0.0026685   -0.3126352   -0.2036779    0.9277794
   0.0057258   -0.0124485   -0.0024142   -0.3350582   -0.2520082    0.9078700
   0.0055742   -0.0122208   -0.0022748   -0.2304971   -0.2146886    0.9490942
   0.0062135   -0.0136809   -0.0029556   -0.3962465   -0.1285039    0.9091070
   0.0058247   -0.0146939   -0.0031106   -0.4094980    0.2279190    0.8833823
   0.0058131   -0.0147058   -0.0031145   -0.5870955    0.0843198    0.8051143
   0.0058011   -0.0143734   -0.0031337   -0.4807598    0.3967488    0.7819593
   0.0060424   -0.0138381   -0.0030413   -0.4884307   -0.0542804    0.8709128
   0.0058203   -0.0140970   -0.0031715   -0.6353632    0.2559711    0.7285550
   0.0048237   -0.0103326   -0.0014369    0.2826889   -0.0162676    0.9590737
   0.0046271   -0.0100245   -0.0012391    0.3000102   -0.0151403    0.9538158
   0.0049566   -0.0087315   -0.0013197    0.4009368   -0.0621270    0.9139967
   0.0056795   -0.0089824   -0.0021452    0.6148885    0.0555155    0.7866576
   0.0056476   -0.0083584   -0.0021972    0.6853141    0.0891048    0.7227758
   0.0056042   -0.0091702   -0.0020507    0.4951554   -0.0067948    0.8687779
   0.0051242   -0.0111659   -0.0017894    0.1763936   -0.0422195    0.9834138
   0.0049498   -0.0113102   -0.0017327   -0.0442599   -0.1353649    0.9898067
   0.0064861   -0.0117674   -0.0074668    0.4666417    0.3991936   -0.7892338
   0.0062542   -0.0114773   -0.0073153    0.3878343    0.1971818   -0.9003909
   0.0066050   -0.0120980   -0.0078053    0.2994145    0.6173031   -0.7275217
   0.0064510   -0.0122033   -0.0079550    0.1232451    0.5923271   -0.7962156
   0.0066639   -0.0124403   -0.0082586    0.2100542    0.4025144   -0.8909879
   0.0055296   -0.0105704   -0.0070064    0.2721006    0.0136252   -0.9621723
   0.0060124   -0.0117254   -0.0073862    0.1441502    0.1739137   -0.9741533
   0.0052541   -0.0102958   -0.0069248    0.3498613   -0.0095730   -0.9367526
   0.0048359   -0.0101608   -0.0069006    0.3572710   -0.0678915   -0.9315300
   0.0052865   -0.0060272   -0.0040113    0.9999937    0.0005259   -0.0035166
   0.0056672   -0.0076587   -0.0025043    0.8454322    0.0358917    0.5328754
   0.0055829   -0.0064695   -0.0030948    0.9721511   -0.0546413    0.2278961
   0.0053422   -0.0054696   -0.0032736    0.9931975   -0.0218641    0.1143704
   0.0050931   -0.0048775   -0.0039623    0.9886861   -0.1492886   -0.0145877
   0.0051721   -0.0050128   -0.0036588    0.9859842   -0.0912462    0.1396753
   0.0051967   -0.0059756   -0.0042228    0.9834404   -0.0028109   -0.1812100
   0.0046591   -0.0066528   -0.0054120    0.9491945    0.0467230   -0.3112020
   0.0047041   -0.0071016   -0.0056833    0.9280816    0.1174044   -0.3533848
   0.0045292   -0.0092819   -0.0067433    0.4631750   -0.0825070   -0.8824180
   0.0041946   -0.0074430   -0.0063705    0.7732068   -0.0584947   -0.6314504
   0.0042116   -0.0068043   -0.0061617    0.9273628    0.0018115   -0.3741589
   0.0042591   -0.0062960   -0.0056900    0.9720070    0.0344348   -0.2324148
   0.0043700   -0.0062288   -0.0055044    0.9290664    0.0557021   -0.3656950
   0.0053583   -0.0144350   -0.0036195   -0.9779610    0.1259283    0.1665361
   0.0051768   -0.0141113   -0.0037849   -0.9732922   -0.0583690    0.2220254
   0.0031769   -0.0121726   -0.0054644   -0.7414224   -0.5413762   -0.3964905
   0.0026737   -0.0114347   -0.0055767   -0.7607887   -0.4079152   -0.5047829
   0.0032174   -0.0123930   -0.0049256   -0.7549022   -0.5932230   -0.2796591
   0.0028880   -0.0108832   -0.0061834   -0.5010670   -0.2999501   -0.8117646
   0.0027115   -0.0113109   -0.0057369   -0.6892447   -0.4101300   -0.5972731
   0.0036490   -0.0108832   -0.0067630   -0.1863129   -0.2933715   -0.9376677
   0.0033140   -0.0108177   -0.0065968   -0.3188235   -0.2470650   -0.9150467
   0.0046692   -0.0115575   -0.0070425    0.1933811   -0.1433272   -0.9705983
   0.0040801   -0.0110271   -0.0069353    0.0491794   -0.1929537   -0.9799746
   0.0049937   -0.0111703   -0.0070571    0.1967257   -0.1364229   -0.9709211
   0.0055216   -0.0117278   -0.0072537    0.0309939    0.0129858   -0.9994352
   0.0057813   -0.0120885   -0.0074557   -0.0813806    0.3126310   -0.9463821
   0.0060853   -0.0121478   -0.0076442    0.0252834    0.3815966   -0.9239831
   0.0048849   -0.0136404   -0.0036027   -0.8118164   -0.4565228    0.3640619
   0.0053431   -0.0138512   -0.0033822   -0.8880879   -0.1697142    0.4271967
   0.0042868   -0.0131353   -0.0034675   -0.7692411   -0.5217362    0.3688623
   0.0038848   -0.0128739   -0.0034592   -0.7334220   -0.5918616    0.3343530
   0.0026797   -0.0116746   -0.0050765   -0.8284250   -0.4374759   -0.3497526
   0.0027992   -0.0121668   -0.0037975   -0.8367352   -0.5083087   -0.2037067
   0.0036511   -0.0126902   -0.0032978   -0.6991644   -0.6247407    0.3476610
   0.0029079   -0.0122766   -0.0033197   -0.8132601   -0.5792112    0.0558780
   0.0058082   -0.0146820   -0.0031120   -0.5775310    0.2064089    0.7898438
   0.0054579   -0.0143531   -0.0034262   -0.9387757    0.3114944    0.1472122
   0.0056028   -0.0143301   -0.0032631   -0.7799458    0.4322836    0.4525653
   0.0063217   -0.0121799   -0.0078590    0.0056521    0.6030546   -0.7976799
   0.0063352   -0.0123120   -0.0080091   -0.0652891    0.5133672   -0.8556819
   0.0063247   -0.0119749   -0.0076030    0.0833819    0.5215835   -0.8491161
   0.0053342   -0.0129645   -0.0026231   -0.5021038   -0.3416987    0.7944393
   0.0055352   -0.0132706   -0.0028138   -0.5490699   -0.2598532    0.7943542
   0.0049596   -0.0118224   -0.0019596   -0.3043152   -0.2477898    0.9197785
   0.0047983   -0.0119794   -0.0020240   -0.3861889   -0.2871847    0.8765746
   0.0052820   -0.0120051   -0.0021133   -0.1560535   -0.1833135    0.9705892
   0.0058078   -0.0140506   -0.0031672   -0.7053016   -0.0616784    0.7062191
   0.0057647   -0.0140812   -0.0032037   -0.7148472    0.2147827    0.6654787
   0.0043428   -0.0099556   -0.0010232    0.2338223   -0.0921976    0.9678981
   0.0039415   -0.0082294   -0.0000601    0.3546150   -0.2568009    0.8990559
   0.0040622   -0.0080538   -0.0001281    0.4524696   -0.2486491    0.8564140
   0.0049355   -0.0078507   -0.0010468    0.5518881   -0.0643978    0.8314280
   0.0055270   -0.0078710   -0.0021039    0.7365542   -0.0184963    0.6761256
   0.0046101   -0.0108082   -0.0014295   -0.0584960   -0.1596549    0.9854382
   0.0045525   -0.0112120   -0.0015846   -0.3338100   -0.2459763    0.9099816
   0.0063106   -0.0119271   -0.0075585    0.1913812    0.3609088   -0.9127530
   0.0042777   -0.0101797   -0.0068958    0.2842364   -0.1101938   -0.9524007
   0.0054799   -0.0063100   -0.0022025    0.8440026   -0.0571360    0.5332870
   0.0054033   -0.0049184   -0.0025390    0.9636783   -0.0775919    0.2555458
   0.0052952   -0.0048991   -0.0030105    0.9930797   -0.0938717    0.0705748
   0.0049873   -0.0055069   -0.0043796    0.9729270   -0.1116895   -0.2023327
   0.0051561   -0.0044490   -0.0037713    0.9735209   -0.1823588    0.1378487
   0.0048737   -0.0044163   -0.0043876    0.9605533   -0.2003502   -0.1928658
   0.0050954   -0.0045800   -0.0039894    0.9815641   -0.1793546   -0.0660593
   0.0052182   -0.0040793   -0.0028635    0.9809979   -0.1001477    0.1661730
   0.0047768   -0.0055624   -0.0047674    0.9295029   -0.0631677   -0.3633650
   0.0040193   -0.0074943   -0.0065080    0.7529465   -0.1397489   -0.6430722
   0.0039171   -0.0081052   -0.0066536    0.4114543   -0.2069431   -0.8876260
   0.0041626   -0.0091120   -0.0067538    0.3036806   -0.1417221   -0.9421746
   0.0038927   -0.0094842   -0.0067924    0.2859113   -0.1202284   -0.9506839
   0.0040827   -0.0068701   -0.0063344    0.9102128   -0.1047619   -0.4006714
   0.0040269   -0.0061177   -0.0060808    0.9862733   -0.0474187   -0.1581659
   0.0042620   -0.0058223   -0.0054568    0.9715912   -0.0308891   -0.2346410
   0.0054573   -0.0143307   -0.0034279   -0.9019956    0.2221234    0.3702232
   0.0023396   -0.0107964   -0.0054972   -0.8131495   -0.3600568   -0.4573259
   0.0022552   -0.0108283   -0.0052188   -0.7523622   -0.4058425   -0.5188864
   0.0022641   -0.0109462   -0.0049601   -0.8343403   -0.3702972   -0.4083580
   0.0022567   -0.0108585   -0.0051532   -0.8562026   -0.3492220   -0.3807376
   0.0031870   -0.0103575   -0.0065430   -0.3864031   -0.1139703   -0.9152614
   0.0023734   -0.0104117   -0.0057825   -0.5038927   -0.2055702   -0.8389476
   0.0025279   -0.0108598   -0.0057960   -0.6348118   -0.3097155   -0.7078773
   0.0024828   -0.0110009   -0.0056166   -0.8079530   -0.3708551   -0.4579066
   0.0035409   -0.0104737   -0.0067549   -0.1139153   -0.1864906   -0.9758302
   0.0046707   -0.0109487   -0.0069836    0.1501220   -0.1970441   -0.9688328
   0.0042492   -0.0108220   -0.0069488    0.1771919   -0.1449508   -0.9734435
   0.0041413   -0.0104039   -0.0069030    0.1355115   -0.1910122   -0.9721888
   0.0047642   -0.0133140   -0.0032634   -0.7599988   -0.4541943    0.4648757
   0.0055744   -0.0139924   -0.0032697   -0.7798583    0.0343113    0.6250151
   0.0054788   -0.0137740   -0.0032154   -0.7330449   -0.2821562    0.6188967
   0.0042613   -0.0124179   -0.0024049   -0.6079861   -0.4618210    0.6458129
   0.0025579   -0.0118922   -0.0036384   -0.8692430   -0.4561583   -0.1906206
   0.0023292   -0.0115250   -0.0036349   -0.9126832   -0.3007369   -0.2767069
   0.0036317   -0.0119636   -0.0022411   -0.6407966   -0.5168802    0.5676395
   0.0031164   -0.0122253   -0.0029309   -0.7145222   -0.5768505    0.3958554
   0.0030050   -0.0122597   -0.0031228   -0.7634609   -0.5644271    0.3139261
   0.0026876   -0.0120044   -0.0031030   -0.8470297   -0.5175989    0.1209632
   0.0056077   -0.0142302   -0.0032746   -0.7738028    0.3113738    0.5516118
   0.0050160   -0.0131932   -0.0029138   -0.6607192   -0.4285594    0.6162686
   0.0045502   -0.0117149   -0.0018574   -0.3417591   -0.2875640    0.8947109
   0.0046553   -0.0113766   -0.0016914   -0.3911015   -0.3092579    0.8668328
   0.0040064   -0.0102674   -0.0009278    0.0557413   -0.2540216    0.9655910
   0.0035438   -0.0093222   -0.0001931    0.2161559   -0.2780188    0.9359392
   0.0029673   -0.0080808    0.0011966    0.4134400   -0.2432818    0.8774288
   0.0032755   -0.0085601    0.0004974    0.4056723   -0.3349367    0.8504396
   0.0032490   -0.0072966    0.0012370    0.3175070   -0.2270926    0.9206619
   0.0035914   -0.0072403    0.0009718    0.2562418   -0.3040250    0.9175560
   0.0041118   -0.0076204    0.0000562    0.4413362   -0.3614790    0.8213132
   0.0046978   -0.0066603   -0.0001963    0.5224189   -0.3243126    0.7886063
   0.0050012   -0.0071688   -0.0009359    0.5985460   -0.1811434    0.7803395
   0.0036829   -0.0066403    0.0012609    0.2490116   -0.3435097    0.9055354
   0.0053920   -0.0068863   -0.0018089    0.7743010   -0.1298269    0.6193569
   0.0045172   -0.0112473   -0.0015973   -0.2617820   -0.2501323    0.9321502
   0.0037575   -0.0110155   -0.0012888   -0.2150245   -0.3763696    0.9011717
   0.0054397   -0.0061393   -0.0020313    0.8919179   -0.1118110    0.4381561
   0.0054066   -0.0063055   -0.0018705    0.8417985   -0.1258203    0.5249234
   0.0054038   -0.0049326   -0.0019869    0.9257860   -0.1118037    0.3611375
   0.0053864   -0.0043879   -0.0022960    0.9606616   -0.0123902    0.2774450
   0.0051535   -0.0033985   -0.0024799    0.9756805    0.0096043    0.2189869
   0.0053379   -0.0046115   -0.0027921    0.9906971   -0.0841255    0.1069684
   0.0046477   -0.0048463   -0.0047308    0.9285840   -0.1836724   -0.3224844
   0.0051786   -0.0039693   -0.0035544    0.9892113   -0.0640304    0.1317617
   0.0050247   -0.0038000   -0.0038855    0.9984827   -0.0171050   -0.0523430
   0.0051950   -0.0038701   -0.0030227    0.9527927   -0.1006730    0.2864457
   0.0047524   -0.0044156   -0.0045705    0.9296690   -0.1504582   -0.3362706
   0.0049122   -0.0039541   -0.0041798    0.9697531   -0.0733880   -0.2327943
   0.0049879   -0.0037997   -0.0039758    0.9906268   -0.0244199   -0.1343956
   0.0042469   -0.0052609   -0.0052177    0.9363058   -0.1414818   -0.3214255
   0.0043396   -0.0048704   -0.0050461    0.9190391   -0.1776672   -0.3518543
   0.0038370   -0.0076456   -0.0066326    0.6539989   -0.2553098   -0.7121112
   0.0038409   -0.0064541   -0.0064624    0.8629291   -0.2237456   -0.4530909
   0.0035735   -0.0072755   -0.0067401    0.6721616   -0.2520025   -0.6961993
   0.0032685   -0.0089232   -0.0066788    0.0838544   -0.1343045   -0.9873858
   0.0035906   -0.0079007   -0.0066997    0.2876055   -0.3791080   -0.8795227
   0.0035919   -0.0078989   -0.0066997    0.4790355   -0.3695237   -0.7962268
   0.0031574   -0.0084548   -0.0066011    0.0537443   -0.2361030   -0.9702406
   0.0033937   -0.0093837   -0.0067356    0.0316682   -0.1702753   -0.9848875
   0.0036791   -0.0096532   -0.0068024    0.1637176   -0.1612428   -0.9732406
   0.0039002   -0.0058640   -0.0062819    0.9757502   -0.1862665   -0.1149621
   0.0041291   -0.0053177   -0.0053982    0.9882664   -0.0975196   -0.1175559
   0.0040357   -0.0056192   -0.0058542    0.9944874   -0.1021522    0.0236603
   0.0020536   -0.0104013   -0.0052746   -0.7955446   -0.3301003   -0.5080773
   0.0022721   -0.0106916   -0.0054551   -0.7457333   -0.3149246   -0.5871152
   0.0020540   -0.0105221   -0.0050280    0.7827175   -0.4124418   -0.4660956
   0.0020540   -0.0105221   -0.0050280    0.2757271   -0.6797173   -0.6796756
   0.0021179   -0.0106953   -0.0047862   -0.8969949   -0.3054695   -0.3195129
   0.0020540   -0.0105221   -0.0050280    0.2346999   -0.7235111   -0.6491900
   0.0019410   -0.0106096   -0.0038298   -0.8948245   -0.3361430   -0.2937636
   0.0031800   -0.0097210   -0.0065582   -0.4311125   -0.1385733   -0.8915938
   0.0026454   -0.0101980   -0.0060582   -0.3577209   -0.0509559   -0.9324373
   0.0030328   -0.0100943   -0.0063622   -0.4449985   -0.0546081   -0.8938648
   0.0022367   -0.0099552   -0.0057425   -0.4090398   -0.1246143   -0.9039677
   0.0018756   -0.0099628   -0.0052954   -0.6970055   -0.2665306   -0.6656912
   0.0035801   -0.0101944   -0.0067699    0.0059403   -0.2089955   -0.9778986
   0.0032715   -0.0095601   -0.0066695   -0.3059686   -0.2095434   -0.9286952
   0.0040345   -0.0116831   -0.0018548   -0.3801478   -0.3706070    0.8474303
   0.0036654   -0.0115297   -0.0017518   -0.5010396   -0.4736023    0.7243343
   0.0024369   -0.0117080   -0.0030097   -0.9207111   -0.3732416   -0.1139375
   0.0020939   -0.0109075   -0.0030932   -0.9519095   -0.2326100   -0.1994014
   0.0026972   -0.0117154   -0.0023788   -0.7224517   -0.5501363    0.4188240
   0.0033992   -0.0115042   -0.0018275   -0.5971769   -0.5038418    0.6241180
   0.0025900   -0.0117465   -0.0025710   -0.8434269   -0.5098797    0.1692741
   0.0034524   -0.0103598   -0.0007639   -0.1169513   -0.3785998    0.9181419
   0.0034892   -0.0097615   -0.0003896    0.0752159   -0.3190325    0.9447544
   0.0030982   -0.0093158    0.0001450    0.1542471   -0.4143979    0.8969293
   0.0029385   -0.0085182    0.0010266    0.4705453   -0.2971010    0.8308538
   0.0029128   -0.0070718    0.0015983    0.2520002   -0.0881433    0.9637047
   0.0026379   -0.0082249    0.0015056    0.3621381   -0.1970528    0.9110577
   0.0029999   -0.0088059    0.0007288    0.4033658   -0.4552028    0.7937799
   0.0031469   -0.0066561    0.0015358    0.1285392   -0.2364142    0.9631127
   0.0034846   -0.0063688    0.0015306    0.0654399   -0.3171301    0.9461216
   0.0043584   -0.0066670    0.0003382    0.5175305   -0.3796322    0.7668387
   0.0039459   -0.0067786    0.0009385    0.3009851   -0.3572308    0.8841912
   0.0041373   -0.0069337    0.0005297    0.4817882   -0.3582761    0.7996989
   0.0049251   -0.0067955   -0.0006338    0.6247065   -0.2434514    0.7419389
   0.0045749   -0.0058736    0.0006579    0.5301193   -0.2782828    0.8009571
   0.0044590   -0.0060857    0.0006860    0.4904192   -0.3753807    0.7864975
   0.0050652   -0.0057202   -0.0002804    0.7230701   -0.2462252    0.6454012
   0.0035724   -0.0057769    0.0018256    0.1740977   -0.1895628    0.9663105
   0.0035484   -0.0111968   -0.0014152   -0.4073198   -0.4920186    0.7694207
   0.0032808   -0.0107238   -0.0009762   -0.3141244   -0.5055200    0.8036015
   0.0053734   -0.0049447   -0.0014109    0.8772765   -0.1230839    0.4639356
   0.0053329   -0.0042013   -0.0017199    0.9227802    0.0135596    0.3850881
   0.0051099   -0.0032718   -0.0021818    0.9389563    0.1943671    0.2838705
   0.0051333   -0.0033766   -0.0019147    0.9236235    0.1873424    0.3343988
   0.0050381   -0.0031020   -0.0026929    0.9562429    0.2401565    0.1671058
   0.0051672   -0.0035582   -0.0027525    0.9682459    0.0131689    0.2496526
   0.0050676   -0.0035255   -0.0035074    0.9937128    0.1083260    0.0282894
   0.0051469   -0.0035086   -0.0030174    0.9829327    0.1018190    0.1532196
   0.0048613   -0.0033810   -0.0039152    0.9747135    0.1850978   -0.1251893
   0.0049375   -0.0033587   -0.0036980    0.9773188    0.2081471   -0.0390233
   0.0042868   -0.0035541   -0.0048426    0.9333362    0.0101332   -0.3588606
   0.0042049   -0.0037952   -0.0050349    0.9240581   -0.0668082   -0.3763687
   0.0047576   -0.0033638   -0.0041129    0.9590670    0.1346621   -0.2491116
   0.0041682   -0.0042595   -0.0052439    0.9655113   -0.1335356   -0.2235089
   0.0040782   -0.0046523   -0.0054169    0.9721602   -0.2334453   -0.0201970
   0.0036119   -0.0076243   -0.0067389    0.4660588   -0.3868544   -0.7956965
   0.0035100   -0.0067023   -0.0067402    0.7164539   -0.3080383   -0.6259442
   0.0034839   -0.0056595   -0.0068107    0.7564028   -0.3191450   -0.5709653
   0.0037796   -0.0053186   -0.0065131    0.8699477   -0.3766561   -0.3183099
   0.0033273   -0.0071688   -0.0068375    0.4516611   -0.3567402   -0.8177645
   0.0033672   -0.0074817   -0.0067900    0.3282947   -0.4172218   -0.8474365
   0.0031258   -0.0091077   -0.0066428   -0.2527263   -0.1959590   -0.9474859
   0.0028879   -0.0088176   -0.0065061   -0.3538629   -0.1203891   -0.9275169
   0.0030037   -0.0086437   -0.0065814   -0.2229512   -0.1203007   -0.9673782
   0.0035909   -0.0078986   -0.0067000    0.2981590   -0.4271480   -0.8536075
   0.0031786   -0.0078780   -0.0066627    0.0567967   -0.3780066   -0.9240591
   0.0027728   -0.0083518   -0.0064348   -0.3915014   -0.1900324   -0.9003412
   0.0028750   -0.0081840   -0.0065301   -0.2938286   -0.2261711   -0.9287149
   0.0029982   -0.0080085   -0.0065948   -0.1571876   -0.2734370   -0.9489596
   0.0030285   -0.0092716   -0.0065403   -0.4208984   -0.2474465   -0.8727054
   0.0039059   -0.0049706   -0.0063629    0.9386383   -0.2655607   -0.2200808
   0.0039732   -0.0054479   -0.0060974    0.9765338   -0.1976589    0.0855141
   0.0040580   -0.0053446   -0.0056181    0.9919527   -0.1044665    0.0715307
   0.0040317   -0.0051037   -0.0056193    0.9827336   -0.1492458    0.1093630
   0.0040082   -0.0052833   -0.0058621    0.9953375   -0.0633061    0.0727710
   0.0018367   -0.0102087   -0.0048898   -0.8460545   -0.3495749   -0.4024787
   0.0018408   -0.0102214   -0.0048549   -0.8188173   -0.4553158   -0.3496080
   0.0020791   -0.0106244   -0.0047629   -0.8839576   -0.3503628   -0.3096206
   0.0017478   -0.0103529   -0.0035214   -0.9372778   -0.3207112   -0.1365823
   0.0015107   -0.0099760   -0.0035573   -0.8870058   -0.3462448   -0.3055082
   0.0016315   -0.0098752   -0.0047613   -0.8676393   -0.3103733   -0.3884204
   0.0029658   -0.0094215   -0.0063867   -0.5711191   -0.1986452   -0.7964691
   0.0026924   -0.0099056   -0.0060508   -0.2652354   -0.0101888   -0.9641299
   0.0024868   -0.0089631   -0.0058716   -0.5040456   -0.0413961   -0.8626844
   0.0021892   -0.0088216   -0.0055767   -0.2695953    0.0082235   -0.9629386
   0.0015975   -0.0090515   -0.0052228   -0.5079527   -0.1133185   -0.8538987
   0.0018189   -0.0087110   -0.0053888   -0.2033560   -0.0007245   -0.9791046
   0.0014686   -0.0093321   -0.0049608   -0.7150417   -0.2282738   -0.6607620
   0.0034010   -0.0112942   -0.0015673   -0.5516026   -0.5430992    0.6330701
   0.0022913   -0.0114213   -0.0026469   -0.9486953   -0.2843622   -0.1382579
   0.0020215   -0.0105290   -0.0025191   -0.9699183   -0.1621079   -0.1816029
   0.0025563   -0.0114212   -0.0020213   -0.6530652   -0.5810370    0.4856974
   0.0024481   -0.0114531   -0.0022114   -0.8560495   -0.4989630    0.1349638
   0.0024296   -0.0114499   -0.0022633   -0.8573127   -0.4966377    0.1355206
   0.0023595   -0.0114541   -0.0024208   -0.9019675   -0.4235524    0.0840118
   0.0029198   -0.0098413   -0.0002248   -0.0605789   -0.4822556    0.8739335
   0.0028449   -0.0104754   -0.0006793   -0.1423994   -0.4508080    0.8811893
   0.0027743   -0.0100747   -0.0003703   -0.0762958   -0.4204468    0.9041036
   0.0028493   -0.0093334    0.0003363    0.1333721   -0.5459060    0.8271629
   0.0028587   -0.0089257    0.0008464    0.3629125   -0.4943794    0.7898630
   0.0028033   -0.0086463    0.0011400    0.3539224   -0.3494754    0.8675286
   0.0023965   -0.0077852    0.0018223    0.1900375   -0.0127940    0.9816935
   0.0024081   -0.0071409    0.0018345    0.0566866    0.0867612    0.9946151
   0.0025064   -0.0064600    0.0019742    0.0242896   -0.1118017    0.9934336
   0.0026072   -0.0086940    0.0012940    0.1830567   -0.3773919    0.9077806
   0.0024471   -0.0082790    0.0016560    0.1939693   -0.2097158    0.9583294
   0.0028417   -0.0091135    0.0005994    0.2853951   -0.5992602    0.7479551
   0.0032195   -0.0061754    0.0017986    0.0122772   -0.2972678    0.9547152
   0.0030220   -0.0063843    0.0017537   -0.0059387   -0.2866252    0.9580244
   0.0038718   -0.0059180    0.0015336    0.3367500   -0.2617111    0.9044925
   0.0037948   -0.0060115    0.0015388    0.1592516   -0.3305883    0.9302421
   0.0040781   -0.0059298    0.0013162    0.4258446   -0.2846302    0.8588609
   0.0043863   -0.0049134    0.0012707    0.4983760   -0.1092727    0.8600470
   0.0047261   -0.0052575    0.0007659    0.5685240   -0.1360571    0.8113378
   0.0042866   -0.0050861    0.0013612    0.4766845   -0.1093944    0.8722412
   0.0041540   -0.0052163    0.0014734    0.4121901   -0.1278016    0.9020898
   0.0049763   -0.0051888    0.0002925    0.7122406   -0.2063542    0.6709182
   0.0051987   -0.0049920   -0.0004455    0.8338761   -0.1553542    0.5296373
   0.0033680   -0.0059198    0.0018562    0.0231279   -0.1474424    0.9888002
   0.0036575   -0.0051800    0.0018484    0.2105186    0.1479991    0.9663220
   0.0040732   -0.0050703    0.0015788    0.2993810    0.0532636    0.9526458
   0.0034926   -0.0052958    0.0019493    0.0732896    0.1087302    0.9913659
   0.0028357   -0.0108762   -0.0011763   -0.4008610   -0.7096061    0.5794563
   0.0029140   -0.0107642   -0.0009701   -0.2523002   -0.6305415    0.7340041
   0.0052229   -0.0043313   -0.0007963    0.8874318    0.0092121    0.4608469
   0.0051577   -0.0038562   -0.0010631    0.8882786    0.1676579    0.4276119
   0.0049141   -0.0029239   -0.0020626    0.8646759    0.4330520    0.2545614
   0.0049651   -0.0031266   -0.0015317    0.8508198    0.3787018    0.3642672
   0.0049043   -0.0030332   -0.0031492    0.9534293    0.3012596    0.0146693
   0.0048243   -0.0027838   -0.0025581    0.8650381    0.4949612    0.0819912
   0.0044639   -0.0026525   -0.0036747    0.9033935    0.3889812   -0.1804820
   0.0045499   -0.0026558   -0.0034637    0.8947760    0.4441169   -0.0462174
   0.0042951   -0.0031913   -0.0046034    0.9249854    0.1617248   -0.3438707
   0.0040142   -0.0031869   -0.0049421    0.8939546    0.1163660   -0.4327865
   0.0040197   -0.0036999   -0.0051788    0.9085311    0.0802072   -0.4100465
   0.0041803   -0.0026824   -0.0042840    0.8854332    0.3708034   -0.2802015
   0.0040783   -0.0043541   -0.0054436    0.9897458   -0.1226055    0.0732887
   0.0040379   -0.0041922   -0.0054269    0.9906249    0.0862815   -0.1059139
   0.0040412   -0.0048165   -0.0056517    0.9233491   -0.2305678    0.3070260
   0.0032502   -0.0076710   -0.0067360    0.1587265   -0.4587641   -0.8742662
   0.0033014   -0.0068971   -0.0068417    0.5793163   -0.3323207   -0.7442819
   0.0033041   -0.0068375   -0.0068475    0.5467668   -0.3699744   -0.7511092
   0.0032765   -0.0062035   -0.0068820    0.6091417   -0.3262770   -0.7228345
   0.0034682   -0.0053386   -0.0068262    0.7399821   -0.4155535   -0.5289062
   0.0027863   -0.0054506   -0.0071248    0.5800194   -0.3262756   -0.7464059
   0.0037700   -0.0052395   -0.0065118    0.8827786   -0.2364432   -0.4059515
   0.0036313   -0.0053216   -0.0066755    0.8193605   -0.4550481   -0.3486827
   0.0030220   -0.0069860   -0.0068964    0.3045742   -0.4178525   -0.8559403
   0.0030161   -0.0072414   -0.0068194    0.0688017   -0.4868380   -0.8707784
   0.0033086   -0.0074453   -0.0067997    0.2226405   -0.4301126   -0.8748911
   0.0032362   -0.0076606   -0.0067365    0.0404724   -0.4557667   -0.8891786
   0.0028105   -0.0089727   -0.0063744   -0.5984960   -0.1759925   -0.7815556
   0.0027094   -0.0085011   -0.0062818   -0.6403480   -0.1004222   -0.7614918
   0.0028261   -0.0075672   -0.0066069   -0.1802658   -0.4690729   -0.8645663
   0.0025710   -0.0080452   -0.0062445   -0.6632816   -0.2042733   -0.7199513
   0.0026405   -0.0078930   -0.0063881   -0.4818566   -0.2412364   -0.8423890
   0.0024734   -0.0074500   -0.0063930   -0.4596625   -0.5071928   -0.7290170
   0.0039810   -0.0051568   -0.0061277    0.9474503   -0.3015628    0.1067606
   0.0039771   -0.0051905   -0.0061219    0.9427598   -0.3183710    0.0992161
   0.0037038   -0.0046213   -0.0065153    0.8669508   -0.0500619   -0.4958730
   0.0036090   -0.0050095   -0.0066859    0.8501414   -0.1708093   -0.4980800
   0.0040081   -0.0048927   -0.0061719    0.9729101   -0.2288974   -0.0324344
   0.0038543   -0.0045828   -0.0063572    0.9291678    0.0228884   -0.3689489
   0.0039174   -0.0045639   -0.0062463    0.9682062   -0.0341328   -0.2478137
   0.0040082   -0.0052833   -0.0058621    0.9897637   -0.1141449    0.0856669
   0.0040082   -0.0052833   -0.0058621    0.9797739   -0.1323375    0.1500999
   0.0018507   -0.0102959   -0.0029609   -0.9376554   -0.3461391   -0.0314653
   0.0014616   -0.0099163   -0.0032492   -0.9052524   -0.4016945   -0.1384184
   0.0011585   -0.0088639   -0.0042124   -0.8879648   -0.1929537   -0.4174774
   0.0009059   -0.0090214   -0.0030587   -0.8801617   -0.2652008   -0.3936800
   0.0012699   -0.0090444   -0.0047261   -0.8368282   -0.1639597   -0.5223369
   0.0025689   -0.0088058   -0.0059971   -0.6518827   -0.0413290   -0.7571928
   0.0023642   -0.0087267   -0.0056943   -0.4387791   -0.0064590   -0.8985718
   0.0021106   -0.0083395   -0.0054514   -0.2806497   -0.0771914   -0.9567012
   0.0014285   -0.0080929   -0.0049897   -0.4713187    0.0053129   -0.8819470
   0.0013195   -0.0088901   -0.0048854   -0.6439506   -0.0766910   -0.7612136
   0.0018683   -0.0083925   -0.0053460   -0.2172795   -0.0513135   -0.9747597
   0.0027267   -0.0109432   -0.0013641   -0.4751116   -0.6424075    0.6013165
   0.0021704   -0.0110948   -0.0023075   -0.9473790   -0.2149898   -0.2371758
   0.0018624   -0.0101923   -0.0024266   -0.9407718   -0.3291113   -0.0814508
   0.0020044   -0.0104635   -0.0022346   -0.9351463   -0.1406950   -0.3251252
   0.0022168   -0.0111626   -0.0020609   -0.8859581   -0.4617296   -0.0434048
   0.0025572   -0.0110406   -0.0015024   -0.4489807   -0.6183570    0.6450201
   0.0024089   -0.0111372   -0.0016565   -0.6168838   -0.6134215    0.4931211
   0.0020383   -0.0109289   -0.0016687   -0.8330978   -0.5516287    0.0406680
   0.0022097   -0.0111514   -0.0020998   -0.9107215   -0.4055178   -0.0783685
   0.0024198   -0.0099828   -0.0001090    0.0086050   -0.5045690    0.8633285
   0.0026461   -0.0106607   -0.0007748   -0.2432992   -0.6353654    0.7328822
   0.0025070   -0.0103333   -0.0004212   -0.0543499   -0.4601228    0.8861902
   0.0025104   -0.0103499   -0.0004384   -0.1025521   -0.4979430    0.8611247
   0.0026164   -0.0093345    0.0005141    0.0431010   -0.6309196    0.7746501
   0.0026580   -0.0091782    0.0007449    0.0979817   -0.6671695    0.7384337
   0.0026619   -0.0089732    0.0010006    0.1282463   -0.5321881    0.8368564
   0.0021038   -0.0081580    0.0018837   -0.0820764   -0.2230866    0.9713371
   0.0020282   -0.0076743    0.0020135   -0.0200248    0.1239513    0.9920862
   0.0018333   -0.0072772    0.0020378    0.1549483    0.2927824    0.9435409
   0.0019828   -0.0065147    0.0021344   -0.1497721    0.0275015    0.9883380
   0.0018309   -0.0071885    0.0020319   -0.1758476    0.1620756    0.9709836
   0.0026793   -0.0062616    0.0019823   -0.0642893   -0.1312815    0.9892583
   0.0022805   -0.0061642    0.0021285   -0.1090285    0.1192898    0.9868550
   0.0023124   -0.0061256    0.0021263   -0.1799521    0.0811398    0.9803232
   0.0023814   -0.0088259    0.0013185   -0.0690452   -0.5185843    0.8522342
   0.0022747   -0.0084779    0.0016484   -0.0331866   -0.3608154    0.9320466
   0.0030473   -0.0058564    0.0020319   -0.0502137   -0.0868866    0.9949519
   0.0043895   -0.0045655    0.0013061    0.5117531    0.1323714    0.8488737
   0.0042899   -0.0047314    0.0014056    0.4111774    0.0595893    0.9096055
   0.0048507   -0.0048167    0.0006331    0.6963415   -0.0170692    0.7175076
   0.0045044   -0.0044642    0.0011422    0.5949033    0.0596723    0.8015792
   0.0041837   -0.0048996    0.0014953    0.3845523    0.0300522    0.9226139
   0.0051389   -0.0047045   -0.0001480    0.8209978   -0.0036589    0.5709196
   0.0036569   -0.0048782    0.0018233    0.1557560    0.2799227    0.9473032
   0.0033285   -0.0048513    0.0019486    0.0094478    0.4143865    0.9100519
   0.0039532   -0.0046058    0.0016428    0.2221202    0.2434220    0.9441442
   0.0030050   -0.0054555    0.0020921   -0.0419978    0.1149158    0.9924871
   0.0030830   -0.0052029    0.0020792   -0.0620036    0.2963675    0.9530592
   0.0021696   -0.0106235   -0.0006915   -0.4362014   -0.7350707    0.5190369
   0.0022536   -0.0108661   -0.0012861   -0.5134880   -0.7183724    0.4693305
   0.0051012   -0.0041917   -0.0003413    0.8575933    0.1180383    0.5006004
   0.0049316   -0.0038928   -0.0000606    0.8226741    0.2573444    0.5069331
   0.0046458   -0.0026299   -0.0020044    0.8245888    0.5431457    0.1582596
   0.0046609   -0.0026683   -0.0018920    0.7573576    0.6045024    0.2469542
   0.0046848   -0.0027343   -0.0017011    0.8362697    0.4966891    0.2322776
   0.0047213   -0.0028553   -0.0013688    0.7687112    0.5381305    0.3456858
   0.0041678   -0.0022296   -0.0026575    0.7279049    0.6845782    0.0388234
   0.0042318   -0.0023625   -0.0035226    0.7898354    0.5908975   -0.1643172
   0.0041341   -0.0023779   -0.0037231    0.7762859    0.5782277   -0.2510637
   0.0041296   -0.0022328   -0.0031803    0.7605800    0.6488799   -0.0217493
