NORM_ASCII
1434 2864
   0.0017218   -0.0044845   -0.0000607    0.1012713   -0.9938689    0.0443712
   0.0016208   -0.0044401    0.0006825   -0.0610369   -0.9922846   -0.1079151
   0.0028484   -0.0041461   -0.0009907    0.6243921   -0.7810868    0.0061541
   0.0026618   -0.0042415   -0.0008541    0.4981610   -0.8664177   -0.0340002
   0.0023875   -0.0040164   -0.0023707    0.7283928   -0.5826810   -0.3604535
   0.0027420   -0.0038838   -0.0020251    0.7269134   -0.4742401   -0.4966822
   0.0025434   -0.0042244   -0.0014239    0.4917598   -0.8627382   -0.1177074
   0.0019264   -0.0043107   -0.0026864    0.6164001   -0.7670465   -0.1780183
   0.0050702    0.0013963    0.0029480    0.6674796    0.5904744    0.4536640
   0.0039943    0.0021641    0.0032236    0.4419996    0.7374900    0.5106318
   0.0049346    0.0019056    0.0026043    0.5763354    0.6658960    0.4737299
   0.0033751    0.0020113    0.0040502    0.5475687    0.6718577    0.4987743
   0.0022824    0.0028881    0.0039334    0.3592395    0.8481899    0.3892567
   0.0027560    0.0030781    0.0029371    0.2131495    0.9183656    0.3334244
   0.0025672    0.0030625    0.0031114    0.1938519    0.9331632    0.3027008
   0.0034187    0.0028538    0.0028286    0.3302343    0.7830638    0.5270259
   0.0029891    0.0030580    0.0027047    0.1628037    0.8985719    0.4075088
   0.0038742   -0.0042020    0.0058305    0.3475822   -0.8217099    0.4516408
   0.0032144   -0.0038455    0.0063126    0.0757803   -0.6598698    0.7475488
   0.0033744   -0.0040551    0.0061110    0.1550821   -0.7186036    0.6779074
   0.0035823   -0.0042359    0.0058631    0.1922147   -0.8131464    0.5494055
   0.0031583   -0.0036126    0.0064797    0.3309370   -0.4143330    0.8478260
   0.0030777   -0.0033818    0.0066495    0.4969982   -0.3029343    0.8131565
   0.0029419   -0.0034267    0.0067189    0.4385757   -0.4042298    0.8026516
   0.0026604   -0.0029515    0.0070205    0.4701612   -0.1828481    0.8634321
   0.0029231   -0.0031601    0.0068288    0.4774562   -0.2569298    0.8402516
   0.0037394   -0.0043116    0.0056017    0.3558273   -0.9018135    0.2451927
   0.0036310   -0.0043348    0.0054508    0.1015779   -0.9829865    0.1530340
   0.0024340   -0.0030181    0.0071202    0.4960515   -0.2626542    0.8276145
   0.0023876   -0.0027362    0.0072016    0.4986696   -0.0062307    0.8667698
   0.0018650   -0.0025783    0.0074585    0.4093643    0.0204178    0.9121425
   0.0012349   -0.0023695    0.0076133    0.1175742   -0.0315570    0.9925626
   0.0013481   -0.0026800    0.0075922    0.0658775   -0.1999643    0.9775860
   0.0016245   -0.0026392    0.0075438    0.2813150   -0.1064163    0.9536967
   0.0020916   -0.0025562    0.0073358    0.4364513    0.0926423    0.8949456
   0.0021763   -0.0028116    0.0073170    0.4514318   -0.0387599    0.8914634
   0.0012070   -0.0009534    0.0074259    0.2475015    0.2619909    0.9327935
   0.0009936   -0.0017256    0.0076140    0.1774222    0.1663462    0.9699744
   0.0011421   -0.0020592    0.0076380    0.1570264    0.0615766    0.9856729
   0.0018377    0.0007923    0.0065616    0.3342631    0.4704823    0.8166484
   0.0009864    0.0001939    0.0071112    0.2718091    0.3366164    0.9015593
   0.0012009   -0.0004285    0.0072556    0.2626253    0.3072148    0.9146841
   0.0011915    0.0006355    0.0069270    0.2737983    0.3934718    0.8776186
   0.0017335    0.0013486    0.0062817    0.8934638    0.2780617    0.3527097
   0.0015670    0.0012517    0.0064432    0.3252531    0.5382450    0.7774978
   0.0013329    0.0016290    0.0063312    0.2751835    0.5643192    0.7783430
   0.0015457    0.0012818    0.0064319    0.5063665    0.4984289    0.7036771
   0.0007815    0.0019860    0.0062249    0.1705144    0.6420535    0.7474571
   0.0014310    0.0030873    0.0042119    0.1568236    0.9195248    0.3603893
   0.0015062    0.0027141    0.0049730    0.1594934    0.8915061    0.4240033
   0.0006812    0.0023996    0.0058782    0.1465964    0.7881833    0.5977262
   0.0029683   -0.0045847    0.0040466    0.5882288   -0.7670941    0.2560341
   0.0028626   -0.0047868    0.0038085    0.6204078   -0.7740553    0.1262244
   0.0028052   -0.0043926    0.0052082    0.1724637   -0.9382177    0.3000062
   0.0032717   -0.0043340    0.0054135    0.6777632   -0.7095530    0.1927993
   0.0026992   -0.0044812    0.0050272    0.3898718   -0.8187650    0.4214544
   0.0027227   -0.0046657    0.0045395    0.6499398   -0.7098243    0.2715285
   0.0027023   -0.0048891    0.0039765    0.7200689   -0.6757956    0.1574834
   0.0032717   -0.0043340    0.0054135    0.8529831   -0.5168423    0.0727589
   0.0050414    0.0022175    0.0020481    0.6936831    0.6363994    0.3373418
   0.0055896    0.0016348   -0.0004216    0.8737757    0.2334073   -0.4266580
   0.0057120    0.0016865    0.0000940    0.9159314    0.3608333   -0.1756959
   0.0056462    0.0019788    0.0001552    0.8803963    0.4695438   -0.0665655
   0.0052883    0.0022009    0.0015068    0.7046888    0.6510662    0.2820045
   0.0054887    0.0023804    0.0000068    0.8088448    0.5723127   -0.1350124
   0.0052238    0.0027928    0.0004444    0.7312481    0.6647768    0.1528006
   0.0056978    0.0008809   -0.0002337    0.8506034    0.0542137   -0.5230055
   0.0057794    0.0004396   -0.0000201    0.9026187    0.0206971   -0.4299432
   0.0046469   -0.0017111   -0.0010054    0.6495001   -0.0721736   -0.7569284
   0.0042318   -0.0028884   -0.0011307    0.7004576   -0.1479359   -0.6981934
   0.0039492   -0.0027659   -0.0014322    0.6720912   -0.0929737   -0.7346083
   0.0032096   -0.0030672   -0.0021107    0.7172770   -0.1718932   -0.6752528
   0.0036358   -0.0016166   -0.0018737    0.6875860   -0.0043548   -0.7260899
   0.0040162   -0.0014454   -0.0015355    0.6298253   -0.1291758   -0.7659201
   0.0049766    0.0000410   -0.0011690    0.7459282   -0.0786398   -0.6613675
   0.0050614    0.0003455   -0.0011146    0.8040767    0.0338834   -0.5935593
   0.0055416    0.0002796   -0.0003511    0.8187843    0.0089565   -0.5740313
   0.0054629    0.0003443   -0.0004756    0.8249720    0.0083367   -0.5651121
   0.0025491   -0.0049203    0.0033388    0.4352474   -0.8977959   -0.0672480
   0.0020831   -0.0049960    0.0031253    0.2620703   -0.9418867   -0.2101635
   0.0018951   -0.0050382    0.0032870   -0.0708833   -0.9845085   -0.1603702
   0.0014209   -0.0048078    0.0032174   -0.3695521   -0.9238710   -0.0994665
   0.0011422   -0.0044228    0.0017757   -0.3701017   -0.9249699   -0.0863442
   0.0019201   -0.0044367   -0.0014827    0.3808821   -0.9238680   -0.0373736
   0.0015077   -0.0044626    0.0000994   -0.0023931   -0.9973067    0.0733051
   0.0004012   -0.0042676    0.0000484   -0.0983996   -0.9874102    0.1238490
  -0.0000524   -0.0042879   -0.0009714   -0.0194691   -0.9774810    0.2101234
   0.0004347   -0.0047884   -0.0027216    0.2632511   -0.9588706    0.1061414
   0.0013651   -0.0045626   -0.0022603    0.3945790   -0.9187471    0.0145336
   0.0006041   -0.0041317    0.0017941   -0.2270932   -0.9697674    0.0893296
   0.0025705   -0.0037633   -0.0024335    0.7802474   -0.3490178   -0.5190381
   0.0023349   -0.0038263   -0.0027677    0.8282200   -0.3172611   -0.4619491
   0.0021114   -0.0041224   -0.0027797    0.7795947   -0.5292220   -0.3348973
   0.0012768   -0.0046074   -0.0028219    0.4572179   -0.8874256   -0.0585453
   0.0016504   -0.0044035   -0.0030891    0.6093196   -0.7547732   -0.2429962
   0.0018343   -0.0042223   -0.0031855    0.7444773   -0.5518247   -0.3758231
   0.0048418    0.0025334    0.0019487    0.5558397    0.7257526    0.4053706
   0.0026632    0.0032007    0.0024541    0.0597625    0.9653238    0.2541228
   0.0024191    0.0033468    0.0021267    0.0786937    0.9435708    0.3216854
   0.0045534    0.0029010    0.0017619    0.4740457    0.7814982    0.4056369
   0.0040764    0.0032381    0.0017420    0.1811064    0.8821687    0.4347171
   0.0035491   -0.0042625    0.0058062    0.0950104   -0.9281680    0.3598293
   0.0033552   -0.0040878    0.0060697   -0.0528047   -0.8436011    0.5343678
   0.0031549   -0.0036413    0.0064605    0.2870599   -0.5640143    0.7742638
   0.0031065   -0.0038442    0.0062974    0.1920717   -0.7696355    0.6089086
   0.0029191   -0.0040058    0.0059748   -0.0055372   -0.8968361    0.4423284
   0.0029155   -0.0036716    0.0065627    0.3640815   -0.5824043    0.7268080
   0.0026737   -0.0034725    0.0067759    0.2918872   -0.5296761    0.7963950
   0.0025909   -0.0036878    0.0065613    0.0822863   -0.7765314    0.6246823
   0.0026868   -0.0032225    0.0069184    0.3734742   -0.4203454    0.8269382
   0.0024287   -0.0032727    0.0069856    0.4126575   -0.4852080    0.7709001
   0.0032717   -0.0043340    0.0054135    0.8397118   -0.5259474    0.1351418
   0.0022086   -0.0030858    0.0072213    0.4946187   -0.3192119    0.8083663
   0.0021623   -0.0033197    0.0070441    0.3579759   -0.6500856    0.6702552
   0.0019074   -0.0027750    0.0074147    0.3556227   -0.0191152    0.9344341
   0.0016760   -0.0029235    0.0074679    0.2871539   -0.3074175    0.9072139
   0.0018575   -0.0028829    0.0074150    0.2951938   -0.2158698    0.9307314
   0.0009842   -0.0026774    0.0075503   -0.1005075   -0.3238794    0.9407446
   0.0009341   -0.0023944    0.0076278   -0.0880529   -0.2110434    0.9735026
   0.0009864   -0.0029362    0.0074234   -0.1773670   -0.5309210    0.8286518
   0.0013829   -0.0029561    0.0074990    0.0947313   -0.3933166    0.9145097
   0.0019374   -0.0028741    0.0074042    0.3241832   -0.0979713    0.9409075
   0.0019553   -0.0031400    0.0072933    0.3431512   -0.4476700    0.8257354
   0.0004270   -0.0011030    0.0076215    0.1205909    0.1137568    0.9861629
   0.0008291   -0.0020834    0.0076487   -0.0211850   -0.0163400    0.9996420
   0.0009570    0.0010132    0.0068143    0.2133631    0.5057862    0.8358568
   0.0002262   -0.0000451    0.0074688    0.1475072    0.3106639    0.9390046
   0.0004853    0.0004481    0.0071984    0.1946018    0.4120858    0.8901210
   0.0002988   -0.0007806    0.0076187    0.1437836    0.1689656    0.9750779
  -0.0000670    0.0016870    0.0066834    0.0729539    0.5393855    0.8388927
  -0.0002528    0.0019209    0.0065609   -0.0042933    0.6510082    0.7590585
  -0.0000780    0.0028778    0.0055653    0.0314897    0.8345007    0.5501063
   0.0003951    0.0026779    0.0056496    0.1659418    0.8160855    0.5535953
  -0.0000800    0.0033327    0.0045157    0.0489478    0.9481447    0.3140472
   0.0003474    0.0024650    0.0059069    0.0927366    0.7326249    0.6742854
   0.0026398   -0.0049403    0.0038699    0.6315067   -0.7746667   -0.0330260
   0.0024379   -0.0050100    0.0035748    0.5479935   -0.8264250   -0.1293246
   0.0029243   -0.0043391    0.0053886    0.0222947   -0.8926528    0.4501932
   0.0025324   -0.0043210    0.0053178    0.2181967   -0.7867195    0.5774622
   0.0030802   -0.0042337    0.0056421    0.1068225   -0.8961281    0.4307475
   0.0024108   -0.0047102    0.0048187    0.4598450   -0.7302903    0.5051916
   0.0024580   -0.0048726    0.0045203    0.5502232   -0.7350983    0.3960870
   0.0025309   -0.0049839    0.0041330    0.6056163   -0.7672519    0.2110769
   0.0024526   -0.0050431    0.0040033    0.4644635   -0.8848387    0.0365255
   0.0048384    0.0030509    0.0009284    0.5615192    0.7773753    0.2835203
   0.0047453    0.0028100    0.0015376    0.5927526    0.7531233    0.2853938
   0.0055849    0.0018969   -0.0003004    0.8882087    0.3339621   -0.3155227
   0.0053484    0.0017996   -0.0007435    0.9166580    0.1149111   -0.3827969
   0.0049344    0.0031966    0.0002747    0.6441626    0.7648790   -0.0038330
   0.0053342    0.0023208   -0.0004982    0.7740796    0.4890750   -0.4020030
   0.0049712    0.0029568   -0.0004937    0.6811132    0.6558116   -0.3255702
   0.0041425   -0.0011286   -0.0015162    0.6436808   -0.1514558   -0.7501575
   0.0041737   -0.0022320   -0.0013009    0.6262572   -0.0162299   -0.7794476
   0.0042123   -0.0019007   -0.0012992    0.6098025   -0.0133969   -0.7924402
   0.0025374   -0.0020764   -0.0029054    0.6804945    0.0297855   -0.7321476
   0.0020760   -0.0025585   -0.0033037    0.7027784    0.0489294   -0.7097242
   0.0027844   -0.0033223   -0.0024426    0.7486692   -0.1526052   -0.6451404
   0.0021742   -0.0009153   -0.0032943    0.6499708    0.0196585   -0.7597049
   0.0034507   -0.0011663   -0.0021230    0.6350458   -0.0993510   -0.7660589
   0.0037281   -0.0013090   -0.0018255    0.6480648   -0.1774305   -0.7406284
   0.0035039   -0.0011891   -0.0020665    0.6330453   -0.2237224   -0.7410816
   0.0047436    0.0001982   -0.0014755    0.7399965    0.0106736   -0.6725260
   0.0047311    0.0001988   -0.0014902    0.7051048   -0.0761847   -0.7049986
   0.0046259    0.0008158   -0.0017417    0.7735678   -0.0235627   -0.6332753
   0.0049614    0.0011040   -0.0013082    0.8115229    0.0932142   -0.5768377
   0.0021761   -0.0051131    0.0036111    0.3023618   -0.9420001   -0.1456473
   0.0020436   -0.0051201    0.0037349    0.0669672   -0.9961419   -0.0567162
   0.0017048   -0.0049892    0.0034915   -0.2488830   -0.9638818   -0.0948106
   0.0014487   -0.0048582    0.0037947   -0.4236858   -0.9057581    0.0096242
   0.0006594   -0.0042289    0.0029517   -0.4813419   -0.8756620   -0.0390642
   0.0000889   -0.0038450    0.0024157   -0.3767588   -0.9211349    0.0977922
  -0.0000096   -0.0037688    0.0031711   -0.4695382   -0.8817429    0.0454240
  -0.0000815   -0.0041252   -0.0000766   -0.1678797   -0.9715922    0.1668084
  -0.0002158   -0.0041855   -0.0005765   -0.1306133   -0.9713119    0.1987294
  -0.0005139   -0.0042353   -0.0011142   -0.0549950   -0.9598723    0.2749921
  -0.0004991   -0.0048884   -0.0031241    0.0756690   -0.9743530    0.2119208
   0.0009991   -0.0046525   -0.0032023    0.4036154   -0.8973045   -0.1787157
   0.0003461   -0.0048274   -0.0032806    0.3655892   -0.9127316   -0.1823887
   0.0001577   -0.0048733   -0.0031205    0.2690353   -0.9631296   -0.0011642
  -0.0006636   -0.0036294    0.0013531   -0.4166301   -0.8814364    0.2224617
  -0.0008399   -0.0036411    0.0008903   -0.3911333   -0.8827475    0.2603298
  -0.0007339   -0.0039040    0.0000448   -0.2563008   -0.9384305    0.2316420
   0.0024344   -0.0034726   -0.0028004    0.8069679   -0.1460207   -0.5722594
   0.0020366   -0.0039310   -0.0032043    0.8110838   -0.3105664   -0.4956728
   0.0021438   -0.0035957   -0.0032031    0.8176924   -0.0584567   -0.5726796
   0.0012001   -0.0045669   -0.0033255    0.4579444   -0.8540691   -0.2466837
   0.0015569   -0.0042580   -0.0035616    0.6405595   -0.5456997   -0.5402734
   0.0013718   -0.0044388   -0.0034650    0.5207098   -0.7276816   -0.4464760
   0.0016778   -0.0040656   -0.0035925    0.7316879   -0.3416299   -0.5898489
   0.0033194    0.0036514    0.0013988    0.0977652    0.8844341    0.4563095
   0.0011244    0.0033866    0.0031171    0.2127567    0.9092663    0.3577282
   0.0024736    0.0036037    0.0015616    0.0862593    0.8520842    0.5162478
   0.0015311    0.0036555    0.0020740    0.2434299    0.8797723    0.4083412
   0.0041695    0.0035016    0.0011435    0.3844837    0.8621283    0.3300106
   0.0028851   -0.0040209    0.0059235   -0.1111679   -0.9003336    0.4207626
   0.0027984   -0.0038680    0.0063125    0.1002172   -0.8672436    0.4876936
   0.0026087   -0.0038516    0.0062638   -0.0536518   -0.9374322    0.3440092
   0.0023475   -0.0034895    0.0067728    0.1982025   -0.7468242    0.6347988
   0.0020315   -0.0037416    0.0062393    0.0911570   -0.9030144    0.4198278
   0.0019194   -0.0032448    0.0071946    0.3001483   -0.6792515    0.6697226
   0.0020351   -0.0035120    0.0067839    0.1389355   -0.8733085    0.4669360
   0.0015915   -0.0033943    0.0071225    0.1445262   -0.8250588    0.5462510
   0.0016718   -0.0031788    0.0073343    0.2565717   -0.5477117    0.7963560
   0.0013481   -0.0031959    0.0073338    0.0061821   -0.6498106    0.7600710
   0.0006381   -0.0026362    0.0074400   -0.2771788   -0.4601080    0.8434883
   0.0007032   -0.0020772    0.0076262   -0.0789237   -0.0947934    0.9923635
   0.0004522   -0.0020739    0.0075933   -0.1909873   -0.2844995    0.9394594
   0.0001681   -0.0023153    0.0074066   -0.2786714   -0.4464198    0.8503244
   0.0006646   -0.0028877    0.0073027   -0.3226275   -0.6625386    0.6759838
   0.0008832   -0.0031404    0.0071876   -0.2368796   -0.7691438    0.5935536
   0.0001377   -0.0011391    0.0076567   -0.0548055   -0.0084309    0.9984615
   0.0003737   -0.0017750    0.0076416   -0.0440875   -0.0971666    0.9942912
  -0.0003363    0.0012506    0.0069689   -0.0355022    0.4673775    0.8833447
  -0.0002318    0.0006698    0.0072374   -0.0093694    0.3929654    0.9195055
  -0.0003829   -0.0000995    0.0075076   -0.1573676    0.2337054    0.9594880
  -0.0000226   -0.0007997    0.0076207   -0.0751025    0.0603981    0.9953450
  -0.0005236    0.0016516    0.0067005   -0.2333482    0.5270863    0.8171467
  -0.0005379    0.0021535    0.0063107   -0.3053261    0.6071584    0.7335766
  -0.0004515    0.0026625    0.0058274   -0.2862245    0.7112393    0.6420391
  -0.0006443    0.0031930    0.0049947   -0.2590893    0.8309724    0.4922982
  -0.0004573    0.0036803    0.0037787    0.0510402    0.9445815    0.3242848
  -0.0007390    0.0033917    0.0045471   -0.1598167    0.8988294    0.4081229
   0.0026102   -0.0041837    0.0054877   -0.0225753   -0.8121735    0.5829791
   0.0022326   -0.0043523    0.0053421    0.2139643   -0.7096059    0.6713260
   0.0021007   -0.0039525    0.0057977    0.1899487   -0.7786852    0.5979706
   0.0020565   -0.0047762    0.0049020    0.1784902   -0.7961743    0.5781416
   0.0023312   -0.0047340    0.0048520    0.4021388   -0.7580348    0.5134857
   0.0023131   -0.0050559    0.0042418    0.4303151   -0.8558826    0.2868692
   0.0022196   -0.0049333    0.0046078    0.2981648   -0.8436564    0.4464769
   0.0022644   -0.0050853    0.0041650    0.3158836   -0.9408790    0.1223285
   0.0019871   -0.0051230    0.0037880   -0.0135258   -0.9998972   -0.0047483
   0.0045371    0.0035449    0.0001835    0.4904063    0.8662976    0.0950266
   0.0040699    0.0038674    0.0001483    0.4003472    0.8975351    0.1848049
   0.0054198    0.0020206   -0.0005407    0.8316184    0.3382319   -0.4404657
   0.0053484    0.0017996   -0.0007435    0.9739684    0.1067813   -0.1999582
   0.0050613    0.0016780   -0.0011490    0.7953967    0.1602348   -0.5845245
   0.0053484    0.0017996   -0.0007435    0.9643434    0.0886897   -0.2493510
   0.0050707    0.0017565   -0.0011230    0.8633805    0.1431507   -0.4838202
   0.0044854    0.0035338   -0.0003986    0.5392632    0.8204554   -0.1898633
   0.0053664    0.0020724   -0.0006393    0.8584754    0.2944816   -0.4198816
   0.0043344    0.0026980   -0.0018781    0.6824898    0.5864646   -0.4361959
   0.0044174    0.0032514   -0.0010850    0.5433466    0.7222786   -0.4278880
   0.0044491    0.0003362   -0.0017853    0.6426106   -0.1664190   -0.7479013
   0.0017255   -0.0013761   -0.0036956    0.6506226    0.0990904   -0.7529085
   0.0019130   -0.0033865   -0.0035159    0.7537330    0.0429614   -0.6557750
   0.0010681   -0.0030520   -0.0044369    0.6727076    0.0849595   -0.7350145
   0.0025093    0.0007189   -0.0032416    0.5730873   -0.0514175   -0.8178797
   0.0017467    0.0000448   -0.0037107    0.5756501    0.0211585   -0.8174223
   0.0037782    0.0012775   -0.0026031    0.5679463   -0.1201429   -0.8142497
   0.0044563    0.0011577   -0.0020532    0.6956733   -0.0970308   -0.7117751
   0.0029059    0.0009555   -0.0030367    0.5029946   -0.1272387   -0.8548723
   0.0042824    0.0004331   -0.0019510    0.6381189   -0.1651504   -0.7520170
   0.0044561    0.0003523   -0.0017845    0.6827238   -0.0789002   -0.7264042
   0.0045622    0.0014307   -0.0019416    0.8062878    0.0811301   -0.5859333
   0.0046074    0.0020195   -0.0018154    0.8218270    0.1763927   -0.5417435
   0.0017041   -0.0050154    0.0041069   -0.2642512   -0.9513135    0.1586628
   0.0016035   -0.0049371    0.0042381   -0.3669930   -0.9053709    0.2135876
   0.0012490   -0.0046869    0.0040630   -0.5139244   -0.8491911    0.1214753
  -0.0006530   -0.0033728    0.0020840   -0.4825381   -0.8584563    0.1738096
  -0.0008174   -0.0029489    0.0036831   -0.4952098   -0.8584216    0.1337145
  -0.0008824   -0.0039568   -0.0004627   -0.1307201   -0.9548271    0.2668659
  -0.0009683   -0.0048727   -0.0032943    0.1982146   -0.9525181    0.2311284
  -0.0007781   -0.0049123   -0.0034945    0.8456068   -0.5303813    0.0603721
  -0.0003099   -0.0049145   -0.0033177    0.3514696   -0.9361095   -0.0129690
   0.0009056   -0.0045164   -0.0036791    0.3804206   -0.7727763   -0.5080324
   0.0007198   -0.0046404   -0.0035559    0.3274473   -0.8061508   -0.4928480
   0.0005326   -0.0047451   -0.0034233    0.3492077   -0.8497771   -0.3948833
   0.0002516   -0.0046532   -0.0037397    0.3925771   -0.7244340   -0.5666380
   0.0000813   -0.0048011   -0.0036083    0.4511898   -0.8477509   -0.2788300
  -0.0001206   -0.0048878   -0.0034868    0.2824845   -0.9253634   -0.2527944
  -0.0013977   -0.0029037    0.0017528   -0.4844942   -0.8385903    0.2490616
  -0.0017825   -0.0023044    0.0030153   -0.4999758   -0.8533108    0.1479351
  -0.0016817   -0.0034339   -0.0000903   -0.3954859   -0.8499528    0.3480965
  -0.0017251   -0.0030304    0.0007573   -0.4680814   -0.8270514    0.3112648
  -0.0018595   -0.0035950   -0.0006181   -0.3191866   -0.8584221    0.4015364
   0.0018318   -0.0037294   -0.0035907    0.7515179   -0.0945371   -0.6529040
   0.0012748   -0.0041507   -0.0038706    0.4722138   -0.5426320   -0.6946688
   0.0014572   -0.0038616   -0.0039165    0.6435585   -0.2669641   -0.7173302
   0.0035504    0.0041657    0.0001525    0.2735938    0.9244787    0.2654910
   0.0015953    0.0047220    0.0001407    0.0991363    0.8868402    0.4513164
   0.0028479    0.0037811    0.0012818   -0.0211334    0.8088287    0.5876645
   0.0025232    0.0045033    0.0000339    0.1601328    0.9375007    0.3089499
   0.0002973    0.0037803    0.0030998    0.2463507    0.8423494    0.4793316
  -0.0003249    0.0037270    0.0035473    0.1236609    0.8965064    0.4254224
   0.0010546    0.0037907    0.0023788    0.3743143    0.8348705    0.4035840
   0.0025051    0.0038148    0.0012827    0.0886131    0.8389186    0.5369947
   0.0020000    0.0038265    0.0014882    0.1620807    0.8435223    0.5120547
   0.0018119    0.0037937    0.0016543    0.1833471    0.8634407    0.4699510
   0.0013340    0.0045550    0.0005706    0.2746573    0.8668170    0.4161630
   0.0024146   -0.0039330    0.0057868    0.0075905   -0.8988855    0.4381179
   0.0022233   -0.0038365    0.0060134    0.0736856   -0.9342373    0.3489571
   0.0014598   -0.0039899    0.0058032    0.0287010   -0.8451471    0.5337627
   0.0014597   -0.0036589    0.0063950    0.0483560   -0.9202869    0.3882443
   0.0015155   -0.0038095    0.0060773   -0.0690576   -0.8893056    0.4520693
   0.0010705   -0.0034895    0.0066463   -0.1167050   -0.9168016    0.3819094
   0.0012634   -0.0033168    0.0071645   -0.1109377   -0.8435127    0.5255275
  -0.0000405   -0.0025190    0.0071604   -0.3472196   -0.6306151    0.6940916
  -0.0007257   -0.0019141    0.0071891   -0.3477874   -0.4318849    0.8321775
  -0.0000348   -0.0017489    0.0075536   -0.2501220   -0.2632424    0.9317416
  -0.0007117   -0.0021717    0.0070610   -0.3447017   -0.5939751    0.7268936
   0.0004593   -0.0032351    0.0067184   -0.2459046   -0.8624369    0.4424178
  -0.0001565   -0.0026867    0.0069264   -0.3911650   -0.6986699    0.5990411
  -0.0000354   -0.0029246    0.0067044   -0.3820207   -0.8163166    0.4332291
  -0.0006381   -0.0010809    0.0074755   -0.3156924   -0.1618946    0.9349484
  -0.0006590    0.0007410    0.0071478   -0.3222876    0.3351264    0.8853367
  -0.0008064    0.0013346    0.0068306   -0.4431690    0.4035490    0.8004683
  -0.0005673   -0.0004463    0.0075212   -0.2346689    0.1350246    0.9626520
  -0.0009379    0.0003892    0.0071632   -0.4055809    0.2493283    0.8793973
  -0.0005679   -0.0007841    0.0075403   -0.2768518   -0.0696958    0.9583817
  -0.0010055    0.0021197    0.0061173   -0.5369830    0.5502712    0.6394145
  -0.0009581    0.0025442    0.0056339   -0.6260289    0.5683161    0.5339520
  -0.0009247    0.0032789    0.0046755   -0.4705549    0.7291461    0.4969146
  -0.0009275    0.0037642    0.0036404   -0.1447797    0.9095462    0.3895697
  -0.0010201    0.0034967    0.0042370   -0.4443514    0.7837718    0.4338821
   0.0018299   -0.0045859    0.0051311    0.0396108   -0.7741890    0.6317138
   0.0016984   -0.0041863    0.0055869   -0.0041782   -0.7818619    0.6234376
   0.0018862   -0.0049462    0.0045972    0.1121481   -0.8471498    0.5193843
   0.0017171   -0.0047587    0.0048349   -0.1746068   -0.8502728    0.4965366
   0.0021671   -0.0050758    0.0042630    0.2454428   -0.9398724    0.2374821
   0.0020751   -0.0050629    0.0043568    0.0087605   -0.9501576    0.3116469
   0.0018825   -0.0049490    0.0045918   -0.1088125   -0.9087509    0.4029041
   0.0019929   -0.0050761    0.0042449    0.0097442   -0.9863092    0.1646186
   0.0038608    0.0040474   -0.0001977    0.4374827    0.8983292   -0.0401698
   0.0051024    0.0019613   -0.0010626    0.7873234    0.2836127   -0.5474355
   0.0038010    0.0039063   -0.0008297    0.4595833    0.8122557   -0.3591989
   0.0043967    0.0024631   -0.0020423    0.7771125    0.4303393   -0.4592432
   0.0037146    0.0032261   -0.0023025    0.6274107    0.7270629   -0.2788105
   0.0037428    0.0034903   -0.0015854    0.5200649    0.7705436   -0.3685038
   0.0043147    0.0025139   -0.0021425    0.7211125    0.4835992   -0.4961135
   0.0038659    0.0027683   -0.0026513    0.7048381    0.3628664   -0.6095336
   0.0035650    0.0031695   -0.0028106    0.7761608    0.5520890   -0.3045852
   0.0011428    0.0005027   -0.0041816    0.5987689    0.0829489   -0.7966149
   0.0008228   -0.0025644   -0.0046114    0.6292199    0.1524439   -0.7621307
  -0.0005875   -0.0013701   -0.0057265    0.6185716    0.1829982   -0.7641210
   0.0012853   -0.0034302   -0.0041864    0.6841884   -0.0338690   -0.7285185
   0.0010010   -0.0032866   -0.0044772    0.6415153   -0.0766845   -0.7632677
   0.0021138    0.0022645   -0.0037023    0.4496168   -0.1075616   -0.8867216
   0.0014002    0.0014161   -0.0040217    0.4984943    0.0460505   -0.8656690
   0.0042831    0.0016178   -0.0023093    0.7254492    0.0336172   -0.6874543
   0.0041307    0.0022803   -0.0024957    0.6781694    0.0328568   -0.7341707
   0.0037792    0.0022004   -0.0028205    0.5975716   -0.0049209   -0.8018004
   0.0032067    0.0018131   -0.0030704    0.4872137   -0.1092727   -0.8664192
   0.0044002    0.0022110   -0.0021833    0.7897736    0.2317509   -0.5679341
   0.0013726   -0.0046423    0.0045907   -0.4646781   -0.8286611    0.3120818
  -0.0016390   -0.0023647    0.0034775   -0.4714127   -0.8780758    0.0821767
   0.0008238   -0.0040941    0.0047338   -0.4937411   -0.8415742    0.2190267
  -0.0005220   -0.0031009    0.0045855   -0.4074786   -0.9005800    0.1513830
  -0.0007875   -0.0029674    0.0042729   -0.4325982   -0.8974868    0.0858853
  -0.0016676   -0.0047863   -0.0032118   -0.0597700   -0.9186265    0.3905802
  -0.0007781   -0.0049123   -0.0034945    0.6718520   -0.7404965   -0.0167282
  -0.0011536   -0.0049018   -0.0035483    0.1274619   -0.9719342    0.1977303
  -0.0007781   -0.0049123   -0.0034945    0.8642366   -0.4990028   -0.0639630
  -0.0004527   -0.0048945   -0.0034922    0.1709003   -0.9789828   -0.1112912
   0.0006223   -0.0043296   -0.0039508    0.2170626   -0.6649005   -0.7146966
   0.0004372   -0.0044839   -0.0038419    0.2650769   -0.6699972   -0.6934248
   0.0000882   -0.0047836   -0.0036411    0.4439750   -0.7472398   -0.4944884
  -0.0000328   -0.0044302   -0.0039944    0.2397427   -0.4981314   -0.8332998
  -0.0002117   -0.0046461   -0.0039186    0.2948372   -0.6395304   -0.7099802
   0.0000658   -0.0048017   -0.0036278    0.3656209   -0.8267181   -0.4276197
  -0.0004018   -0.0048073   -0.0038083    0.2409380   -0.7999265   -0.5496058
  -0.0005891   -0.0048855   -0.0036635    0.3313808   -0.8838837   -0.3300551
  -0.0019039   -0.0025180    0.0017834   -0.4926725   -0.8340021    0.2484237
  -0.0019949   -0.0021406    0.0032911   -0.5031347   -0.8635747    0.0330785
  -0.0023553   -0.0018117    0.0032573   -0.6399488   -0.7630076    0.0910212
  -0.0025769   -0.0018450    0.0021009   -0.5740932   -0.7741722    0.2665979
  -0.0030461   -0.0017745    0.0013286   -0.5469156   -0.7442381    0.3833966
  -0.0031067   -0.0019065    0.0009661   -0.4741407   -0.7514820    0.4587651
  -0.0028284   -0.0025931    0.0001297   -0.3777184   -0.8017855    0.4631077
  -0.0029597   -0.0029772   -0.0006570   -0.3073230   -0.8147178    0.4917190
  -0.0028803   -0.0035067   -0.0014807   -0.2013278   -0.8586040    0.4714512
   0.0011521   -0.0037573   -0.0042045    0.5703280   -0.2996961   -0.7647929
   0.0007081   -0.0037977   -0.0044235    0.3111550   -0.6027106   -0.7347942
   0.0033172    0.0043335   -0.0001761    0.2644107    0.9578172    0.1125757
   0.0009534    0.0050526   -0.0000962    0.1554066    0.9432862    0.2933598
   0.0021300    0.0048736   -0.0006778    0.1614109    0.9622168    0.2192838
   0.0031300    0.0044501   -0.0005711    0.3214333    0.9469004   -0.0077618
   0.0026555    0.0046901   -0.0006362    0.2574145    0.9567338    0.1356404
  -0.0001754    0.0039895    0.0030199    0.0897089    0.8678389    0.4886797
   0.0007674    0.0041071    0.0021679    0.3638471    0.8206982    0.4405335
  -0.0001711    0.0043830    0.0023729    0.0761628    0.8750428    0.4780160
   0.0008611    0.0043573    0.0015629    0.4525521    0.8145701    0.3628666
   0.0004794    0.0048760    0.0009063    0.2250059    0.9232924    0.3112932
   0.0005743    0.0046603    0.0013457    0.7641413    0.6018864    0.2319931
   0.0012934   -0.0041056    0.0055316   -0.2339803   -0.8626395    0.4484487
  -0.0010263   -0.0023070    0.0066753   -0.3888079   -0.7836297    0.4845130
  -0.0005095   -0.0026052    0.0066745   -0.4085981   -0.8307531    0.3780170
  -0.0011099   -0.0020811    0.0068564   -0.4296010   -0.6393463    0.6377141
  -0.0011438   -0.0015690    0.0071166   -0.4194961   -0.3193765    0.8497186
  -0.0015280   -0.0017359    0.0067838   -0.5292891   -0.4319309    0.7302662
   0.0004718   -0.0034796    0.0059714   -0.4041973   -0.8720683    0.2759010
  -0.0011946   -0.0012642    0.0071537   -0.4657522   -0.1789778    0.8666267
  -0.0008787   -0.0003891    0.0073869   -0.5178725   -0.0056342    0.8554393
  -0.0012473    0.0005205    0.0068913   -0.6166522    0.1763391    0.7672318
  -0.0011879    0.0018608    0.0061772   -0.6576469    0.4128799    0.6301038
  -0.0013589    0.0010094    0.0065890   -0.6964155    0.2638856    0.6673604
  -0.0007790   -0.0001525    0.0073963   -0.3702433    0.1909900    0.9090890
  -0.0009619    0.0000137    0.0072437   -0.5837164    0.1044789    0.8052076
  -0.0016490    0.0015740    0.0058651   -0.7557685    0.3895160    0.5263946
  -0.0016688    0.0031469    0.0040766   -0.7070665    0.5450791    0.4504950
  -0.0016228    0.0028005    0.0045052   -0.7331600    0.4368484    0.5211908
  -0.0017275    0.0022104    0.0049699   -0.7432643    0.4417418    0.5024165
  -0.0006480    0.0041365    0.0029113   -0.1773849    0.8715566    0.4570818
  -0.0012073    0.0038160    0.0033052   -0.4828221    0.7865875    0.3849193
  -0.0013953    0.0034481    0.0039486   -0.6325948    0.6784208    0.3735893
  -0.0012815    0.0036676    0.0035610   -0.6026785    0.7223452    0.3391108
   0.0014905   -0.0044097    0.0052076   -0.2797849   -0.8192423    0.5005622
   0.0035891    0.0041970   -0.0004975    0.4241020    0.8807960   -0.2105608
   0.0035542    0.0038974   -0.0011517    0.4707955    0.7840735   -0.4044507
   0.0035953    0.0034337   -0.0020964    0.5718205    0.7920527   -0.2137142
   0.0034168    0.0035635   -0.0023474    0.6398746    0.7565990   -0.1346048
   0.0031683    0.0037759   -0.0021608    0.6391750    0.7688746    0.0169448
   0.0033158    0.0038308   -0.0016516    0.4945413    0.7927445   -0.3563495
   0.0041486    0.0023596   -0.0024774    0.6978121    0.2366339   -0.6760641
   0.0035595    0.0028120   -0.0029650    0.7015044    0.0149963   -0.7125073
   0.0035805    0.0029120   -0.0029406    0.7889481    0.2282227   -0.5705045
   0.0035237    0.0026211   -0.0030156    0.6041501    0.0653169   -0.7941891
   0.0033498    0.0036443   -0.0023933    0.7815311    0.6197083    0.0719080
   0.0034597    0.0034674   -0.0027657    0.8572431    0.5025810   -0.1120119
   0.0033912    0.0033645   -0.0031847    0.8532504    0.2759722   -0.4424964
   0.0004963    0.0007551   -0.0047022    0.5722148    0.1640436   -0.8035296
   0.0008880    0.0009306   -0.0043734    0.5683280    0.1052070   -0.8160483
   0.0004988   -0.0025887   -0.0049383    0.6370542    0.1242916   -0.7607323
  -0.0004027   -0.0020294   -0.0057053    0.6030478    0.1260446   -0.7876840
  -0.0008307    0.0015068   -0.0056025    0.5105382    0.2154433   -0.8324272
  -0.0014110   -0.0016698   -0.0064584    0.5598510    0.1071858   -0.8216314
   0.0006085   -0.0033807   -0.0047689    0.5218832   -0.3115389   -0.7940916
   0.0003909   -0.0030176   -0.0050256    0.5612684   -0.0706998   -0.8246086
   0.0005304   -0.0034944   -0.0047451    0.5021628   -0.4206935   -0.7555458
   0.0027099    0.0033517   -0.0037897    0.3050865   -0.2297878   -0.9241860
   0.0018136    0.0026656   -0.0038625    0.2477321   -0.0411613   -0.9679538
   0.0030844    0.0032338   -0.0035752    0.6086989   -0.1216044   -0.7840268
   0.0031988    0.0027466   -0.0032747    0.5893200   -0.1428589   -0.7951687
   0.0013021    0.0024397   -0.0040990    0.4123987    0.0569843   -0.9092195
   0.0033077    0.0023303   -0.0031056    0.5113275   -0.1157098   -0.8515606
   0.0009185    0.0018648   -0.0042900    0.4879551    0.1092281   -0.8660076
   0.0011085   -0.0042377    0.0050240   -0.4326442   -0.8342402    0.3418512
  -0.0022186   -0.0019149    0.0042329   -0.5615255   -0.8255717    0.0558607
  -0.0016670   -0.0020496    0.0061512   -0.4264947   -0.8644654    0.2660860
  -0.0009103   -0.0024421    0.0065042   -0.3774334   -0.8896496    0.2570360
  -0.0013448   -0.0021785    0.0064115   -0.4328905   -0.8396101    0.3281168
  -0.0018449   -0.0021199    0.0050367   -0.4812156   -0.8713053    0.0962214
  -0.0019836   -0.0019231    0.0058842   -0.5464879   -0.8065484    0.2254566
  -0.0029552   -0.0042851   -0.0030080   -0.1438311   -0.8849139    0.4429898
  -0.0024201   -0.0048490   -0.0037719   -0.1611709   -0.9351847    0.3153624
  -0.0019025   -0.0049557   -0.0036890    0.0381138   -0.9842229    0.1727793
  -0.0014687   -0.0049241   -0.0035400    0.1793842   -0.9622032    0.2049057
  -0.0030354   -0.0038298   -0.0021023   -0.1423737   -0.8768933    0.4591164
  -0.0010581   -0.0048585   -0.0038285    0.1880017   -0.9161350   -0.3540509
  -0.0012460   -0.0049157   -0.0036739    0.2472231   -0.9570299   -0.1515731
   0.0003362   -0.0040418   -0.0041753    0.1172370   -0.6368719   -0.7620037
  -0.0003657   -0.0041768   -0.0041889    0.2549035   -0.4034519   -0.8787780
  -0.0006061   -0.0038111   -0.0044226    0.2292231   -0.4724917   -0.8510043
  -0.0006862   -0.0045955   -0.0040681    0.2374055   -0.5861794   -0.7746175
  -0.0008716   -0.0047536   -0.0039608    0.2806711   -0.7237754   -0.6303752
  -0.0028279   -0.0013864    0.0024369   -0.7669564   -0.5736434    0.2875953
  -0.0025422   -0.0015908    0.0034342   -0.7315713   -0.6772934    0.0779555
  -0.0028768   -0.0011932    0.0026783   -0.8234889   -0.5336079    0.1926879
  -0.0029412   -0.0014741    0.0019888   -0.7175384   -0.5827427    0.3815096
  -0.0036170   -0.0014874    0.0007503   -0.6654808   -0.5307596    0.5248137
  -0.0031780   -0.0013077    0.0016629   -0.7414715   -0.4806770    0.4681555
  -0.0031178   -0.0025741   -0.0002114   -0.3413874   -0.7772618    0.5285062
  -0.0036232   -0.0019003    0.0003048   -0.4613947   -0.7131255    0.5277943
  -0.0042007   -0.0014698    0.0000647   -0.6289350   -0.4978069    0.5971843
  -0.0046475   -0.0032510   -0.0021180   -0.2704640   -0.8099776    0.5203705
   0.0001414   -0.0034202   -0.0049652    0.2280360   -0.6274367   -0.7445285
   0.0019016    0.0049818   -0.0010366    0.0859796    0.9962085    0.0132713
   0.0009443    0.0051370   -0.0006769    0.0454584    0.9987860    0.0189728
  -0.0002957    0.0053617   -0.0000151    0.1228617    0.9809005    0.1507955
   0.0023738    0.0048198   -0.0009349    0.2412969    0.9704490    0.0021589
   0.0027701    0.0046328   -0.0007713    0.3765262    0.9126643   -0.1589717
   0.0031030    0.0042598   -0.0012568    0.4471354    0.8210490   -0.3548921
   0.0006703    0.0044141    0.0017710    0.4790712    0.7829451    0.3968473
   0.0000075    0.0046251    0.0018737    0.1493634    0.8734950    0.4633540
  -0.0008424    0.0051442    0.0010393   -0.0717157    0.9156678    0.3954863
  -0.0011166    0.0041671    0.0027477   -0.2894679    0.8086769    0.5121035
   0.0004392    0.0048750    0.0009444    0.3954121    0.8725589    0.2868627
   0.0005743    0.0046603    0.0013457    0.8917137    0.4188649    0.1714612
   0.0005743    0.0046603    0.0013457    0.8752714    0.4576036    0.1565215
  -0.0014786   -0.0019769    0.0066294   -0.4877729   -0.7109531    0.5065800
  -0.0014785   -0.0011846    0.0069818   -0.5887567   -0.1733593    0.7895012
  -0.0018169   -0.0013303    0.0066143   -0.7279602   -0.1623685    0.6661159
  -0.0018444   -0.0016075    0.0065173   -0.6857589   -0.3836150    0.6185259
  -0.0016110   -0.0004411    0.0068125   -0.7018897    0.0062730    0.7122581
  -0.0017637    0.0000281    0.0065406   -0.7927986    0.0750226    0.6048487
  -0.0020509    0.0007119    0.0058668   -0.8057932    0.1654492    0.5686158
  -0.0020731    0.0012088    0.0055607   -0.8191518    0.2435866    0.5192841
  -0.0022165    0.0014532    0.0051020   -0.8256275    0.3159718    0.4674409
  -0.0022381    0.0022610    0.0042284   -0.8126536    0.3906849    0.4323882
  -0.0017220    0.0033084    0.0035728   -0.8004104    0.5443417    0.2510681
  -0.0022896    0.0024951    0.0038005   -0.8877129    0.3964160    0.2341369
  -0.0023396    0.0016724    0.0046905   -0.8026830    0.3079783    0.5107342
  -0.0011196    0.0039513    0.0030614   -0.3891940    0.7947230    0.4657717
  -0.0014872    0.0038321    0.0029536   -0.5836094    0.6576557    0.4763286
  -0.0016816    0.0036047    0.0030395   -0.7441918    0.5557001    0.3706426
   0.0029613    0.0040110   -0.0018583    0.6135097    0.7682463   -0.1827663
   0.0029933    0.0041121   -0.0021925    0.8158030    0.5008676    0.2891318
   0.0031958    0.0039338   -0.0024460    0.7934250    0.5846722    0.1692193
   0.0033519    0.0030828   -0.0032716    0.7513506    0.0074801   -0.6598608
   0.0032783    0.0029191   -0.0032742    0.6681312   -0.2019505   -0.7161122
   0.0032541    0.0038697   -0.0028282    0.7722728    0.6308915   -0.0746375
   0.0031937    0.0037873   -0.0033731    0.8270561    0.4999936   -0.2568747
   0.0031954    0.0035504   -0.0035406    0.7648171    0.2269947   -0.6029330
  -0.0003672    0.0022387   -0.0050948    0.5275903    0.2584592   -0.8092264
  -0.0000397    0.0024312   -0.0048154    0.4892916    0.2418204   -0.8379240
  -0.0001586   -0.0024562   -0.0055026    0.5993724   -0.0312955   -0.7998583
   0.0000384   -0.0028983   -0.0052612    0.5104048   -0.1639849   -0.8441539
  -0.0004842   -0.0023324   -0.0057623    0.5583988   -0.0533022   -0.8278585
  -0.0008169   -0.0021719   -0.0059983    0.5511089    0.0016742   -0.8344317
  -0.0016856   -0.0009929   -0.0065211    0.4983699    0.2177794   -0.8391660
  -0.0016248    0.0001922   -0.0062793    0.4807719    0.2062413   -0.8522458
  -0.0018120    0.0005573   -0.0063371    0.4641691    0.2028519   -0.8622054
  -0.0012492    0.0019121   -0.0057834    0.4018520    0.3519581   -0.8453641
  -0.0007145    0.0026172   -0.0052204    0.4630122    0.3488850   -0.8148000
  -0.0015905    0.0017047   -0.0060397    0.4022481    0.3037990   -0.8636565
  -0.0017654   -0.0015595   -0.0066970    0.5065096    0.1042936   -0.8559036
  -0.0011782   -0.0021027   -0.0062479    0.5383534   -0.1557610   -0.8281994
  -0.0015088   -0.0019803   -0.0065032    0.5212490   -0.1279035   -0.8437655
   0.0000548   -0.0029135   -0.0052476    0.4248189   -0.3088423   -0.8509673
   0.0021486    0.0033501   -0.0038797    0.0819316   -0.2926922   -0.9526901
   0.0028544    0.0036683   -0.0037877    0.5239665    0.0865865   -0.8473263
   0.0022387    0.0034511   -0.0039210    0.1511888   -0.3802049   -0.9124616
   0.0024689    0.0037650   -0.0040019    0.2913715   -0.0786155   -0.9533742
   0.0019665    0.0033511   -0.0038968    0.0874339   -0.1660986   -0.9822253
   0.0017705    0.0030099   -0.0038949    0.2354321   -0.0241692   -0.9715902
   0.0012601    0.0030874   -0.0040876    0.3208411    0.1528698   -0.9347148
   0.0030758    0.0035893   -0.0036239    0.5872686    0.2343305   -0.7747288
   0.0005642    0.0029117   -0.0044355    0.3701445    0.1772376   -0.9119100
   0.0004283    0.0026321   -0.0045370    0.4090758    0.2012782   -0.8900248
  -0.0023539   -0.0017927    0.0044172   -0.5969021   -0.8007458    0.0501393
  -0.0026614   -0.0013832    0.0036404   -0.7769935   -0.6280678    0.0425671
  -0.0018053   -0.0018529    0.0063709   -0.5845491   -0.6630402    0.4676324
  -0.0020933   -0.0017110    0.0060834   -0.7310360   -0.5538895    0.3984881
  -0.0025205   -0.0013954    0.0053800   -0.7473461   -0.6159555    0.2491437
  -0.0024586   -0.0015906    0.0052343   -0.7069761   -0.6776670    0.2023665
  -0.0030626   -0.0046082   -0.0036754   -0.1116640   -0.9440601    0.3102929
  -0.0033998   -0.0039300   -0.0025522   -0.1490494   -0.8881700    0.4346703
  -0.0035071   -0.0045310   -0.0038417   -0.1213397   -0.9228010    0.3656706
  -0.0023721   -0.0048870   -0.0038346   -0.1409470   -0.9874475    0.0712842
  -0.0026530   -0.0048065   -0.0041561   -0.0644798   -0.9771582   -0.2024951
  -0.0032151   -0.0046662   -0.0041813   -0.0948201   -0.9924713   -0.0775233
  -0.0017125   -0.0049650   -0.0038749    0.2350867   -0.9534256   -0.1889813
  -0.0019938   -0.0048977   -0.0042025    0.1720957   -0.8648875   -0.4715429
  -0.0021815   -0.0049475   -0.0040443   -0.0089787   -0.9686133   -0.2484102
  -0.0013404   -0.0047323   -0.0041286    0.4443488   -0.6562080   -0.6098731
  -0.0015254   -0.0048792   -0.0040162    0.3681577   -0.7738628   -0.5153604
  -0.0004709   -0.0036849   -0.0044960    0.0532472   -0.7413876   -0.6689612
  -0.0006926   -0.0045884   -0.0040730    0.2668958   -0.4088153   -0.8727180
  -0.0009720   -0.0043174   -0.0042971    0.4311874   -0.4009817   -0.8082643
  -0.0011765   -0.0033154   -0.0049088    0.3155211   -0.5264526   -0.7894897
  -0.0011560   -0.0045344   -0.0042173    0.7270490   -0.3630004   -0.5827782
  -0.0033649   -0.0009270    0.0015501   -0.8172372   -0.3397679    0.4654901
  -0.0032153   -0.0007972    0.0019257   -0.8735283   -0.2964706    0.3860745
  -0.0027954   -0.0011685    0.0032378   -0.8924006   -0.4221738    0.1593439
  -0.0030151   -0.0007755    0.0025024   -0.9162993   -0.2457816    0.3162073
  -0.0039173   -0.0008227    0.0007072   -0.8010461   -0.2334724    0.5511948
  -0.0041860   -0.0009351    0.0002883   -0.7786997   -0.2229775    0.5864366
  -0.0043613   -0.0023249   -0.0007885   -0.4274467   -0.6484038    0.6299697
  -0.0045984   -0.0027179   -0.0013622   -0.3910477   -0.7163431    0.5778704
  -0.0038562   -0.0020375   -0.0000647   -0.4576117   -0.6390743    0.6182035
  -0.0044658   -0.0010538   -0.0001232   -0.7907703   -0.2052630    0.5766709
  -0.0044805   -0.0015885   -0.0003466   -0.6515606   -0.4321593    0.6234639
  -0.0046815   -0.0037550   -0.0029970   -0.2768664   -0.8694233    0.4092043
  -0.0051294   -0.0029094   -0.0021918   -0.5974615   -0.6464196    0.4745328
  -0.0050518   -0.0031366   -0.0023670   -0.5823643   -0.7052571    0.4043071
  -0.0001287   -0.0034440   -0.0048995   -0.0048983   -0.7771176   -0.6293364
  -0.0001449   -0.0031569   -0.0052009    0.1940808   -0.5866915   -0.7862097
   0.0021444    0.0048943   -0.0013087    0.2881059    0.9391087   -0.1872694
   0.0011529    0.0050342   -0.0015492   -0.0013980    0.9852248   -0.1712604
   0.0017339    0.0049788   -0.0015042    0.0968254    0.9790782   -0.1789713
   0.0002902    0.0048757    0.0010875    0.1620626    0.9380641    0.3062212
   0.0006552    0.0051309   -0.0012910    0.1611412    0.9840829   -0.0749287
  -0.0006526    0.0055287   -0.0002248    0.1158157    0.9757347    0.1858186
  -0.0008542    0.0056679   -0.0012233    0.0846072    0.9939273    0.0703566
   0.0025677    0.0046339   -0.0012035    0.3883356    0.8676776   -0.3103725
   0.0028154    0.0043517   -0.0014511    0.3195343    0.8187855   -0.4769572
   0.0006377    0.0044443    0.0017446    0.2899402    0.8568957    0.4262210
   0.0003842    0.0046810    0.0015372    0.3832146    0.8545658    0.3505193
  -0.0014945    0.0045243    0.0020153   -0.3549037    0.7931909    0.4948652
  -0.0013750    0.0051842    0.0007985   -0.3269694    0.8620478    0.3872528
  -0.0011235    0.0056336   -0.0003533   -0.2049581    0.9480483    0.2433035
  -0.0017750    0.0046065    0.0016946   -0.4879536    0.7397625    0.4633063
  -0.0014105    0.0042719    0.0024492   -0.5963511    0.6055581    0.5269390
  -0.0019231   -0.0005748    0.0064254   -0.7947276   -0.0444215    0.6053386
  -0.0020569   -0.0011655    0.0062910   -0.8234150   -0.0789335    0.5619228
  -0.0021082   -0.0014534    0.0062124   -0.7676198   -0.3166187    0.5572364
  -0.0019700   -0.0001667    0.0062792   -0.7743235   -0.0597184    0.6299657
  -0.0020459   -0.0000904    0.0061323   -0.8737987   -0.0379146    0.4848076
  -0.0024900    0.0007974    0.0050731   -0.9002626    0.0118297    0.4351866
  -0.0026098    0.0010181    0.0046591   -0.8688411    0.0646185    0.4908561
  -0.0024409    0.0019021    0.0042634   -0.9105407    0.2864373    0.2981097
  -0.0024341    0.0021834    0.0037558   -0.9498786    0.2744015    0.1497812
  -0.0022203    0.0026415    0.0035388   -0.9419333    0.3335669   -0.0386637
  -0.0019125    0.0031099    0.0033186   -0.9017093    0.3835334    0.1995556
  -0.0025834    0.0015721    0.0042535   -0.9632837    0.1747967    0.2037907
  -0.0025216    0.0013652    0.0046358   -0.8587081    0.1879034    0.4767731
  -0.0017036    0.0038096    0.0026634   -0.7712966    0.5180987    0.3696961
  -0.0019628    0.0034862    0.0026298   -0.8383976    0.3445032    0.4223826
   0.0027648    0.0043204   -0.0015319    0.4891659    0.8679667   -0.0857347
   0.0028324    0.0042693   -0.0018960    0.7481862    0.6021912    0.2785374
   0.0028987    0.0044184   -0.0021608    0.7688744    0.5783261    0.2727107
   0.0030552    0.0042422   -0.0024721    0.7529837    0.6579294    0.0120181
   0.0031393    0.0040389   -0.0026432    0.7068530    0.7031000   -0.0775196
   0.0030797    0.0040247   -0.0032187    0.6486082    0.7059092   -0.2846045
   0.0029666    0.0042164   -0.0030250    0.5680105    0.8135530   -0.1244816
   0.0031762    0.0038049   -0.0034092    0.6972105    0.5336030   -0.4787121
  -0.0008063    0.0028988   -0.0051435    0.3427962    0.4486539   -0.8253487
  -0.0002471   -0.0026654   -0.0055111    0.4776023   -0.2858331   -0.8307800
  -0.0003549   -0.0028121   -0.0054724    0.3788821   -0.4019946   -0.8335759
  -0.0005311   -0.0024407   -0.0057651    0.4691658   -0.2990857   -0.8309219
  -0.0007418   -0.0022482   -0.0059398    0.5041088   -0.1612750   -0.8484484
  -0.0023276   -0.0002118   -0.0068118    0.4698910    0.2301479   -0.8521939
  -0.0021515   -0.0014628   -0.0069105    0.3367402   -0.0688779   -0.9390750
  -0.0023072   -0.0011132   -0.0069622    0.4158133    0.1474643   -0.8974149
  -0.0023714   -0.0004966   -0.0068968    0.4591810    0.2245505   -0.8594939
  -0.0024977    0.0013057   -0.0066008    0.3100725    0.3387345   -0.8883208
